1.257991524847331632e+01 1.014370843036035197e+01 2.895490828180997767e+01
1.308409588980613592e+01 1.082406951153624419e+01 2.972805458913100907e+01
1.337351854611795687e+01 1.196193854865306427e+01 3.048723752143744292e+01
1.327715617372285273e+01 1.280557788268618147e+01 3.079723229636639203e+01
1.335221582555973896e+01 1.345486718593123854e+01 3.119560668465126341e+01
1.342313369592483419e+01 1.404293369522516954e+01 3.170308910466214414e+01
1.278973966941646090e+01 1.686191825193560945e+01 3.304992644179114336e+01
1.140405329414238267e+01 1.870102523050264764e+01 3.370218333325887983e+01
1.219191750308962874e+01 1.767680807925435715e+01 3.327831955065962433e+01
1.175580296935480185e+01 9.620983530649963811e+00 2.797173202100508149e+01
1.111764627531785088e+01 9.615015084493142794e+00 2.731018829173068951e+01
1.341946101118327128e+01 1.524742739786259449e+01 3.253853057677189753e+01
1.333106527284036424e+01 1.577501375986622989e+01 3.278558832128510403e+01
1.062443316471730270e+01 1.949887593461743762e+01 3.381604748141469230e+01
1.265729853886501388e+01 1.721101522202802059e+01 3.353852660109422601e+01
1.297542525807959635e+01 1.014651701393267125e+01 2.934978428042107623e+01
1.151845556164688311e+01 9.239666244778106829e+00 2.762131302676101186e+01
1.359201633683832711e+01 1.140833086814827269e+01 3.053430913657110324e+01
1.349446283964568494e+01 1.087080689728202820e+01 3.022107043891059064e+01
1.369694236836480528e+01 1.295947722903553689e+01 3.132212901441123520e+01
1.381300649969200478e+01 1.422365000805073976e+01 3.236322501966860443e+01
1.318703415959052627e+01 1.642263800328428403e+01 3.316388267124217037e+01
1.017782591309063278e+01 1.986995407793161661e+01 3.365424672317978150e+01
1.229512054419540767e+01 1.778487836609352968e+01 3.388523067270485711e+01
1.118330527646484107e+01 1.909536022323339921e+01 3.423809687241344335e+01
1.185907774116684976e+01 1.834302996366968586e+01 3.395771091514184548e+01
1.301406895320515744e+01 1.674478694145907554e+01 3.345441278910385563e+01
1.213516503742861197e+01 9.345262183482878626e+00 2.828810826808325984e+01
1.270417643798812968e+01 9.570365911461767183e+00 2.891812797535986235e+01
1.346232236317851516e+01 1.018785041010189119e+01 2.992948526945867727e+01
1.370772420044503903e+01 1.221296892246342836e+01 3.096806260316931869e+01
1.372083708891581644e+01 1.175031744065433337e+01 3.081096761550482199e+01
1.365116715626580834e+01 1.346629126694332967e+01 3.161307238780423035e+01
1.373669278711628827e+01 1.481060460166910175e+01 3.266825833949135927e+01
1.160796594142544791e+01 1.870982399007081298e+01 3.432277228898347232e+01
1.388927141025732936e+01 1.363705707923837096e+01 3.205837721501919901e+01
1.205615575461658651e+01 8.723051325570811088e+00 2.803509947105539624e+01
1.396553570585347259e+01 1.305047575999455134e+01 3.175353666893459348e+01
1.366043718465865631e+01 1.539712675890600657e+01 3.297306951107185569e+01
1.358420030488046848e+01 1.598349958629093592e+01 3.327780209321367977e+01
1.029994000240670715e+01 1.993859542837794763e+01 3.418533137693727042e+01
1.077245034619501318e+01 1.953653984585742265e+01 3.436005736836538915e+01
1.309606882804532013e+01 1.682448761377156288e+01 3.392061030068315830e+01
1.334020294365842574e+01 1.640387545157312132e+01 3.359911527989438440e+01
1.327661818210332356e+01 9.615978431272207416e+00 2.950128962520296838e+01
1.120570784383315477e+01 8.714851088099493381e+00 2.715341670620656345e+01
1.399549635806410741e+01 1.134620239892393379e+01 3.097880117610974438e+01
1.397235741422182542e+01 1.078767600353721257e+01 3.074398678039054289e+01
1.404180042514918547e+01 1.246390017127387750e+01 3.144870065938183856e+01
1.422901773048760532e+01 1.445013157164711970e+01 3.302772153532747268e+01
1.222448844547187718e+01 1.804388352835908904e+01 3.433504239855130180e+01
1.158385308565675587e+01 1.897419119941644539e+01 3.504308573313815600e+01
1.198949684471455512e+01 1.842467150572736045e+01 3.458194820674558656e+01
1.285171902968939150e+01 1.724547021914880673e+01 3.424238684606159921e+01
1.362238326805826993e+01 9.561062461528630152e+00 2.988157666797241063e+01
1.263863995121163342e+01 8.952009451107748816e+00 2.867962322595003855e+01
1.165110340138257783e+01 8.625396575964879631e+00 2.758935948035456676e+01
1.401863018501656377e+01 1.190461883001016652e+01 3.121356872237603852e+01
1.394921929072671496e+01 1.022918400798459082e+01 3.050918612783557649e+01
1.398241145751040015e+01 1.502168827611850688e+01 3.311326228645242509e+01
1.427693782666514721e+01 1.381036485165097005e+01 3.265196070780825011e+01
1.395651474736132869e+01 1.547828565768481468e+01 3.339163293160870438e+01
1.051207174414179057e+01 1.990970051706949917e+01 3.471715465085025443e+01
1.104801455245802799e+01 1.944190034470401685e+01 3.488013608460468618e+01
1.260779517978023989e+01 1.766571954548276224e+01 3.456360372233839939e+01
1.353004554548188842e+01 1.642308445681127793e+01 3.410236661241892620e+01
1.312786753037591048e+01 8.947677307598745244e+00 2.916587996604370403e+01
1.392608743847650743e+01 9.670802591684793725e+00 3.027443392357576002e+01
1.432283659342327198e+01 1.266231171494974461e+01 3.192844852609896122e+01
1.437841407517311332e+01 1.321871908184917288e+01 3.237462749348390645e+01
1.376402941538336222e+01 1.606072689616560467e+01 3.388291635747957997e+01
9.975899411453202248e+00 2.037770138393081254e+01 3.455409978549393912e+01
1.339155347390075157e+01 1.674123864273818540e+01 3.445778413326515022e+01
1.357788422982693000e+01 9.085310676731031876e+00 2.965283168647023260e+01
1.253728626728637963e+01 8.343564170488896536e+00 2.840820609514344852e+01
1.197719186675387704e+01 8.101193428150210707e+00 2.778223479299282772e+01
1.431506191073236423e+01 1.143999148853275294e+01 3.136613337934605994e+01
1.448492508399013623e+01 1.080340659784158852e+01 3.131476767139387718e+01
1.423687785596673194e+01 1.035629590356427521e+01 3.087384270804126274e+01
1.436079280343702713e+01 1.191490839769276100e+01 3.159451232138782117e+01
1.469526941170642154e+01 1.388857179299348488e+01 3.321858505575726639e+01
1.432940303353887224e+01 1.497229381628561029e+01 3.350564053000314146e+01
1.413670909064268244e+01 1.555515777054693416e+01 3.399709930821480697e+01
1.236394394490447901e+01 1.808584376548178341e+01 3.488472497379538595e+01
1.126819109242234163e+01 1.919181159851805418e+01 3.537847776633710595e+01
1.211989999999999945e+01 1.850629999999999953e+01 3.520609999999999928e+01
1.390295666095789429e+01 9.112463278521676813e+00 3.003969864423197222e+01
1.155213832757348591e+01 8.097135887260726861e+00 2.734158135589759553e+01
1.467909920106583499e+01 1.136709654661240521e+01 3.174001007970774424e+01
1.460379772314192337e+01 1.286067015255625101e+01 3.240806823053586072e+01
1.465664984517893998e+01 1.344406359896937531e+01 3.286923301153177590e+01
1.470191914302937342e+01 1.446680376221922515e+01 3.361953055355285613e+01
1.078644219197041565e+01 1.957529159828917287e+01 3.550773966639614088e+01
9.962888531154691307e+00 2.030802131766374430e+01 3.515384092269521688e+01
1.168076778522695847e+01 1.882471623248862613e+01 3.555591102999915165e+01
1.314088830131300512e+01 1.721171601607989388e+01 3.487187244506154826e+01
1.394401649150876210e+01 1.613802149899493443e+01 3.448856123316394218e+01
1.308662244722404644e+01 8.123747075114678751e+00 2.889399747060402390e+01
1.229417053461438236e+01 7.694387310604087205e+00 2.798412710026329009e+01
1.423339702704163656e+01 9.875159500160817672e+00 3.068969565458124649e+01
1.425423225181336662e+01 9.345962490422655478e+00 3.051433538706376680e+01
1.030894394426833038e+01 1.998580805752847311e+01 3.540924160539687193e+01
1.211534981772701691e+01 1.838879554296045171e+01 3.580169935875232312e+01
1.275122516011277796e+01 1.770578675820294379e+01 3.499940746736872654e+01
1.368703774893212177e+01 1.665799125307281869e+01 3.499496050431073257e+01
1.488478453430515458e+01 1.305904710213625997e+01 3.288773203366881148e+01
1.348325806024878659e+01 8.338648996738012187e+00 2.934940303489371161e+01
1.387979999999999947e+01 8.553499999999999659e+00 2.980470100000000144e+01
1.269022862313416944e+01 7.908976240119527823e+00 2.843886954449718374e+01
1.454449185583929882e+01 1.008605316368295846e+01 3.111157869578361712e+01
1.423115080846400637e+01 8.787352993152250491e+00 3.027955329828225217e+01
1.469201440724011576e+01 1.207433649438785395e+01 3.212160512591680828e+01
1.499749203045928247e+01 1.081913553193053978e+01 3.188554714308735427e+01
1.507460540132915128e+01 1.396108700144974257e+01 3.373347622862058159e+01
1.516587618027214823e+01 1.325749820004671520e+01 3.336757488862786403e+01
1.460230615248258879e+01 1.492321015951926100e+01 3.413918758524317809e+01
1.255669310397768790e+01 1.806344560138396105e+01 3.530453784397482053e+01
1.124187876406117681e+01 1.914295613201371893e+01 3.590552829600078155e+01
1.412380291392246434e+01 1.621523004217722175e+01 3.509353116167236664e+01
1.037642821857374642e+01 1.984973501189573142e+01 3.600464821276278116e+01
1.507838758453543981e+01 1.226297763911210126e+01 3.273783736687591528e+01
1.512033720680349802e+01 1.141040854981616626e+01 3.235510350365296262e+01
1.492432618418859747e+01 1.436379369340337497e+01 3.402794715438966477e+01
1.441065175835070811e+01 1.545107673571858165e+01 3.453919727736315082e+01
9.949863343557026951e+00 2.023827560701205641e+01 3.575415811448336711e+01
1.167633991957785256e+01 1.870715556380464761e+01 3.615125378743015716e+01
1.299327710753294163e+01 1.762080334359145084e+01 3.540292788614367936e+01
1.343005900740486780e+01 1.717796100636854817e+01 3.550135977630698392e+01
1.080299297984188378e+01 1.946119429857499128e+01 3.625513924233354857e+01
1.310143832030370348e+01 7.305108934421881806e+00 2.876867879355313562e+01
1.339895422303131056e+01 7.782168969353017829e+00 2.916466106217221466e+01
1.491568215330551972e+01 1.018883198808542900e+01 3.155917400281354190e+01
1.456691875018488780e+01 9.540603641057238349e+00 3.093188175989368816e+01
1.458237719348287165e+01 9.021124300772539684e+00 3.075423769934930718e+01
1.525632473129393674e+01 1.392867553987290563e+01 3.415580370513959707e+01
1.544690034286083247e+01 1.345589966341786869e+01 3.384730135091365355e+01
1.431094061601840295e+01 1.580661946462664957e+01 3.488586971073085863e+01
1.255203905833377753e+01 1.794607971569274341e+01 3.589995126616645393e+01
1.211080207495915850e+01 1.827135408399615457e+01 3.639697939673870763e+01
1.386654851544121136e+01 1.673541429313544526e+01 3.559972695442460378e+01
1.117378880559411414e+01 1.905602069440681490e+01 3.662771685219847484e+01
9.936829592438940040e+00 2.016847707154403579e+01 3.635492282314099555e+01
1.521535006460094053e+01 1.269744731579220165e+01 3.314560267843616259e+01
1.375725417024005637e+01 7.935262262612925888e+00 2.956898508297338424e+01
1.262440466077947931e+01 7.129537642851772716e+00 2.823523419368675391e+01
1.462554318741785764e+01 8.565147956297982645e+00 3.070019252340519600e+01
1.530885412829464975e+01 1.080879216470977688e+01 3.229852343773600865e+01
1.554096581499032226e+01 1.158952826910008049e+01 3.301245289704685604e+01
9.376242175411340085e+00 2.059460115147735948e+01 3.604074113988739470e+01
1.167121152148875396e+01 1.857801446609111551e+01 3.680639129064788051e+01
1.430349970420738792e+01 1.629239987297325598e+01 3.569819900467698659e+01
1.342619843218957953e+01 1.708413527957963396e+01 3.597801261332615042e+01
1.298718866207193479e+01 1.746819485253736204e+01 3.617730632523492318e+01
1.036342480380469233e+01 1.977992647530686554e+01 3.660529913536472435e+01
1.550961425902184843e+01 1.221155021688312026e+01 3.329068807701592903e+01
1.547825691827012307e+01 1.283374341916859329e+01 3.356900368513633026e+01
1.414430073371004681e+01 7.993888358356270096e+00 2.999160504215180723e+01
1.485345942750611137e+01 9.703908193372708268e+00 3.130886987554635681e+01
1.363495363585742126e+01 7.318266159716060315e+00 2.933374169168467560e+01
1.531633251360308634e+01 1.027040498616015540e+01 3.203128926792951603e+01
1.506571191447643976e+01 1.440153582699630697e+01 3.446435596441094162e+01
1.487520937463699511e+01 1.487412674378359512e+01 3.477273532464033678e+01
1.468459392560383492e+01 1.534699696543050074e+01 3.508129609607420463e+01
9.537432479610940206e+00 2.056278141755811006e+01 3.543908354106535796e+01
1.210625320711269026e+01 1.815388357086577642e+01 3.699240670269366404e+01
1.449409611682274956e+01 1.581957694125614111e+01 3.538966916037160360e+01
1.254648712075766070e+01 1.780514516636322497e+01 3.661475825123712724e+01
1.073654407004595690e+01 1.941985300953973237e+01 3.674676533728627703e+01
1.453798963241739273e+01 8.076149531407601501e+00 3.048199566237730096e+01
1.528412544929648931e+01 9.488196888626241332e+00 3.170265409075693341e+01
1.351264753226640281e+01 6.701242043312673147e+00 2.909848760215253805e+01
1.493317730742283622e+01 9.254611859024734599e+00 3.122834606223960918e+01
1.491069847442146923e+01 8.727636236347105836e+00 3.107925005498938376e+01
1.557234259434091506e+01 1.096698819125168711e+01 3.273398471632302886e+01
1.560369229667632851e+01 1.034496562201917413e+01 3.245574675996562775e+01
1.550950252963152209e+01 1.402202320796810397e+01 3.471016173836921581e+01
1.577414372426700950e+01 1.289719753897204235e+01 3.397719887254113758e+01
9.125307647002683709e+00 2.082180993468441699e+01 3.562192589038983215e+01
9.404900731683239812e+00 2.048708051980007383e+01 3.671087591993035204e+01
1.386289460747350333e+01 1.664137440085571384e+01 3.607645277780216020e+01
1.342233892941575313e+01 1.699030974300705665e+01 3.645465945042260358e+01
1.298217404737255265e+01 1.733893540290351609e+01 3.683253234549382427e+01
1.123046365295106774e+01 1.886133289812083902e+01 3.733521981346835616e+01
9.923799999999999955e+00 2.009870000000000090e+01 3.695550200000000274e+01
1.401068707211514486e+01 7.468682349323795933e+00 2.975989844745448565e+01
1.489982454499409670e+01 8.177691850512436744e+00 3.093872177212904617e+01
1.570011870973654489e+01 1.354921346924447434e+01 3.440168274498758194e+01
1.577956140824373144e+01 1.236060295161744449e+01 3.370971012611170181e+01
8.886432935699456692e+00 2.087513750680809110e+01 3.646645774122232098e+01
1.166578367799266402e+01 1.844909928577602898e+01 3.746172426447567005e+01
1.440095258263644773e+01 1.615764642883261715e+01 3.623703928003164521e+01
1.473500733872261037e+01 1.579950028048539501e+01 3.577161989108338958e+01
1.254205669253553346e+01 1.768752347889655496e+01 3.721036414981369234e+01
1.079475607994537967e+01 1.927393294158517989e+01 3.720860348465618728e+01
1.035936124270449454e+01 1.968623796253615765e+01 3.708207654911046092e+01
1.440880648070539038e+01 7.434266109963838076e+00 3.017851262683929292e+01
1.409278189172955287e+01 6.788360947413117685e+00 2.973181385050072123e+01
1.563510125724167743e+01 9.721800039728332621e+00 3.217699975742351626e+01
1.598504546796612580e+01 1.168423888355329687e+01 3.362482184306541910e+01
1.601445139716796007e+01 1.089046456302401822e+01 3.325629626233824609e+01
1.533155494759305348e+01 1.460797445435777142e+01 3.519135305474707565e+01
1.519172704815565389e+01 1.497328256556753345e+01 3.544233238435585065e+01
8.792925682777328333e+00 2.100864928513357199e+01 3.593775365655542231e+01
8.863421878261442899e+00 2.060615092937183590e+01 3.697374079450696627e+01
9.382149279567052247e+00 2.021792348391002037e+01 3.721823989910930663e+01
1.210169999999999924e+01 1.803630100000000169e+01 3.758840200000000209e+01
1.397034676023333333e+01 1.649292269936183075e+01 3.666918852372015891e+01
1.353972451509542196e+01 1.682823684802352915e+01 3.710108292982979350e+01
1.522213339009096877e+01 8.922061450996919163e+00 3.149717400612080098e+01
1.520403153990269196e+01 8.385235090109159017e+00 3.135103412932026146e+01
1.587472742512859547e+01 1.047013286097436513e+01 3.286393733578064769e+01
1.592516576897787495e+01 9.909613232325147791e+00 3.264138763211559535e+01
1.557305714815830378e+01 9.155310602258129649e+00 3.197137504017750587e+01
1.604248153942202038e+01 1.305232008019774703e+01 3.461324082336230390e+01
1.610157818175199651e+01 1.233816989639934825e+01 3.410717285021330980e+01
1.516620982341690649e+01 1.530694880029302851e+01 3.584498763530754673e+01
1.483234973969399917e+01 1.566486248350031474e+01 3.631066512900853382e+01
1.313882109905641293e+01 1.712271546974949388e+01 3.769449252391531502e+01
1.106510750696212142e+01 1.875415173071581876e+01 3.763517191345540169e+01
1.008389972507234589e+01 1.953141993734069715e+01 3.755044657724998558e+01
1.050978108160589919e+01 1.920656502335930682e+01 3.757071679462089975e+01
1.493480640046696273e+01 7.464018058812656342e+00 3.081512891153201039e+01
1.517496426252561292e+01 7.901501439424241546e+00 3.120407671824372642e+01
1.595329196362389190e+01 1.364251018758223033e+01 3.495596497168512684e+01
1.576911419981935047e+01 1.417192943482304557e+01 3.535102859117788654e+01
8.345051436519018040e+00 2.099410529248503110e+01 3.672942066801814320e+01
9.702385059531856371e+00 1.983333907532984242e+01 3.751789838584470260e+01
8.840410818630136447e+00 2.033716510216538609e+01 3.748102249157327748e+01
1.159074195727321666e+01 1.820323451309921836e+01 3.785805749466316428e+01
1.449848971533146447e+01 1.602277614103762815e+01 3.677634169383574658e+01
1.407779887846721856e+01 1.634447093950792862e+01 3.726192522604388557e+01
1.261999614719405471e+01 1.757974006773556752e+01 3.764142191347840338e+01
1.365711113853665992e+01 1.666616299892866238e+01 3.774750694752422930e+01
1.066665015923142157e+01 1.880577301271125990e+01 3.794910127488945051e+01
1.108032728510934106e+01 1.836999045329012148e+01 3.812742630843315084e+01
1.467291684790119000e+01 6.875480377733730109e+00 3.036514082446541352e+01
1.551109005622323878e+01 8.589512939061117791e+00 3.176600316449725980e+01
1.544911587222492244e+01 8.023654544069968253e+00 3.156060871703717297e+01
1.590371626283391926e+01 9.130472661618018293e+00 3.235464129381719545e+01
1.621488175532325471e+01 1.009719998564503030e+01 3.310521726906664952e+01
1.638973450459146974e+01 1.107842125124150101e+01 3.382897775313463029e+01
1.559739873492378770e+01 1.481441290861423177e+01 3.591835119348962024e+01
1.528313377093791381e+01 1.514527035615139994e+01 3.649150315871634831e+01
8.321903101591145102e+00 2.072519022039865888e+01 3.723669556400317049e+01
9.160641842839297055e+00 1.995251110849656584e+01 3.778078538808758680e+01
1.207209852993956289e+01 1.774228614871162790e+01 3.809077669880043260e+01
1.259066461763092803e+01 1.728554853422461690e+01 3.814372774502539443e+01
1.013661646456050569e+01 1.912253635319945744e+01 3.803936683514414341e+01
1.056975675765405676e+01 1.853679806773699923e+01 3.839687623987023812e+01
1.583305579741565161e+01 8.694677089202555109e+00 3.216947422317865346e+01
1.448366080676903067e+01 6.158584551092880943e+00 3.004153488402497274e+01
1.538704448181169404e+01 7.456909520572599703e+00 3.135489232189814501e+01
1.626512621512213386e+01 9.338026828427725690e+00 3.292452635978696662e+01
1.650458173041133847e+01 1.028477637191609873e+01 3.356902127230743105e+01
1.642912444731121013e+01 1.177894817129312521e+01 3.423718925526421941e+01
1.638484140709515557e+01 1.255542488690541347e+01 3.482479180147802111e+01
8.763035939234171678e+00 2.009362439608775475e+01 3.789601405878608631e+01
9.480872462794732058e+00 1.956785757274939996e+01 3.808054794625225270e+01
1.155885953966939184e+01 1.788468988827403550e+01 3.840214709639848678e+01
1.459595444702158851e+01 1.588800557479569875e+01 3.731525251325199832e+01
1.493948869436396265e+01 1.551670706177126569e+01 3.690323921086868353e+01
1.349782605335332342e+01 1.648645790157815227e+01 3.823650020451091081e+01
1.296460216789474984e+01 1.679615026566524350e+01 3.843461204582310131e+01
1.502033355455831831e+01 6.798369826772807656e+00 3.076318322168057051e+01
1.675669584388701594e+01 1.121968855526416320e+01 3.436721836118159956e+01
1.645803722962255478e+01 1.214768308911535755e+01 3.460967943535758451e+01
1.631069723193630949e+01 1.320759398633158987e+01 3.524918496406693436e+01
1.620667345204564214e+01 1.373588441528832149e+01 3.551070412760869743e+01
1.602868076709761169e+01 1.432176923511769928e+01 3.599173013201550475e+01
8.298917459167785893e+00 2.045635252901340806e+01 3.774368632998459105e+01
8.914643909941469602e+00 1.975729751421447844e+01 3.826133039475144670e+01
1.417535713638955919e+01 1.620964798629384873e+01 3.780051897775219771e+01
1.204250808192038491e+01 1.744838077319641556e+01 3.859296433950387950e+01
1.095834537429983335e+01 1.802532374082989364e+01 3.880811507262900051e+01
9.713286499505459304e+00 1.912811657173181956e+01 3.843788849830343679e+01
1.005912016987154267e+01 1.870362641845396823e+01 3.866636223769161518e+01
1.532493893273217189e+01 6.889828436756612717e+00 3.114905709057811833e+01
1.493694693459625000e+01 6.316863214642951974e+00 3.055171207555865109e+01
1.595602377733007948e+01 8.198827753095349280e+00 3.219808755398614153e+01
1.617187264023922566e+01 8.540156943752309715e+00 3.253198020095400267e+01
1.589874027692568248e+01 7.606956624437935410e+00 3.199212284237218995e+01
1.662659082050375403e+01 9.544962923848469671e+00 3.349428339159971557e+01
1.679459339512003879e+01 1.047255457253891109e+01 3.403332428454455538e+01
1.540005707741302388e+01 1.498359247800399707e+01 3.713802227797390998e+01
1.575338267519272861e+01 1.459874638084125209e+01 3.678033701112344289e+01
7.780048536114895441e+00 2.084445260828183777e+01 3.749954313990295418e+01
8.183592388621955038e+00 2.006315823193457604e+01 3.840597212586182252e+01
1.333854026721550845e+01 1.630675186281149536e+01 3.872549585116446735e+01
1.248875581529678058e+01 1.697527678526911288e+01 3.876494419262507307e+01
7.756700000000000372e+00 2.057570099999999869e+01 3.800669899999999757e+01
1.045970535260256895e+01 1.828533409647123165e+01 3.891563435747895028e+01
9.259564373816278504e+00 1.930262293896534231e+01 3.864267548961755239e+01
1.582633764230413043e+01 6.910312846859240743e+00 3.174383986689231563e+01
1.677209336443685572e+01 1.224498759032558759e+01 3.528134283695146678e+01
1.687627551193029518e+01 1.171632029183489720e+01 3.501979489136768819e+01
1.708440071182003805e+01 1.066020028296337863e+01 3.449730027712606528e+01
1.666810363499295633e+01 1.277267907238963218e+01 3.554240819126844286e+01
1.610659862400734710e+01 1.421401978735510063e+01 3.642276374242885595e+01
1.504662768561015618e+01 1.536855172811808501e+01 3.749581040518538799e+01
1.469329941065124956e+01 1.575340024071960521e+01 3.785350037933638845e+01
1.379050026529375650e+01 1.612214777357492679e+01 3.843459201350658105e+01
1.424198816975980009e+01 1.593773840032947398e+01 3.814398844162354152e+01
1.152697724751918962e+01 1.756614501450595967e+01 3.894623696524210743e+01
1.288720459933943197e+01 1.649110040604518446e+01 3.901599899425812623e+01
9.548742522671961552e+00 1.887037044087270843e+01 3.893571122556110709e+01
8.610717160534351322e+00 1.955033414712408302e+01 3.880546594464353660e+01
1.526296424538574215e+01 6.323971672450870329e+00 3.094366244162168655e+01
1.479033322620078650e+01 5.576369691917918203e+00 3.026955997368856188e+01
1.660789275269926080e+01 8.868451246731602566e+00 3.324520492794864168e+01
1.680283519454264507e+01 9.974326982153788990e+00 3.388042679882138941e+01
1.698039751263634045e+01 1.118795641706234711e+01 3.475839653674332652e+01
1.656404965281956265e+01 1.330069679778192615e+01 3.580363500538116028e+01
1.645990000000000109e+01 1.382920000000000016e+01 3.606510200000000310e+01
1.415533882134890575e+01 1.565143791275449914e+01 3.881256387516272355e+01
1.201291037378064530e+01 1.715440328696295680e+01 3.909527519371235371e+01
1.051102273517474828e+01 1.794851195507108343e+01 3.940154352123873593e+01
1.001990329193557372e+01 1.831151562446766334e+01 3.933607632562039669e+01
1.594918021411608322e+01 1.444327508011592975e+01 3.737270825135801289e+01
9.038099668625203975e+00 1.903720139786181065e+01 3.920519969006318917e+01
1.558592923578173739e+01 6.467216137901782957e+00 3.135722410531571924e+01
1.520100000000000051e+01 5.758200000000000429e+00 3.073829999999999885e+01
1.643998718116086977e+01 7.949933071252807792e+00 3.270929141788781891e+01
1.626740953051528038e+01 7.134713876326384430e+00 3.231537507854178415e+01
1.657720624018199373e+01 8.345733749117146161e+00 3.303022000090933830e+01
1.706902849965159064e+01 1.010424705107582710e+01 3.429260022124858409e+01
1.712611784402244908e+01 1.236716694968225383e+01 3.590192790047407101e+01
1.719931471066598760e+01 1.195837782299403429e+01 3.568878179485586344e+01
1.517703623410843328e+01 1.526502591126254060e+01 3.789068299995057032e+01
1.620133545419808740e+01 1.415391694599302497e+01 3.691624546063775369e+01
1.487778119261691678e+01 1.533200014570640235e+01 3.839395789333886455e+01
1.243539645415779837e+01 1.667564111988661679e+01 3.930680753244136127e+01
1.345615452347133001e+01 1.604889468874930358e+01 3.904948200081622645e+01
7.744260410965213559e+00 1.987747363679439871e+01 3.880102164929138553e+01
1.100176241128601262e+01 1.758578898492769937e+01 3.946696009314589304e+01
9.528857405561476313e+00 1.867446492539583502e+01 3.927061893527802283e+01
1.020281436973496625e+01 1.763358496182589619e+01 3.973169348650365862e+01
9.814597287549634785e+00 1.810143161763085828e+01 3.955620516899750072e+01
1.555581204576318122e+01 5.960001984693562349e+00 3.120304417643486161e+01
1.703830005046953033e+01 8.992724371309609666e+00 3.388334925106162387e+01
1.705366495742324062e+01 9.548507015326560321e+00 3.408798270970113009e+01
1.726669200706385610e+01 1.130209144461407078e+01 3.527231470912347078e+01
1.737078799297549381e+01 1.077404522695621658e+01 3.501112770735844038e+01
1.681397665041046352e+01 1.328639315374621432e+01 3.616263720512222335e+01
1.149257517738879386e+01 1.722301199139860017e+01 3.953238640809384918e+01
1.307153875269386134e+01 1.606928401867545020e+01 3.955745938499020298e+01
7.882033471373364186e+00 1.947382852408015452e+01 3.919910857284205008e+01
1.667760448636950343e+01 1.365628903493046664e+01 3.672314578541222829e+01
1.566103128680959067e+01 1.477639052249118556e+01 3.792788589432096558e+01
8.459895622389987935e+00 1.925557927396070568e+01 3.920215351453263253e+01
9.426189839337549614e+00 1.856950768659943662e+01 3.938063079908592812e+01
8.781210383292629373e+00 1.856638802054827053e+01 3.958808194663284752e+01
8.469935174891228158e+00 1.907299462984453342e+01 3.936680957827673666e+01
7.901007446326646644e+00 1.910883833114211328e+01 3.952863487944269139e+01
7.945677459015216826e+00 1.832697864357331596e+01 4.001153305143992611e+01
1.059150853348208621e+01 1.716516336735010029e+01 3.990739746232170404e+01
1.109419285931732269e+01 1.711997955456647702e+01 3.975116809980948318e+01
9.259558273269625772e+00 1.814614463232253883e+01 3.970442053885593481e+01
9.662001476193363914e+00 1.734923408053310467e+01 4.008578948150434229e+01
1.023067333203798945e+01 1.697595043521091540e+01 4.014332789543581015e+01
1.626562970426391175e+01 6.363716046734150922e+00 3.213278606952443539e+01
1.591059653038518817e+01 6.161788293783503789e+00 3.166775225240467506e+01
1.702292753737398812e+01 8.436643978876844585e+00 3.367860697318410956e+01
1.736359928721081403e+01 1.006200401799444144e+01 3.464448723288645482e+01
1.716798442607247921e+01 1.274369252385999118e+01 3.626015578027561048e+01
1.757144165585508588e+01 1.148005804986716960e+01 3.586378790323706056e+01
1.460795971981036701e+01 1.523029572130296039e+01 3.897131020803731616e+01
1.361590033150302226e+01 1.567359882605945032e+01 3.953728051489830619e+01
1.198329952460503733e+01 1.686030035138115224e+01 3.959780093662890721e+01
1.167553001416706415e+01 1.654472747230291674e+01 3.992822931930968622e+01
1.240041195733530799e+01 1.641086927929579176e+01 3.969877181361011509e+01
1.252758118599354908e+01 1.646467446355999442e+01 3.957762406083014639e+01
1.641625575751057298e+01 1.397061329954417097e+01 3.739345213716729432e+01
7.304929738704247555e+00 1.969179087305882803e+01 3.919606814590485300e+01
7.332789830241643436e+00 1.914463616191260087e+01 3.969025891690472463e+01
8.524499999999999744e+00 1.809590000000000032e+01 3.997069900000000331e+01
6.764049183994490733e+00 1.918046720187065191e+01 3.985203156102399902e+01
7.366221419753733457e+00 1.855830789561148109e+01 4.005241325599789803e+01
9.092926155674824429e+00 1.772278054489907007e+01 4.002821111493497597e+01
9.808845146394329362e+00 1.659799440514030877e+01 4.038331401143408073e+01
1.542637038828419449e+01 5.191535604338116450e+00 3.093898259550194396e+01
1.672376836048617932e+01 7.915166762281381274e+00 3.309154737701432225e+01
1.670817354556047007e+01 7.359552315702442726e+00 3.288665042111513515e+01
9.116849950318833606e+00 1.697262564735329349e+01 4.034765873459863172e+01
1.752235403053483864e+01 1.220043583846625346e+01 3.635776925879318355e+01
1.528991233855538212e+01 1.493942155005033001e+01 3.837303398490478656e+01
1.415975180546927170e+01 1.527828671803670346e+01 3.951711872269066816e+01
1.232324907576483319e+01 1.602075340424345384e+01 3.997619863463953038e+01
1.281745123357442218e+01 1.596151687118097406e+01 3.979972503321630484e+01
1.614497816628042415e+01 1.428780360489048817e+01 3.796508284340336559e+01
6.531261567255191025e+00 1.959269670255363494e+01 3.955223353472306513e+01
6.786908797390838188e+00 1.878958085168609671e+01 4.009328269235469122e+01
7.919639153116039942e+00 1.817216788881754042e+01 4.008324287613582726e+01
1.097979626560529809e+01 1.669723223325778250e+01 4.008291726262442012e+01
1.079949849039887688e+01 1.660257050911517140e+01 4.020087988295630765e+01
8.432267230749372899e+00 1.715567158978255335e+01 4.042601808618214676e+01
8.820555768025128529e+00 1.753448906208645042e+01 4.015910292065488107e+01
1.662129957680424042e+01 6.566005926774612256e+00 3.259865385493433365e+01
1.700754910226489613e+01 7.880400057760626353e+00 3.347380265939641930e+01
1.740373484067799126e+01 9.165555264942382152e+00 3.439508121102308991e+01
1.728464035484651973e+01 8.642308611657751882e+00 3.407243096280080863e+01
9.412774902339771543e+00 1.641146348052041404e+01 4.053597909159478974e+01
9.153944928258553659e+00 1.615906801831244266e+01 4.071384669951468283e+01
8.599214774860758581e+00 1.646782117525474121e+01 4.070339421140124614e+01
1.323501927286581115e+01 1.551159473027502678e+01 3.990080625115641055e+01
1.771387313417646325e+01 1.013922311669000642e+01 3.524200122257924050e+01
1.765710987688273903e+01 1.088786418734463268e+01 3.552483781418056452e+01
1.698422678255067098e+01 1.317137050912230123e+01 3.675235042367138050e+01
1.506260809287911151e+01 1.490980993835572654e+01 3.893543008096474978e+01
1.188800746396024444e+01 1.588481515467286087e+01 4.024931249745126394e+01
1.689532011714338822e+01 1.348337027349995765e+01 3.738122717966187736e+01
1.662910893669680945e+01 1.379903131123933591e+01 3.800229772987356114e+01
7.994077425461056485e+00 1.786230458273112021e+01 4.020446166344760286e+01
7.313926435044916907e+00 1.824854193217419862e+01 4.019594582237596114e+01
6.207208971648945806e+00 1.902100876589926415e+01 4.013417928491733733e+01
6.195990586031136615e+00 1.921625552140113768e+01 4.001360993730076387e+01
1.032581458480731840e+01 1.646169018437381482e+01 4.034797803054793519e+01
1.589097970141746252e+01 5.421495786877923884e+00 3.154287855501556948e+01
1.654706960426149109e+01 5.987143677105754236e+00 3.242842937899820299e+01
1.630787492599373678e+01 5.557534450904432433e+00 3.207519296459884828e+01
1.730946357572705452e+01 8.116944190333530429e+00 3.392788397963298763e+01
9.708700075508970073e+00 1.585029897552861833e+01 4.072430024044264485e+01
1.026148603419118466e+01 1.597659526809372110e+01 4.056908815565017079e+01
1.136799887576040113e+01 1.622940074314448466e+01 4.025840031566517752e+01
9.111986953436813863e+00 1.574481341812751900e+01 4.086426062854348373e+01
8.043977543175296674e+00 1.677685854847876001e+01 4.069293148269880334e+01
7.904095045094289951e+00 1.732968835044153266e+01 4.047135872480939867e+01
1.292799985959481290e+01 1.519565239630137476e+01 4.023114163946402044e+01
1.365251710365769355e+01 1.506174823777948468e+01 4.000187047363716175e+01
1.787625548408503562e+01 1.165789767718595193e+01 3.645525628581938804e+01
1.794356957998809321e+01 1.100173790740797664e+01 3.603879517133127308e+01
1.729565586108565611e+01 1.277320296324004012e+01 3.713287032693182965e+01
1.568759939607940801e+01 1.448477512993379790e+01 3.852254729822119117e+01
1.470368857570309018e+01 1.488291145960198669e+01 3.949695468449581170e+01
1.240821198781350887e+01 1.554009472645194734e+01 4.024022405387842127e+01
7.463891717615037891e+00 1.762881379105424529e+01 4.043811979410114077e+01
6.709116562258024885e+00 1.832480349097306416e+01 4.030848017020159801e+01
6.901654273444798982e+00 1.785803026186742315e+01 4.047156425157096749e+01
6.104775829160210776e+00 1.840100695969403333e+01 4.042092674869423519e+01
6.423266918198613951e+00 1.768488651278918766e+01 4.066552161443264168e+01
1.699218051051616740e+01 7.324466094733491417e+00 3.326911405240281283e+01
1.697680099999999825e+01 6.768200000000000216e+00 3.306430100000000039e+01
1.736741785202867661e+01 7.550115358998050752e+00 3.381065806089885228e+01
1.758345551196844880e+01 8.449630207928565895e+00 3.437936916877492877e+01
1.081473051088450532e+01 1.610299452573957524e+01 4.041374780775436193e+01
1.022791631390788503e+01 1.554803349742560670e+01 4.070092562995937868e+01
8.514592594687661276e+00 1.563920799480365531e+01 4.100438052814337198e+01
7.589052249426892160e+00 1.615437950984943072e+01 4.098693005269736034e+01
1.764245714017859257e+01 9.464534766346165640e+00 3.479149307098964528e+01
1.758929127680655924e+01 1.221370143848231749e+01 3.680712203657208903e+01
1.798501822508046999e+01 1.042833048516217254e+01 3.581892524726774951e+01
7.917199896305537443e+00 1.553359998117734797e+01 4.114450103179514429e+01
7.385622517189115221e+00 1.578788556181545211e+01 4.116203977325057650e+01
1.524740000000000073e+01 1.448770000000000024e+01 3.947679899999999975e+01
1.571416712495030943e+01 1.419315932591911178e+01 3.911721045325843704e+01
1.438683924739288145e+01 1.474741956160055345e+01 3.979994207469383838e+01
1.173215628354104467e+01 1.568126707433762590e+01 4.033976788767565580e+01
1.123964605294589347e+01 1.546351654942024823e+01 4.050865937255754545e+01
1.711309999999999931e+01 1.331039999999999957e+01 3.803950100000000134e+01
1.618100472124853795e+01 1.389857331582440381e+01 3.875757004757299029e+01
1.664700162030831621e+01 1.360451835281567590e+01 3.839857569946201465e+01
6.933199929717014598e+00 1.739510003994056575e+01 4.067200099910699862e+01
7.488637341292388783e+00 1.708595224109944866e+01 4.068246715655278223e+01
5.913872162857913395e+00 1.797436581935107824e+01 4.065904964630743734e+01
1.074713550678308671e+01 1.524576493182847692e+01 4.067755124286806989e+01
1.126645626788075738e+01 1.494343671984254662e+01 4.065417240334525673e+01
1.209633963313176963e+01 1.513309086517772073e+01 4.042114227188406517e+01
1.109797846105790597e+01 1.446446768016232021e+01 4.080483730827492650e+01
1.052235378707327484e+01 1.460742727920997197e+01 4.087839382944344635e+01
1.011553678757223196e+01 1.522884747586443765e+01 4.080134904895173520e+01
8.519743795666128605e+00 1.522393693520873370e+01 4.110669594245689495e+01
8.256794823548711193e+00 1.503919822654329153e+01 4.127529653156810951e+01
7.261216693045780879e+00 1.677456831619072375e+01 4.082950905363342287e+01
6.792457560245629189e+00 1.653521832274645575e+01 4.101329272918736990e+01
6.334584082975290187e+00 1.751997287595722597e+01 4.070668693875958866e+01
6.375817714557840077e+00 1.719784268281639328e+01 4.085881801460875806e+01
6.323699192653384316e+00 1.629587026549287643e+01 4.119707554360422108e+01
6.854507786464687058e+00 1.604194952127875951e+01 4.117956337811327217e+01
9.121810554532610027e+00 1.491451903214423069e+01 4.106892081535832517e+01
9.724215543483374802e+00 1.460492620700804345e+01 4.103112498839971778e+01
8.596270979793512623e+00 1.454496934131182861e+01 4.140604629854122010e+01
8.935500202079293075e+00 1.405110028365907837e+01 4.153670080305631984e+01
9.600286582929898671e+00 1.402922938824463372e+01 4.134293304753647647e+01
8.396120511636889105e+00 1.428666076690517173e+01 4.156120015834842008e+01
9.493895007198682734e+00 1.381535166377062218e+01 4.153825119057585624e+01
1.344780689799592110e+01 1.485119736520962164e+01 4.022205889014534108e+01
1.792108194204100613e+01 8.867565036233997944e+00 3.493837651302086300e+01
1.823000000000000043e+01 1.111560000000000059e+01 3.655270000000000152e+01
1.804440321505384404e+01 9.890872832270757087e+00 3.564561151704837982e+01
7.357553487625764888e+00 1.543201278903822882e+01 4.131610170333968313e+01
7.856864358423498729e+00 1.452216616817991302e+01 4.158569434928140396e+01
1.406999180866736765e+01 1.461192881924281117e+01 4.010292738121409428e+01
1.396736821778713278e+01 1.450690516186962853e+01 4.021298043434400427e+01
1.733636219155959068e+01 1.287167072685860347e+01 3.774229473786407141e+01
1.629161322570094228e+01 1.358683639101639606e+01 3.948504027969154606e+01
1.178583043111459183e+01 1.464107863652481178e+01 4.063079085792785605e+01
1.246073964049755745e+01 1.458459162571576861e+01 4.050256416891710387e+01
6.798162393453371699e+00 1.533047194166879557e+01 4.148762408948786629e+01
7.317602580793038491e+00 1.475767380587893740e+01 4.161018892205311204e+01
5.818781441809816712e+00 1.700070813252813551e+01 4.104551894293717851e+01
5.736643279641192805e+00 1.764470788970633208e+01 4.074133229611862816e+01
5.138294638879192355e+00 1.776952878871679076e+01 4.077600099142832590e+01
5.792901753087758010e+00 1.654978360103385882e+01 4.121458820064385975e+01
5.262100000000000222e+00 1.680369900000000172e+01 4.123210100000000011e+01
5.913078427951328209e+00 1.575386862890449180e+01 4.151682321669437670e+01
1.092950000000000088e+01 1.398550000000000004e+01 4.095550200000000274e+01
1.032698639266853213e+01 1.429514764238851754e+01 4.099330514052583396e+01
1.156125692327134757e+01 1.400233054002752198e+01 4.083169578642127817e+01
8.393434230873348056e+00 1.408977356980050644e+01 4.167116299960424897e+01
9.320968445519602241e+00 1.344209967852055421e+01 4.199438059799119571e+01
8.704000049346589662e+00 1.355359935664586146e+01 4.214510073771371879e+01
1.026469320247906225e+01 1.400737109937996649e+01 4.114927597858643082e+01
1.298257580315454263e+01 1.462927147554051288e+01 4.038179464220883119e+01
1.799845293220228726e+01 9.429573952431118400e+00 3.534218297809951537e+01
1.800679081123750436e+01 1.155422434192490577e+01 3.684983281857039117e+01
1.827144787305528695e+01 1.054241284842892590e+01 3.633293871547562759e+01
1.755965739893190047e+01 1.243287812769653833e+01 3.744505029958872910e+01
1.486694533566040732e+01 1.432496947339354776e+01 3.984064053813581552e+01
1.576957738392105846e+01 1.403720713989188340e+01 3.948092019839470623e+01
1.448709978947607802e+01 1.416249970374025224e+01 4.020389914482947091e+01
1.686563851615710874e+01 1.323039904944697653e+01 3.902338762438081687e+01
1.230539079595602736e+01 1.433861102684543631e+01 4.060740120952602439e+01
1.219306152477494365e+01 1.401916031386882722e+01 4.070788073420006725e+01
7.851423041982172890e+00 1.412844484633873776e+01 4.180560974447257649e+01
7.308651511287429514e+00 1.416716957001092503e+01 4.194024595251583065e+01
6.778196966577379357e+00 1.499324397717042068e+01 4.163469024841965194e+01
5.587589367958265107e+00 1.627878218484539730e+01 4.137446270300089424e+01
6.238599999999999923e+00 1.522889999999999944e+01 4.165919900000000098e+01
6.765799999999999592e+00 1.420589999999999975e+01 4.207490200000000158e+01
6.502179528041250656e+00 1.471743972460887662e+01 4.186703435763530479e+01
5.635656448343421943e+00 1.549540664629164333e+01 4.165480253139746480e+01
1.005179049051950813e+01 1.357981528284355122e+01 4.153979895452856397e+01
1.154021530353646341e+01 1.366779045902348244e+01 4.095042640233295117e+01
1.116909997166960622e+01 1.310809891900250257e+01 4.154290241357614377e+01
1.061006702581850902e+01 1.334411723435402308e+01 4.154134849328127643e+01
1.282520000000000060e+01 1.403599999999999959e+01 4.058400000000000318e+01
1.778329520057200952e+01 1.199341162016368223e+01 3.714734714325824427e+01
1.831292605454080658e+01 9.968800566499831817e+00 3.611301374353161009e+01
1.808723805018338027e+01 1.166123842270906508e+01 3.737986130526834216e+01
1.568080754214146388e+01 1.393151825757242257e+01 3.967826354823551327e+01
1.528778730305644373e+01 1.393014549912366817e+01 3.991563277413457200e+01
1.337911486472189715e+01 1.407816303308462125e+01 4.045731142604830666e+01
1.736130832473569896e+01 1.295211078085877077e+01 3.852567819445117436e+01
1.747868831864954231e+01 1.282521428101470029e+01 3.811334991991240173e+01
4.783505752922002863e+00 1.663445230036067457e+01 4.136850491525390083e+01
6.199252288856186510e+00 1.440883150547320213e+01 4.207062923724028281e+01
5.658621219760047616e+00 1.515869344536564434e+01 4.179201534021741082e+01
1.171950862164854001e+01 1.300983594603069804e+01 4.139106916959790539e+01
1.215078343921884318e+01 1.335015861532163228e+01 4.094535113764717238e+01
9.936820079837170638e+00 1.333080293878692402e+01 4.184393223317228916e+01
1.055248148117112628e+01 1.321953708171606223e+01 4.169353391831518252e+01
9.273900571866002807e+00 1.340279444089518179e+01 4.211182109586604838e+01
8.058081649693969339e+00 1.377098341755475275e+01 4.212170603840946370e+01
1.835444847858258655e+01 9.394612485336235608e+00 3.589287216738278374e+01
1.851280243165636108e+01 1.056204671734372624e+01 3.667611378201258532e+01
1.846709627865711312e+01 1.103811062212260730e+01 3.717058826419800965e+01
1.796563158768235269e+01 1.196980962401557136e+01 3.770902397547295237e+01
1.393340955798437619e+01 1.412035435891751867e+01 4.033053615668848124e+01
1.332615884782238957e+01 1.371918547086334783e+01 4.059187784834232815e+01
1.428395408424094093e+01 1.358228167636024075e+01 4.044519887788457169e+01
1.382763672756218654e+01 1.340204545871671016e+01 4.059976288882131712e+01
1.681383937632972803e+01 1.313630058198377526e+01 3.948916281575885989e+01
7.412133898280806044e+00 1.398837673003375848e+01 4.209831101196549241e+01
5.032244099021302652e+00 1.576212050550278754e+01 4.165040264447456764e+01
4.428566918762130378e+00 1.602895142244624438e+01 4.164600082649047152e+01
5.078629715858726357e+00 1.508848535052937656e+01 4.192483459417959324e+01
5.632981931033726575e+00 1.461166304334276234e+01 4.206635887347733416e+01
1.041162678001949971e+01 1.310173238656698480e+01 4.204538445186014428e+01
9.842893114814449618e+00 1.325222900540324744e+01 4.207859578336788786e+01
1.309871342588325938e+01 1.337524421466390656e+01 4.075964160876964826e+01
1.276113951499658583e+01 1.303263652185942689e+01 4.094027808063806617e+01
9.225427650650463107e+00 1.337450794259906495e+01 4.226380540007656350e+01
8.111166937303998736e+00 1.357937915829419495e+01 4.221638837174749170e+01
8.955133635221482535e+00 1.323018291875258434e+01 4.247732212369358962e+01
8.299520026910409243e+00 1.333682807585033103e+01 4.246554087358853735e+01
4.899582806152561254e+00 1.252042683465000472e+01 4.224089515535805361e+01
4.319798804098741840e+00 1.231703059974865688e+01 4.208027081042801854e+01
4.697440064267016879e+00 1.176674157252876007e+01 4.238850044525347016e+01
5.088347609207373168e+00 1.224524254048332494e+01 4.239500051498382049e+01
5.479300392006821951e+00 1.272380042832415725e+01 4.240150101317617271e+01
5.031349448764878218e+00 1.290293356244987599e+01 4.228505585261397925e+01
4.583389526938590919e+00 1.308207086183207757e+01 4.216860826909925208e+01
4.298555832885188721e+00 1.279448846878367441e+01 4.208542518174589731e+01
4.684708478270004584e+00 1.336015602270711078e+01 4.214663125916417385e+01
5.234033003908241888e+00 1.345897895252073262e+01 4.224112987352095416e+01
5.905993679991317968e+00 1.319002456554684954e+01 4.241584306515389358e+01
6.059511595038394205e+00 1.282788738231982961e+01 4.249139957603734530e+01
5.896978091208032069e+00 1.255669482368854339e+01 4.254882059019285379e+01
6.640828520745140295e+00 1.293217334404581464e+01 4.258146937487392591e+01
6.333099869331058507e+00 1.365669985722528068e+01 4.243019899560794528e+01
6.314935625933076224e+00 1.238947956067779899e+01 4.269623832830735921e+01
1.784414987755669202e+01 1.234019678955094079e+01 3.818717323432926491e+01
1.498568602360784041e+01 1.378278374292532504e+01 4.021961375827820007e+01
1.733536415414030429e+01 1.268637161511519729e+01 3.949327791077863026e+01
1.611411944102037808e+01 1.337545988512815676e+01 3.987968311183015402e+01
7.518500401659998111e+00 1.360515266774456045e+01 4.228765519137699158e+01
4.498000105501755108e+00 1.501820016479508801e+01 4.205779991204140345e+01
5.065879490130141605e+00 1.481479206727545872e+01 4.206208250949828198e+01
6.241479592484111549e+00 1.419652374092425084e+01 4.212655893666799756e+01
6.925643086034738438e+00 1.363093291063723456e+01 4.235894612502196566e+01
5.717110814696939158e+00 1.418714637850461635e+01 4.217822077649407930e+01
5.778372304251120362e+00 1.382725573291019394e+01 4.238063620996348391e+01
1.226984161255690431e+01 1.291158539436285579e+01 4.123925920201959627e+01
1.166569338212039497e+01 1.294860746789840533e+01 4.151078170597956074e+01
1.098117004151771958e+01 1.295102137797228714e+01 4.201212641258941005e+01
1.026690088914684296e+01 1.301680057624378151e+01 4.250089700394070036e+01
1.337209973956139386e+01 1.271479895087329659e+01 4.093520169381453400e+01
1.282118569823390786e+01 1.281315414966669941e+01 4.108717059375354808e+01
1.402454649597124181e+01 1.262703663704710699e+01 4.083135012887291992e+01
7.644097216352768953e+00 1.344344311647541268e+01 4.245376194247582902e+01
7.802100605427323643e+00 1.314050266471169337e+01 4.276139497305182857e+01
8.418545470614457571e+00 1.310956268065765684e+01 4.269624755687920725e+01
9.746146734218882557e+00 1.319566088511979984e+01 4.238234550750163265e+01
4.912674321924397347e+00 1.152147270448540972e+01 4.249734996780315299e+01
5.783357242390231967e+00 1.355780183067523481e+01 4.233562843847912660e+01
5.223627763402634905e+00 1.399781292977447755e+01 4.233107285069482373e+01
5.519652954631288466e+00 1.175505493008495073e+01 4.261285298930638277e+01
4.668800202231079055e+00 1.416839960047988534e+01 4.228150196083676349e+01
6.822317115934214193e+00 1.348479130344095189e+01 4.254049731149100921e+01
6.733299999999999841e+00 1.222209999999999930e+01 4.284380000000000166e+01
7.221244824810653995e+00 1.303629682668753276e+01 4.267139982152587407e+01
6.126397219465626875e+00 1.198854713215134637e+01 4.272831137783101951e+01
1.868925314451778874e+01 9.519670675142215543e+00 3.641620600083811610e+01
1.833580999023488189e+01 1.147775624351502799e+01 3.778193513657063107e+01
1.875019271984760039e+01 1.048420906754848048e+01 3.729443231343356757e+01
1.548404418946401684e+01 1.340323939442949452e+01 4.023532268431774384e+01
1.476835484878652061e+01 1.359219155439804005e+01 4.034371088864852339e+01
1.432896557587443986e+01 1.308500006121859371e+01 4.060764546173516010e+01
1.760934765244849842e+01 1.259406572449285378e+01 3.901152111726797500e+01
4.161444615489796384e+00 1.565729050799571809e+01 4.184957392905845097e+01
5.192833454409792715e+00 1.417777112758243518e+01 4.222987333443916924e+01
6.848973496350755141e+00 1.357278433313466692e+01 4.243947063863579672e+01
