-6.462864467776756605e+00 6.291322445644409456e+00 1.825830363138421930e+01
-3.397724414657078640e+00 6.287397394039628828e+00 1.857541200080909505e+01
-1.842587040626127104e+00 5.618272831865249728e+00 1.862225183418831165e+01
-8.759826324510727957e+00 6.698086307616342161e+00 1.830294224924143620e+01
-9.836879990820483144e+00 5.972850416420373065e+00 1.805514456085222719e+01
-1.385152852119734490e+01 4.835403833021114650e+00 1.809217702754328272e+01
-1.196102682575101106e+01 5.399721632470125599e+00 1.793107471253881613e+01
-1.576885727090028411e+01 9.963566669060544001e-01 1.943365407700994041e+01
-1.572955971758107552e+01 1.793836095930546382e+00 1.885875962587042665e+01
-1.517025546192877172e+01 -9.702636062548459783e-01 2.025358195259563843e+01
-4.379476486148199399e+00 6.407197932040282318e+00 1.847624379776471670e+01
-2.374651697295806940e+00 6.210157082766757597e+00 1.868985931762692942e+01
-9.388313498702393289e+00 6.409555749377135569e+00 1.819830637587678623e+01
-1.140390474447823621e+01 5.792726883108396230e+00 1.803008378981400739e+01
-1.440257480655757227e+01 4.368469301310202724e+00 1.811597067119858195e+01
-1.477668965821641578e+01 -1.721750550176099459e+00 2.042385135016695230e+01
-1.591363558127631883e+01 7.775575589760453932e-01 1.982300740996829802e+01
-1.552651293505043384e+01 -2.810533098006742780e-01 2.018866273530001010e+01
-1.555636275847231431e+01 3.310278906249999764e+00 1.836920805263842382e+01
-5.259205153414551859e+00 6.634051942345881692e+00 1.841490588965449149e+01
-6.040649960223452020e+00 6.661226295961392374e+00 1.839186759071218091e+01
-7.343394168514934428e+00 6.613477316946939411e+00 1.832730008205622596e+01
-7.894821423762194534e+00 6.892441817940181181e+00 1.839459541024483613e+01
-1.329993443598109160e+01 5.302805010507944061e+00 1.806837087811062403e+01
-1.274883184685892878e+01 5.769787499999999625e+00 1.804459060074056609e+01
-1.497926352151923979e+01 3.839565861761857768e+00 1.824249306345535615e+01
-1.584621621245271683e+01 2.863827473434454429e+00 1.866395207518870336e+01
-1.582724283500352058e+01 1.446918003233079508e+00 1.921007569409831461e+01
-1.613620660168848175e+01 2.417152343749999766e+00 1.895897759003425520e+01
-1.438328519617879664e+01 -2.473086381421361502e+00 2.059314927125706518e+01
-1.539593152400309073e+01 -1.208857016600813905e+00 2.078076307934850675e+01
-1.474826246923673700e+01 -2.644049623099026025e+00 2.118664636355462605e+01
-1.500250683811218977e+01 -1.960148751982294435e+00 2.094973960284007219e+01
-1.412845658442541108e+01 -3.158037061045976923e+00 2.082957369603299824e+01
-6.808620271742616303e+00 6.851081239478240548e+00 1.842059071937193337e+01
-3.909538345087977707e+00 6.901019353980135662e+00 1.865070703222701809e+01
-1.017875734013835931e+01 6.657275920399378322e+00 1.824788425807701486e+01
-1.079138076223560816e+01 6.225000417570267786e+00 1.813898649589170731e+01
-1.459640973307261547e+01 4.981639347743315405e+00 1.837036486766858445e+01
-1.219166312605720037e+01 6.162839287286037582e+00 1.814362110993952726e+01
-1.575230114661424530e+01 -5.194074673789259577e-01 2.071577067328934518e+01
-1.601109839604596985e+01 4.735987822968733552e-01 2.023697612744025776e+01
-1.626725080073535423e+01 1.974820515940340471e+00 1.941532959889416432e+01
-1.562152910145528217e+01 -1.447376008658411539e+00 2.130621713061794509e+01
-1.597808462097886206e+01 -7.577605993826417308e-01 2.124240094774223664e+01
-1.449375485542295650e+01 -3.329101678873902515e+00 2.142363647880942423e+01
-2.906914471519090881e+00 6.802261572282610302e+00 1.875749206498179689e+01
-9.640462699626443310e+00 7.019926814853030272e+00 1.837179334011753085e+01
-8.146549175287979949e+00 7.430204801989039431e+00 1.855338466939962672e+01
-1.407476868945195569e+01 5.335355780485707911e+00 1.831991888336255414e+01
-1.494832106998888044e+01 4.817677022246604324e+00 1.847581241030241728e+01
-1.639815120398519355e+01 1.533249898458450611e+00 1.987130883275888493e+01
-1.610855988185807774e+01 1.696394417941900212e-01 2.065097809019929898e+01
-1.581408963362591535e+01 4.024564595205043283e+00 1.866600677770330918e+01
-1.613080342436458281e+01 3.877064606240389733e+00 1.891389157673070898e+01
-1.536737477766727622e+01 -2.130419968805525865e+00 2.154318317163910734e+01
-1.511322398504504250e+01 -2.814982700791700765e+00 2.178014146616438751e+01
-4.829715384413947987e+00 7.085114706463500056e+00 1.857430279135265039e+01
-5.991975662965098870e+00 7.247863401986037957e+00 1.857857232717002915e+01
-7.154234845569424017e+00 7.410612536582899423e+00 1.858281288858437463e+01
-9.033964724202393271e+00 7.555912959325204348e+00 1.856080566524466491e+01
-1.163461013614841733e+01 6.555810641498200475e+00 1.824263001728064637e+01
-1.340457985524430740e+01 6.186229984295821716e+00 1.838061033603993977e+01
-1.538120668339732333e+01 4.421120718977946673e+00 1.857087952122723706e+01
-1.294585644457001194e+01 6.395515443162230973e+00 1.831144368009449153e+01
-1.642278018523962047e+01 3.068074278533833521e+00 1.922067903448840198e+01
-1.654436955661218178e+01 1.077044319135637584e+00 2.049225806173118869e+01
-1.633444121574387609e+01 -6.852372047303832703e-02 2.117808131207867106e+01
-1.663129650476768617e+01 2.899328823735374261e+00 1.954772440838533498e+01
-1.615740210181420267e+01 -1.017034506020723095e+00 2.182432819641236321e+01
-1.485881494139880132e+01 -3.499934277838379071e+00 2.201733385156249767e+01
-2.178506741559905979e+00 6.737265588479887768e+00 1.881076690623797987e+01
-1.052057192848458023e+01 7.341574010962715668e+00 1.844059128867445807e+01
-1.107727034752896422e+01 6.948981746988101449e+00 1.834168576956445662e+01
-1.409738444488664122e+01 5.890430343328897145e+00 1.850266173419806748e+01
-1.479018766650711569e+01 5.594629816683816870e+00 1.862470175450113530e+01
-1.549419194428521074e+01 5.267512661977481692e+00 1.883571893673599362e+01
-1.238864964731924090e+01 6.788219297916953998e+00 1.841034976923531374e+01
-1.669058870111757287e+01 6.208311057334325866e-01 2.111328883090646613e+01
-1.670369469787859984e+01 2.115385446533327052e+00 2.008454242988013050e+01
-1.603562666755793842e+01 -1.803996433197057048e+00 2.229670696373605310e+01
-1.558322632995163914e+01 -2.456242259162696673e+00 2.218944627982774165e+01
-1.538969770776174251e+01 -3.053640619596544425e+00 2.244122364901806677e+01
-5.323497600094542648e+00 7.741706163755712744e+00 1.876110919413929068e+01
-4.400356503259286178e+00 7.536042168785167306e+00 1.873364367374007600e+01
-2.507012989744888287e+00 7.267690019403259427e+00 1.888479110705089070e+01
-3.439601591002166892e+00 7.394838181491904194e+00 1.882517888760545333e+01
-8.427750108932192674e+00 8.091989651528104233e+00 1.874982088818047998e+01
-1.644705743077939175e+01 -4.114886245437318069e-01 2.172656614444493783e+01
-1.685813816572942159e+01 1.907404400337437966e+00 2.047106444745634235e+01
-1.670888701485401739e+01 3.717819809660616315e+00 1.948196779374254817e+01
-1.607165052175007958e+01 4.740382916696246340e+00 1.896263954494868642e+01
-1.700930056437372073e+01 2.697398146891931692e+00 2.029782316022570399e+01
-1.649493416409160318e+01 -1.169648946266570899e+00 2.251380657306428645e+01
-1.695985374359560893e+01 2.319333872127238849e-01 2.198772045958949306e+01
-6.403768643313138220e+00 7.960838942185541889e+00 1.878644339854498924e+01
-1.688974188154661604e+00 7.007892772323971897e+00 1.890806993453789531e+01
-7.499594701800472052e+00 7.969732504130495165e+00 1.874491677157778113e+01
-9.938228702578543405e+00 7.777916881237085356e+00 1.859765621682120695e+01
-9.355909304286956996e+00 8.214246428120560495e+00 1.875470402748195298e+01
-1.173863676405645684e+01 7.104548955309212488e+00 1.846975062134077561e+01
-1.406005349413113059e+01 6.602499018977471046e+00 1.871646499306155320e+01
-1.314268822463758468e+01 7.020629536275619031e+00 1.857804864264036127e+01
-1.701447830570045028e+01 1.678524247337259467e+00 2.094128987022135746e+01
-1.712623112238029677e+01 3.380974788779317564e+00 2.013630280992042643e+01
-1.669359657410516817e+01 -5.864339213831396558e-01 2.234275169346275902e+01
-1.532134197493041583e+01 -3.681589269400087794e+00 2.293298291512386200e+01
-1.591973780510737591e+01 -2.608043307900639540e+00 2.286444277932217517e+01
-1.670958738681012079e+01 -1.492869061343777171e+00 2.314538127708473425e+01
-3.971455970525291868e+00 7.986489059485982978e+00 1.889280645915229329e+01
-8.773570759842849398e+00 8.650596143686229311e+00 1.891174594325731562e+01
-1.132337501913071875e+01 7.730412239340133773e+00 1.867502138709563653e+01
-1.544196495471348030e+01 5.898415486855125067e+00 1.898901171344209615e+01
-1.498428629531849943e+01 6.209079105755755279e+00 1.887947694765146167e+01
-1.705330690545814321e+01 1.299430679547601830e+00 2.129924950340674172e+01
-1.670613285553237759e+01 4.447421056112578874e+00 1.945941259816103397e+01
-1.611689985089648403e+01 -3.012544546307676541e+00 2.356798886070612298e+01
-1.644992605872761615e+01 -2.162305517119838871e+00 2.328778203124999990e+01
-4.814657990488759864e+00 8.206598146020450457e+00 1.892806408625599346e+01
-1.992687137718894164e+00 7.865915823326517398e+00 1.904844054059073244e+01
-2.982074848194750327e+00 7.926202441406250188e+00 1.897060033995703421e+01
-1.075125485667795822e+01 7.944885768501574574e+00 1.870362492921707442e+01
-1.016908592263494882e+01 8.381641284752817000e+00 1.886087877180688821e+01
-1.240966589267758735e+01 7.480550573620132759e+00 1.868580043527443380e+01
-1.632914168197767069e+01 5.456157668066141220e+00 1.925921840665030160e+01
-1.604059811500776433e+01 5.720319274444617186e+00 1.919596406127738675e+01
-1.402796665000843035e+01 7.332825103261895627e+00 1.894881932747938436e+01
-1.731860815981378110e+01 2.281621972985420133e+00 2.107146694708790591e+01
-1.731507474218645726e+01 3.279582365095148333e+00 2.051122565750165450e+01
-1.699479439480276710e+01 4.366819471553502474e+00 1.974308857628564695e+01
-1.728027805864967092e+01 1.084972528311082929e+00 2.188958030578531577e+01
-1.696955431472841624e+01 -8.236236418848972285e-01 2.300281243763491190e+01
-1.722906943633814691e+01 -1.564120703124999290e-01 2.286047894921874857e+01
-1.754941678047617515e+01 6.938877043867999195e-01 2.276328808353123989e+01
-5.657863472281168704e+00 8.426707837772271503e+00 1.896330531896783711e+01
-7.086984822570014941e+00 8.371331372509674296e+00 1.888808078398766455e+01
-7.844687140025605743e+00 8.528419706047360549e+00 1.890689607140017259e+01
-9.765020533326211449e+00 8.959445960226370076e+00 1.908512207941825167e+01
-1.471618580844980428e+01 7.020856433075660874e+00 1.905263435532267025e+01
-1.333974581024278194e+01 7.646465144808134440e+00 1.884497422580971460e+01
-1.741586169490749825e+01 1.977353808734226392e+00 2.148512870239451900e+01
-1.769978592782785043e+01 3.258139109612363971e+00 2.119817955506497142e+01
-1.578366276588084105e+01 -3.863194315460160233e+00 2.384834531250000111e+01
-1.717824192947569983e+01 -1.045712361126896806e+00 2.380436833162602639e+01
-1.743796885614677805e+01 -3.775961693051891888e-01 2.366207115747837264e+01
-1.764684297236257393e+01 -5.988980560315326773e-01 2.446366336573799316e+01
-1.784474681911519411e+01 1.168345031474001816e-01 2.428382318316005595e+01
-1.763570806829102722e+01 3.380147677280324614e-01 2.348183601277359855e+01
-1.656541212834781618e+01 -2.421001721437739729e+00 2.410536934167523526e+01
-1.668072413508183516e+01 -2.679306295891598300e+00 2.492195749804205107e+01
-1.628992681196628567e+01 -3.400382095159492746e+00 2.479372904070254435e+01
-1.563872377661247803e+01 -4.395154287668614046e+00 2.489089721149577628e+01
-1.691850956746363721e+01 -1.715506227814600937e+00 2.394698328484551197e+01
-6.501296746131964177e+00 8.646878846509169492e+00 1.899854201430855127e+01
-5.143867604444734454e+00 8.730603895877520060e+00 1.910707318174664948e+01
-1.098226187633434314e+01 8.549037696461621039e+00 1.896703261826112907e+01
-1.517826505123656844e+01 6.824851082160324545e+00 1.913411387614119619e+01
-1.558308398810195072e+01 6.402382991319721661e+00 1.918987696113847718e+01
-1.405200110909155775e+01 7.903264992952508727e+00 1.914477480380540442e+01
-1.782436835707100897e+01 2.102029521514614085e+00 2.216868078968794720e+01
-1.762106431149866381e+01 3.862080739236822602e+00 2.072478191357846811e+01
-1.745108753737333629e+01 4.439083396874171861e+00 2.036464223089538805e+01
-1.728102265685872041e+01 5.016360850103356306e+00 2.000451588895268529e+01
-1.693406995808065574e+01 5.594132687273039473e+00 1.978029366818172008e+01
-1.738690577546036309e+01 -1.268884511300389262e+00 2.460592430328353686e+01
-1.703381684357908910e+01 -1.974217689867857617e+00 2.476407986750563950e+01
-1.750211968776618576e+01 -1.528003245289490719e+00 2.542348551920177968e+01
-4.394565359157512674e+00 8.570002403424826554e+00 1.908894462494211908e+01
-5.760043035789743193e+00 9.133000204487993656e+00 1.922394600316719249e+01
-3.623862947079141250e+00 8.557722863205190933e+00 1.911647994544306428e+01
-2.523830947226466836e+00 8.539807410412862509e+00 1.921930550575577357e+01
-1.048836093694452742e+01 8.900607077368002606e+00 1.909250310151522356e+01
-9.061986110584641096e+00 9.406126669719979461e+00 1.924115624802913516e+01
-8.190171871679716276e+00 9.087744140625000355e+00 1.906906099907783059e+01
-1.212647129285022274e+01 8.119393737116377352e+00 1.890951113490195468e+01
-1.141545878185103291e+01 8.214188122293107241e+00 1.887672476408976152e+01
-1.658688883423058158e+01 6.172243302486948302e+00 1.955611862245476473e+01
-1.618188471764676351e+01 6.595017807975922963e+00 1.950026402252940372e+01
-1.482596877240641753e+01 7.926894798800378616e+00 1.938542829589143679e+01
-1.286858984519584226e+01 8.005464375790065645e+00 1.893927086804050930e+01
-1.537221508538529946e+01 7.440120332532330849e+00 1.938872997669085763e+01
-1.777839335354441630e+01 2.655062052655034588e+00 2.167099818475519513e+01
-1.805376043276510600e+01 -1.043448096617380499e-01 2.508580739690972550e+01
-1.804268336656041427e+01 8.328522689993231864e-01 2.410370916582752088e+01
-1.787034163143206555e+01 1.549004447418136365e+00 2.266592031249999906e+01
-1.679605074096188488e+01 -2.937687294537375760e+00 2.573886410546874970e+01
-1.636178616717749534e+01 -3.600925886091964401e+00 2.580333024815362464e+01
-1.714909189564379233e+01 -2.232843113526509882e+00 2.558117376330769233e+01
-1.785576188859817393e+01 -8.218225401375206518e-01 2.526551511422907126e+01
-7.345487267314105395e+00 8.867247281200068443e+00 1.903379718421691891e+01
-1.577701945511087267e+01 7.017617755653756895e+00 1.944447453212525190e+01
-1.353676421997307422e+01 8.272175419466012869e+00 1.911185945131892439e+01
-1.805819217879372829e+01 3.398037156282412319e+00 2.211722983363001305e+01
-1.795335850308458703e+01 4.203033153759092144e+00 2.148638799845666369e+01
-1.816018994064200243e+01 1.438810224342326860e+00 2.369602026599440592e+01
-1.779864060480605303e+01 4.493768765172999835e+00 2.108695457512257931e+01
-1.825173421255232498e+01 6.113123775195871135e-01 2.490610810145486553e+01
-1.592768964608031546e+01 -4.263939829516157687e+00 2.586776912835167153e+01
-1.749741464624960940e+01 -1.760666287796161189e+00 2.640484902845427584e+01
-1.714444148986502015e+01 -2.465381192922038167e+00 2.656272889083552258e+01
-1.785084454259264675e+01 -1.055120849793648174e+00 2.624714549248545836e+01
-4.817931085528255331e+00 9.153868570537413873e+00 1.928520205699582846e+01
-6.767959518127328877e+00 9.367355420841985136e+00 1.925521363437905720e+01
-3.276081080266416201e+00 9.129262814378819257e+00 1.934032059713656082e+01
-1.057315053147168804e+01 9.438646374993311383e+00 1.932174257657907646e+01
-9.933092354047456496e+00 9.724252534441934159e+00 1.941308733627540306e+01
-1.189394207470752640e+01 8.727208682034909515e+00 1.912840341757602403e+01
-1.427998543635772144e+01 8.413380173239472626e+00 1.938212026161552615e+01
-1.623346617387970170e+01 -3.933773682974498698e+00 2.675099483277864820e+01
-1.666761142826613806e+01 -3.270758771694164402e+00 2.668694443150819140e+01
-1.741482631126853775e+01 5.702687133780505846e+00 2.038837142702062977e+01
-1.807895451621541483e+01 2.844327250904842952e+00 2.243037319078665703e+01
-1.804834606233153593e+01 3.875841274424088656e+00 2.188582210238497083e+01
-1.814035650182365700e+01 2.106734980447112271e+00 2.309350197193258580e+01
-1.763143173522550100e+01 5.474378118642780677e+00 2.072811407151623442e+01
-1.816754033298588311e+01 -2.116494195290485880e-01 2.605316417627897607e+01
-1.701605772547804563e+01 -2.798221143946693079e+00 2.751011001294992653e+01
-1.749266746993075117e+01 -1.993270201885732895e+00 2.738621179043864728e+01
-1.836553845204053204e+01 5.053981368246800443e-01 2.587345760275249873e+01
-1.845000982506385157e+01 1.328230761718749875e+00 2.472612044531249609e+01
-1.856375011376684014e+01 1.221932000175520949e+00 2.569346600467229180e+01
-4.056623094319923517e+00 9.058849799591802920e+00 1.928199697433936066e+01
-5.241456163582844496e+00 9.737954791235429397e+00 1.948153410486773041e+01
-6.189918235195898788e+00 9.867629051758850522e+00 1.947670368256614992e+01
-1.121321405767772994e+01 9.153040227220737179e+00 1.923038254211988729e+01
-8.444375609072977795e+00 9.639545688975578841e+00 1.932629076219943798e+01
-1.293027251481045958e+01 8.508741862085484442e+00 1.914419859842284311e+01
-1.699695128624864537e+01 6.702792455088620649e+00 2.021804250362706767e+01
-1.669111535851755690e+01 6.898848881696258317e+00 1.995330499884806486e+01
-1.545130648879431057e+01 8.030648383516052036e+00 1.970897278584919476e+01
-1.373381112562846518e+01 8.899964215604585505e+00 1.937879596903940538e+01
-1.653923515105546826e+01 -3.603599119404234496e+00 2.763421722502553024e+01
-1.591606438641782617e+01 7.986291168822472919e+00 1.997415051905728234e+01
-1.835903434732207273e+01 3.587494412004582856e+00 2.287727901719911827e+01
-1.835949209669213289e+01 2.121827963035883169e+00 2.379308388288346165e+01
-1.852696347436487301e+01 1.959863839724812262e+00 2.446754355089257871e+01
-1.736450172729991337e+01 -2.325661605022926182e+00 2.833327455451669863e+01
-1.784588527701347616e+01 -1.288224648741399525e+00 2.722875022248180699e+01
-1.816256558756348127e+01 -4.449088543313988175e-01 2.703465408432697359e+01
-1.847931294127524637e+01 3.985285837208172310e-01 2.684080144351367991e+01
-7.664540176771871494e+00 9.542294235068689900e+00 1.927036221466090993e+01
-9.323823863484998142e+00 1.016290412495424889e+01 1.959110831224151283e+01
-1.195901398127050008e+01 9.390943657350719675e+00 1.939907726873302352e+01
-1.494306837949632794e+01 8.750401406573827146e+00 1.983500268169327185e+01
-1.579964993972866871e+01 -4.596347516736062566e+00 2.681518157747931497e+01
-1.679517164756401826e+01 7.623989091049804934e+00 2.034989871935570704e+01
-1.797617221762158835e+01 5.125143607317690808e+00 2.144904596789174178e+01
-1.809396944684903019e+01 4.782472727556527303e+00 2.176523741204547946e+01
-1.833808416478053260e+01 4.141128802154685040e+00 2.256361385543968368e+01
-1.828570540589729276e+01 4.543895058845125234e+00 2.224815971987747432e+01
-1.837998458760435483e+01 3.033841495020217938e+00 2.319056174124813552e+01
-1.841044979545294069e+01 2.664543180790627908e+00 2.352120795449436130e+01
-1.688770250056628441e+01 -3.130933088364189487e+00 2.845695323569228563e+01
-1.784089021472496484e+01 -1.521133653874451541e+00 2.820969600687774559e+01
-1.815754951736099088e+01 -6.779987573033838810e-01 2.801614001370920448e+01
-1.847455217343613754e+01 1.660174782559416806e-01 2.782235803954415232e+01
-1.867749052613204341e+01 1.115717432692995059e+00 2.666107454789810660e+01
-7.138378411941518564e+00 9.997303379224733888e+00 1.947185254057266590e+01
-1.144410471154780673e+01 9.756876800206736533e+00 1.949366713089569814e+01
-1.080398349992554863e+01 1.004229877508245039e+01 1.958495303242251140e+01
-1.424248079047786852e+01 9.273857226644528495e+00 1.978194525330296472e+01
-1.754866404889570930e+01 6.388972616557507145e+00 2.077236532775685163e+01
-1.798137712393898724e+01 5.931486453897726996e+00 2.145076313513400379e+01
-1.610531437312054948e+01 -4.266252775808338171e+00 2.769796007778655778e+01
-1.824942737274743365e+01 5.255621540678947490e+00 2.209023787699710084e+01
-1.860396548268751715e+01 2.591328277362860977e+00 2.420877321933504334e+01
-1.866232962871756484e+01 2.007997770463378906e+00 2.540282024236073255e+01
-1.873943719210496184e+01 2.639542436593217634e+00 2.514437052640608172e+01
-1.706640636525004240e+01 -2.605724917548257302e+00 2.941369204219935796e+01
-1.879121350520796341e+01 1.009050853854389862e+00 2.762876892578125165e+01
-1.834867051136364324e+01 -3.029653807620134864e-02 2.888768586515974235e+01
-6.613205517722750670e+00 1.045145460325176856e+01 1.967294863182319986e+01
-7.918532043313480706e+00 1.009443745977285722e+01 1.952774946824140301e+01
-8.698683787393283851e+00 1.019157179286977488e+01 1.958362895507293189e+01
-1.025047924121184906e+01 1.041403328152703089e+01 1.973462976677558700e+01
-1.256659287303553363e+01 9.102860664807165492e+00 1.934464906988239363e+01
-1.321936232610836903e+01 9.263470738205446864e+00 1.947328134773286834e+01
-1.740657254647749141e+01 7.232232308107764851e+00 2.087922394961716677e+01
-1.553045809763165508e+01 8.621427807836175461e+00 2.002948743576449431e+01
-1.815373214712229455e+01 5.756511805686690408e+00 2.181120518510580197e+01
-1.641062685317858438e+01 -3.936195962238253632e+00 2.858061762109375081e+01
-1.646007098251539702e+01 8.531832667340870202e+00 2.055970025176905835e+01
-1.866010138528168127e+01 3.777356712295814489e+00 2.363697510823100245e+01
-1.868104383754302233e+01 3.223328892723289929e+00 2.394970703125000355e+01
-1.754397417515146174e+01 -1.800651261288095606e+00 2.929043739260066914e+01
-1.803181783570449426e+01 -8.740370509570722923e-01 2.908110937670613794e+01
-1.866549691239069375e+01 8.134320786309927609e-01 2.869426297670817050e+01
-1.888997570885339528e+01 1.794753085400216053e+00 2.733824417040533561e+01
-1.877616814312291282e+01 1.901477412807895062e+00 2.637053206243037096e+01
-1.218979472856401891e+01 9.994617944881865057e+00 1.966228604225286247e+01
-1.270481770598669868e+01 9.628846274705196606e+00 1.956774663362238087e+01
-1.381608359591394830e+01 9.472085974926594432e+00 1.969834844871912338e+01
-1.689944503084961624e+01 8.350434874941694119e+00 2.074737485136004622e+01
-1.863918327831270005e+01 4.330737413900443755e+00 2.332429954722060828e+01
-1.861823696917245030e+01 4.884829488636363237e+00 2.301041698835010152e+01
-1.881653415591594936e+01 3.270999754099985335e+00 2.488592040339904088e+01
-1.887486014765520892e+01 2.687174945512387669e+00 2.608019171702286698e+01
-1.658903844587651122e+01 -3.410884664004486755e+00 2.953719066471705190e+01
-1.822089211537502251e+01 -2.262769795892227709e-01 2.996080056998566121e+01
-1.853820825601248856e+01 6.175919190528470493e-01 2.976583983840980352e+01
-1.890568450299144843e+01 1.743525715764502548e+00 2.838809320900788080e+01
-7.570631756221921194e+00 1.066853196943229243e+01 1.978654136683997677e+01
-1.167485286462420824e+01 1.036033710937500096e+01 1.975679433001348073e+01
-8.952765048002422787e+00 1.074310484314690584e+01 1.984074081624270036e+01
-9.760316043398502117e+00 1.092345985128473806e+01 1.994847147797318243e+01
-1.768244789922410121e+01 7.074831306586221835e+00 2.115624805322438107e+01
-1.475112727751319674e+01 9.647106531639346727e+00 2.018505478394055075e+01
-1.560956115809531397e+01 9.211684350727518122e+00 2.034983091599864480e+01
-1.833153179699861468e+01 6.388654918823796436e+00 2.217386406284149913e+01
-1.842715705233005963e+01 5.887100508537661980e+00 2.245276521886082932e+01
-1.852268125062541415e+01 5.386056392559044781e+00 2.273148459777591412e+01
-1.883766952910322701e+01 3.805390509939797106e+00 2.440508208237279675e+01
-1.676777687808483108e+01 -2.885471181846755773e+00 3.050537288243276990e+01
-1.724484949133120537e+01 -2.080387663436699786e+00 3.038204349310058561e+01
-1.761087716113945589e+01 -1.385159086798265937e+00 3.022382001834565912e+01
-1.112088104938752409e+01 1.073239693269892747e+01 1.990662552661599705e+01
-8.252903826211934302e+00 1.055920129205324720e+01 1.974614540382714623e+01
-1.807406092010986143e+01 7.074965812977039192e+00 2.185722783950635062e+01
-1.612525865327272356e+01 8.924732062727374071e+00 2.053475075904666625e+01
-1.700368478365820479e+01 9.076519298245614209e+00 2.114479087097460308e+01
-1.781644042948959950e+01 7.761651805453015918e+00 2.154077670724165117e+01
-1.741008091501929300e+01 8.419062231010421726e+00 2.134269488649732693e+01
-1.884276882182817303e+01 4.455813523254184005e+00 2.416820327708321869e+01
-1.899911433396849958e+01 3.949488811172668701e+00 2.541663178776683552e+01
-1.895194026801666354e+01 3.318487735090004165e+00 2.582163308529169754e+01
-1.898870802101459176e+01 2.580538987549569008e+00 2.704773517505670100e+01
-1.883745470970225355e+01 1.781327418690939579e+00 2.937695365091797939e+01
-1.767848525623680089e+01 -9.696017171390544087e-01 3.115165653006376445e+01
-1.900300013945264865e+01 2.528419007496893745e+00 2.809770493856728635e+01
-1.229224945848087991e+01 1.070856142734571215e+01 2.006185692556661238e+01
-1.056786673055802162e+01 1.110381438164743884e+01 2.005617788480383368e+01
-1.309523970670637283e+01 1.037567440727518964e+01 2.003994497539326503e+01
-1.334231906731610984e+01 9.764429326416026456e+00 1.976273824219584441e+01
-1.852189470581032538e+01 6.664101002291697995e+00 2.282972614827279756e+01
-1.884799906782403411e+01 5.106532396275113683e+00 2.393178088779807311e+01
-1.899412915221502018e+01 4.386714800190260277e+00 2.485998443764412613e+01
-1.908660818853730490e+01 3.365800674409189064e+00 2.675741996484375207e+01
-1.731232182765759120e+01 -1.665302900602168457e+00 3.130957085984449861e+01
-1.877028837873850264e+01 1.817494386802219308e+00 3.037280761858141886e+01
-1.841058607685410564e+01 4.214619636135504277e-01 3.083588740643908821e+01
-1.804442674452124606e+01 -2.742971438697193731e-01 3.099382593719067813e+01
-1.178851879613763032e+01 1.088079805823017665e+01 2.005727393934314051e+01
-1.123496951690490953e+01 1.125227380738343186e+01 2.020682764396473630e+01
-8.364011894356295329e+00 1.105976875943287929e+01 1.997777745187100606e+01
-1.389824393030792571e+01 1.004418050497048220e+01 2.001798827039898754e+01
-1.840135403314026519e+01 7.081312099300777874e+00 2.262084266387597609e+01
-1.568864026931087885e+01 9.801634118477538848e+00 2.067010353440063497e+01
-1.862944546890437536e+01 6.100408991015719984e+00 2.314352433856495495e+01
-1.873702983348227491e+01 5.537213314826020749e+00 2.345763952229726712e+01
-1.915991274017922663e+01 4.093619745711376545e+00 2.642818974089039585e+01
-1.923321122188554355e+01 4.821193399931306800e+00 2.609898773053990695e+01
-1.713443298841018247e+01 -1.114502941938279701e+00 3.196677810343423332e+01
-1.750020721318380268e+01 -4.189666377213978610e-01 3.180914870254266447e+01
-1.901709687611913324e+01 2.477490998937208921e+00 2.914767140290045688e+01
-1.895015758174464793e+01 2.515528196891386958e+00 3.014009671630394749e+01
-1.859037377303551253e+01 1.119116669724351532e+00 3.060459737477091124e+01
-1.786597775947054956e+01 2.766558921025445428e-01 3.165148590887075741e+01
-1.525928319102924924e+01 1.001959555531741763e+01 2.058775632376418940e+01
-1.659203312265136887e+01 9.514727440327208186e+00 2.109347025945660903e+01
-1.899112549238135728e+01 6.017788485178193092e+00 2.446359995452255376e+01
-1.731911995860117770e+01 9.594980686295059513e+00 2.187323450163160032e+01
-1.785001036295145482e+01 8.480284334808395386e+00 2.198877467954837073e+01
-1.808126080204356967e+01 8.226808866946619503e+00 2.234771555357040640e+01
-1.907751975560031710e+01 5.327827268713607012e+00 2.485078226175040328e+01
-1.910056053277213195e+01 3.313741058603429934e+00 2.780756662307096860e+01
-1.915058510910066758e+01 4.967929972103826586e+00 2.531488628145132580e+01
-1.840893550225548481e+01 1.718555538633191659e+00 3.119409306382711122e+01
-1.822891995778741858e+01 1.020360478568164142e+00 3.142548224642977317e+01
-1.911511718734716681e+01 3.261255726649625597e+00 2.885727854581093865e+01
-1.080339349474642852e+01 1.176586547437186425e+01 2.044771825492096795e+01
-1.290996098594653851e+01 1.105858347852229606e+01 2.036705265863112402e+01
-1.456432668964271926e+01 1.050746405419519824e+01 2.053324681222829895e+01
-1.398043011181320239e+01 1.061627729542485277e+01 2.033771688968455038e+01
-1.871231004686919164e+01 6.939533539450323474e+00 2.348581021272290670e+01
-1.885559616302365882e+01 6.188219366382821995e+00 2.390401840510027398e+01
-1.918571529293792821e+01 3.995556242881940001e+00 2.728465401095569121e+01
-1.932516077037052327e+01 5.142550520610927656e+00 2.730645225079155125e+01
-1.695635987634970476e+01 -5.635182291548792577e-01 3.262337666796862123e+01
-1.858882082717660467e+01 2.416606336517669984e+00 3.096300743757638330e+01
-1.732221104278790946e+01 1.322993431394919317e-01 3.246542807248279416e+01
-1.822746838940703640e+01 2.317697677694920078e+00 3.178340999197708783e+01
-1.804757016666696146e+01 1.619720360263916303e+00 3.201412502537670690e+01
-1.190207172678102587e+01 1.140073122675615558e+01 2.035745558814763712e+01
-1.141245574295638043e+01 1.177838786227428791e+01 2.051698327084570650e+01
-1.349737307433740163e+01 1.090650061750781674e+01 2.039901514074069055e+01
-1.576779651806728744e+01 1.039207304463232084e+01 2.099072318292853012e+01
-1.701407218020096579e+01 9.653948085841761895e+00 2.150069096003946356e+01
-1.928505265107895994e+01 4.624677993272364063e+00 2.781143361424092220e+01
-1.930650978916829175e+01 5.548768143488963744e+00 2.576978550390625244e+01
-1.912999207907855492e+01 3.210969531249999953e+00 2.990675659765625127e+01
-1.876877305451106182e+01 3.112184176475436548e+00 3.073145845722606140e+01
-1.768489085015313478e+01 8.757966991630407039e-01 3.223979900759542261e+01
-1.840743538082074693e+01 3.013369990077752192e+00 3.155247729967269166e+01
-1.406261169019756707e+01 1.118819026233238745e+01 2.065741850907031463e+01
-1.847107837204675818e+01 7.772895572024929756e+00 2.306725736852642328e+01
-1.618006970526135291e+01 9.953248238007930127e+00 2.104211769981816005e+01
-1.522680710927097181e+01 1.084815102748084037e+01 2.098622143719663669e+01
-1.923556841919955929e+01 6.195648995164423134e+00 2.544543176424339848e+01
-1.897411392885582160e+01 6.838869958212691280e+00 2.435022379929275615e+01
-1.788348872760201758e+01 9.196892920423325180e+00 2.243568522610608795e+01
-1.921387829455618146e+01 4.016732068903833053e+00 2.849872071417781427e+01
-1.936530439522872271e+01 5.660367693097986930e+00 2.680146940621786200e+01
-1.677871997561435791e+01 -1.180569028295110068e-02 3.327883743418355778e+01
-1.271057772001942432e+01 1.183305215055786164e+01 2.074427532797045970e+01
-1.143412945234500633e+01 1.216242745653361190e+01 2.073235056130150156e+01
-1.352704498990064863e+01 1.140946374471709746e+01 2.067191692834748551e+01
-1.468591058709212938e+01 1.130398183361566922e+01 2.098167867590851543e+01
-1.916409908721412236e+01 6.842544260204990181e+00 2.512107906762799203e+01
-1.702446521355122044e+01 1.023166047769730902e+01 2.185685643520287158e+01
-1.834571534930982750e+01 8.691154131727421017e+00 2.315351104728781095e+01
-1.938457288157582425e+01 5.253621430077919818e+00 2.833803509262167708e+01
-1.921860155050886831e+01 3.877618111530396927e+00 2.964637551201536780e+01
-1.750374634322126255e+01 1.476637117417068934e+00 3.282842848318474438e+01
-1.714116304560037563e+01 7.324043834928759544e-01 3.305388857389633728e+01
-1.786626907096388805e+01 2.218597737383868118e+00 3.260270790845034128e+01
-1.804607515283031205e+01 2.914554176464233315e+00 3.237247393494996572e+01
-1.866344654749229903e+01 3.748329848855399771e+00 3.129062607062531853e+01
-1.201560296564476893e+01 1.192055579875813720e+01 2.065758097871616528e+01
-1.619689595127936599e+01 1.091679769382145260e+01 2.163578167880191927e+01
-1.890255852026863792e+01 7.214650394375380138e+00 2.414138079952168070e+01
-1.872168720647048801e+01 7.839359916873652523e+00 2.382729965573529185e+01
-1.902471255843856923e+01 3.847786345023156862e+00 3.046783114221461730e+01
-1.937487403591527269e+01 6.244766549672451816e+00 2.628990027770114324e+01
-1.763459370837487228e+01 1.011328380859028719e+01 2.260174505335512052e+01
-1.931049241672250361e+01 4.684817980796394110e+00 2.862146154531659548e+01
-1.942465216740810874e+01 5.771877714255302827e+00 2.783314376457268224e+01
-1.830205069472080126e+01 3.649251708162623231e+00 3.211121379563415701e+01
-1.659714553814909266e+01 5.881995314733843294e-01 3.386791758819565956e+01
-1.414478666872320289e+01 1.175992656775740208e+01 2.097708761297057478e+01
-1.528313109859760566e+01 1.133488484900562909e+01 2.132233026626405703e+01
-1.351064091357182129e+01 1.216015497651910948e+01 2.107093332312958367e+01
-1.854078050953119572e+01 8.464183602252575156e+00 2.351360147391067557e+01
-1.577209822302517139e+01 1.094570410075660050e+01 2.134082499854835291e+01
-1.818700546388054562e+01 9.444018395436891922e+00 2.321067991903149519e+01
-1.933862080437114628e+01 7.083363030092824530e+00 2.620616107419203544e+01
-1.909262889974340283e+01 7.489445916636452871e+00 2.479642822369066835e+01
-1.791700877852626661e+01 9.914364456651748370e+00 2.288330893862254101e+01
-1.930715241409876626e+01 4.545872763326468835e+00 2.938614104943748373e+01
-1.944493120246074014e+01 6.472140282079207552e+00 2.740832005107841240e+01
-1.911337499603149581e+01 4.514328757047660012e+00 3.020323742952397339e+01
-1.855811887110871794e+01 4.384477104142574966e+00 3.184958881684937637e+01
-1.794067776275167247e+01 3.550273598756215510e+00 3.293106893537380131e+01
-1.696018301494914482e+01 1.333829150529139973e+00 3.364226965809608316e+01
-1.732267368409499397e+01 2.075535720859527089e+00 3.341695215199582236e+01
-1.212922562789740333e+01 1.244079062266030533e+01 2.095794939578267702e+01
-1.516607018316379119e+01 1.180503290108998016e+01 2.155477233404353754e+01
-1.455587665448129897e+01 1.211052894664627466e+01 2.141845180722178554e+01
-1.893200703480333402e+01 8.044728941455984383e+00 2.451749011010493362e+01
-1.877137830274651975e+01 8.600024648164511731e+00 2.423895218540182839e+01
-1.891955997079987029e+01 4.483818140200066971e+00 3.102779709390233620e+01
-1.944316852419830965e+01 6.940594432065542385e+00 2.681001158931870876e+01
-1.925485446825496183e+01 7.770470212739057914e+00 2.581456119220258927e+01
-1.737615080639991660e+01 1.052976919325445238e+01 2.250332876713962094e+01
-1.939574904913871478e+01 5.214525460583635308e+00 2.912574370124631429e+01
-1.920200103876225839e+01 5.183094291203961035e+00 2.994278718302010844e+01
-1.948436514386286689e+01 5.883307986818866020e+00 2.886525649439931129e+01
-1.768483460760533532e+01 2.815776562499999969e+00 3.319182455948006094e+01
-1.819666294568877518e+01 4.285133979342116817e+00 3.266993379477683135e+01
-1.287671504524642074e+01 1.255911656813583299e+01 2.116469638051620095e+01
-1.154776352307902876e+01 1.268272344797108531e+01 2.103275548613398627e+01
-1.577627632255623702e+01 1.149942470302927156e+01 2.169103014947680919e+01
-1.414472497711396493e+01 1.226572562902280872e+01 2.132175239332415018e+01
-1.861054173942344647e+01 9.156022961166350171e+00 2.396041597771440834e+01
-1.703487481491979594e+01 1.081028340124079712e+01 2.221367238885834183e+01
-1.896289514166467782e+01 8.769912465181580075e+00 2.502434591761844729e+01
-1.716290085202385285e+01 2.685642970494923620e+00 3.401116003175341262e+01
-1.680042026249086717e+01 1.945198138591821779e+00 3.423657837676186944e+01
-1.881435965251297660e+01 5.120122764026723949e+00 3.158711549595989254e+01
-1.643768363787943798e+01 1.204354193892037239e+00 3.446222833692034726e+01
-1.795054614387164094e+01 1.063218367921450636e+01 2.333134914671837734e+01
-1.929073025240317563e+01 5.851947072610171219e+00 2.968191340831021918e+01
-1.845285986394706512e+01 5.020549610617685232e+00 3.240825325475895369e+01
-1.756888796650502016e+01 3.475446164428776186e+00 3.376080533724372401e+01
-1.662614792135117270e+01 1.144157425098683767e+01 2.228126306664328737e+01
-1.912352494179340923e+01 8.214626614903696833e+00 2.530309735287901773e+01
-1.817034289700192318e+01 1.014060486148387952e+01 2.354065007782975982e+01
-1.839042449018548808e+01 9.648360799793033848e+00 2.375040148555508779e+01
-1.900818636968114816e+01 5.151418857722280364e+00 3.076398746562979269e+01
-1.782473690855920978e+01 4.210479877499770929e+00 3.350048193965138665e+01
-1.808078008203749931e+01 4.945158585377887661e+00 3.323939562596461172e+01
-1.954731707401942131e+01 7.515649382781641741e+00 2.818854465923813990e+01
-1.627783871815222128e+01 1.814898201206412764e+00 3.505653780114898410e+01
-1.941706835565122446e+01 8.051297309186884021e+00 2.683240031170365825e+01
-1.951122255525401528e+01 7.636319945785935204e+00 2.733012188429976774e+01
-1.951556763524748561e+01 6.699518397386420965e+00 2.852685170086065014e+01
-1.224287712568432696e+01 1.296114911929135971e+01 2.125839515379231059e+01
-1.578047233607751920e+01 1.205364057398411148e+01 2.204159538674814200e+01
-1.496696367056425458e+01 1.246093022891740532e+01 2.185980520119420234e+01
-1.351069759990674335e+01 1.300314179766659528e+01 2.164528902869446725e+01
-1.627861475037233774e+01 1.179943735289154816e+01 2.224945320467842791e+01
-1.876208521524277018e+01 9.464828818948692657e+00 2.467689283683622392e+01
-1.859804932049486936e+01 9.884492717805708040e+00 2.445684966812684991e+01
-1.928008994253755759e+01 8.781727697449033698e+00 2.642554361464850388e+01
-1.704672035600390956e+01 3.345657909751774017e+00 3.458047542344361602e+01
-1.890299618224978673e+01 5.788513120399007228e+00 3.132468538184604512e+01
-1.909684606102658222e+01 5.820328441177666789e+00 3.049943650789170491e+01
-1.664067579603946001e+01 2.555606325447341121e+00 3.483065857559419953e+01
-1.591521099403874651e+01 1.073913367636490923e+00 3.528192203804594129e+01
-1.750312305099197019e+01 1.129913000047810279e+01 2.312901819513092505e+01
-1.949038044294304939e+01 6.550958035923605927e+00 2.942934046774548662e+01
-1.414467011297790577e+01 1.277158622468712146e+01 2.166648263509061323e+01
-1.915441038294437348e+01 8.939603563538959463e+00 2.580983745752449465e+01
-1.903395670232086090e+01 9.356389746837390220e+00 2.560116543648170762e+01
-1.835050015570359605e+01 1.043796544221059897e+01 2.422083081293448004e+01
-1.770891164346322100e+01 4.870095277281840218e+00 3.406912347711624989e+01
-1.745279798985513509e+01 4.135826766726637516e+00 3.433025185271132074e+01
-1.870918454968718692e+01 5.756531011652814556e+00 3.214596013225560256e+01
-1.833675047325155205e+01 5.680668761537567057e+00 3.297864863242129019e+01
-1.951883045221330804e+01 7.282633631944492869e+00 2.912650312815474862e+01
-1.611800441812464868e+01 2.425442006691915786e+00 3.565067066502019344e+01
-1.575565447605399960e+01 1.684701115692442741e+00 3.587571413758047356e+01
-1.704526873795624553e+01 1.138802392415658638e+01 2.257003242261518849e+01
-1.810294633741217396e+01 1.099143791506141987e+01 2.398505903555137309e+01
-1.929662166654651401e+01 6.519958461949419082e+00 3.024679841498743116e+01
-1.910277184507569004e+01 6.488274121861228316e+00 3.106969405462730549e+01
-1.578467435508719419e+01 1.260717535533831146e+01 2.239177518940772771e+01
-1.705535537245782152e+01 1.196607914398251005e+01 2.292667453826099333e+01
-1.891350093563476165e+01 9.773175612257654521e+00 2.539277013249896342e+01
-1.796487929181531484e+01 5.605181886895024945e+00 3.380859844124384495e+01
-1.693070400712644030e+01 4.005002876552112845e+00 3.514900397681204680e+01
-1.890888074146977615e+01 6.456282964856747242e+00 3.189314467141037923e+01
-1.864464895286448609e+01 6.448478909482005861e+00 3.270353916337683842e+01
-1.957927091444996393e+01 8.331980167824923456e+00 2.785023789062499944e+01
-1.954024215440609424e+01 7.888397246840649579e+00 2.899440883494530752e+01
-1.956158940676224489e+01 8.388397642555410982e+00 2.866832358191242491e+01
-1.790690266754177173e+01 1.135637983586195077e+01 2.381836893538569910e+01
-1.949701641190870660e+01 7.219696806040601267e+00 2.999416439233123555e+01
-1.952117819673289034e+01 7.832232975833112398e+00 2.974028484536210470e+01
-1.663297137846220863e+01 1.236466905919384374e+01 2.286522039299669018e+01
-1.537806206498227724e+01 1.281118640444428891e+01 2.230116735120660820e+01
-1.468555282348683022e+01 1.320868734552610313e+01 2.223088495377466955e+01
-1.414461964554220152e+01 1.327701236888601244e+01 2.201093948108757559e+01
-1.918528657835009454e+01 9.664450769149537379e+00 2.631668701085005679e+01
-1.858554888767386970e+01 1.061284931434352963e+01 2.495359487848596558e+01
-1.881899987732767698e+01 1.071098176748217234e+01 2.577925392481016331e+01
-1.906483261505854188e+01 1.008124419642718195e+01 2.610825756437766643e+01
-1.825539602752424528e+01 1.135065107759806047e+01 2.463900850256915476e+01
-1.945823242112103202e+01 9.017726823311765116e+00 2.750961829193102304e+01
-1.733690229035113717e+01 4.795020363843901734e+00 3.489855372626090002e+01
-1.759306988804380723e+01 5.529711676135229403e+00 3.463761549512478410e+01
-1.722099350702562859e+01 5.454190023837564461e+00 3.546674302351217989e+01
-1.652447771981979940e+01 3.214972087585762583e+00 3.539947220311017873e+01
-1.954388490142346768e+01 8.444435518668136353e+00 2.948640793735084742e+01
-1.953101977558304014e+01 8.977536512693172099e+00 2.840374850731431877e+01
-1.930317027506973915e+01 7.188160711469149255e+00 3.081288683359381153e+01
-1.559611564614858814e+01 2.295462600000000464e+00 3.646932948937413244e+01
-1.523997544227747980e+01 9.225271939897471407e-01 3.607524317267377256e+01
-1.621108615015123178e+01 1.276275787731091427e+01 2.280378288560800115e+01
-1.899773838412840021e+01 1.094891331320106964e+01 2.653153810408478464e+01
-1.933719322353723769e+01 9.703469280314532597e+00 2.716899830585327891e+01
-1.827240942420726810e+01 6.371774466083548916e+00 3.353442754666618697e+01
-1.752837353205093507e+01 6.220881927920149046e+00 3.519292756802996536e+01
-1.681466982521610731e+01 4.664346780295625550e+00 3.571745382925974610e+01
-1.640826159685176577e+01 3.874337241661482079e+00 3.596821726799174712e+01
-1.910928755477865337e+01 7.156392031913072493e+00 3.163946199054977626e+01
-1.951820093196124617e+01 8.982746547083653610e+00 2.911766313054579314e+01
-1.950344031879911100e+01 7.888375249541411449e+00 3.055888109874586078e+01
-1.930948247066109502e+01 7.856170329004260822e+00 3.138480702981994597e+01
-1.600203143175442833e+01 3.084617665152276089e+00 3.621887016268352255e+01
-1.757115877733178522e+01 1.185689101711214022e+01 2.366686351435753366e+01
-1.698943856109887207e+01 1.266816063960799532e+01 2.338489822479322910e+01
-1.857304345263664658e+01 1.134092487769559199e+01 2.545050323915695856e+01
-1.921615341664680798e+01 1.038920809600396744e+01 2.682370149682860472e+01
-1.790043928506680970e+01 6.296529767828898727e+00 3.436394790444112601e+01
-1.665220150764086782e+01 5.309187551763837831e+00 3.625321638483573849e+01
-1.884459502097660177e+01 7.148398388295822414e+00 3.245143699209486243e+01
-1.858018097794347057e+01 7.140102211330286330e+00 3.325977488984883479e+01
-1.952615526123593170e+01 8.500419312558623375e+00 3.030467556258428630e+01
-1.948275039556198962e+01 9.622964436311754355e+00 2.895725544558272802e+01
-1.939666703704305917e+01 9.784182287560014402e+00 2.810999635050091428e+01
-1.950839692709959650e+01 8.556376171927306373e+00 3.112873899107426823e+01
-1.508059001579272795e+01 1.533501079258631439e+00 3.666879230431848669e+01
-1.786294487196698455e+01 1.208082272332872797e+01 2.430578601844634079e+01
-1.723514751257770783e+01 1.235740215564271338e+01 2.351535347621639005e+01
-1.578888991337084491e+01 1.316108914718627787e+01 2.274224003630022040e+01
-1.524013289520704717e+01 1.353726431775401018e+01 2.272822907211929788e+01
-1.877932232619996711e+01 1.150862517692792863e+01 2.623988179654381270e+01
-1.925866298214821626e+01 1.052050638969950569e+01 2.763376360682165966e+01
-1.706490257240924535e+01 6.122304553116744152e+00 3.598047485735684603e+01
-1.624597713411916544e+01 4.519303027860768651e+00 3.650373842181816997e+01
-1.904532955601630562e+01 7.848681916158740002e+00 3.219915250326724276e+01
-1.584001598157496460e+01 3.730047414283588214e+00 3.675417114105407990e+01
-1.543409633517502577e+01 2.940099155952911048e+00 3.700425241048117897e+01
-1.820809331763779682e+01 7.062880763922326999e+00 3.408966568571077715e+01
-1.948371480283438117e+01 9.354248511166870728e+00 2.981702475412772202e+01
-1.504891768395457774e+01 2.163633060071448622e+00 3.706672165404998509e+01
-1.612343888207519882e+01 1.369988990790315242e+01 2.341539989797715293e+01
-1.692347294550384262e+01 1.337086989154149030e+01 2.384373031273128518e+01
-1.741499063145773007e+01 1.274849854092480861e+01 2.410417589853770792e+01
-1.840796450657428096e+01 1.171003337694023472e+01 2.529350151912734646e+01
-1.811338527975672363e+01 1.225785675938573505e+01 2.504360955879305450e+01
-1.915103014341596221e+01 1.102925031562845071e+01 2.736749345484556173e+01
-1.890514710857193492e+01 1.165937565037978274e+01 2.703994107411787340e+01
-1.856041906919748996e+01 1.206931522907028231e+01 2.594800585848170726e+01
-1.783601857201915664e+01 6.987966350999321286e+00 3.491897684822038173e+01
-1.738500037610535287e+01 7.007571714016735953e+00 3.572612151883411258e+01
-1.878032993068020318e+01 7.840703944574634043e+00 3.300866785012586035e+01
-1.567772387536139256e+01 4.374740509443928005e+00 3.728930031384676624e+01
-1.527178183828330660e+01 3.585758142633228118e+00 3.753983473096928947e+01
-1.939181598801190631e+01 1.019201994500857111e+01 2.880130799045345924e+01
-1.930115844964182159e+01 1.065172543408139560e+01 2.844391918640586780e+01
-1.946763669607209124e+01 9.342477264410874227e+00 3.077700652340037735e+01
-1.924468374772982315e+01 8.548756856484784450e+00 3.194627985796193670e+01
-1.469216662136328999e+01 1.391283393837054660e+01 2.271417682595261667e+01
-1.781870488092107863e+01 1.280567877433369084e+01 2.479367914634595493e+01
-1.649633743423422771e+01 5.976830463691499062e+00 3.676600229256927577e+01
-1.608365657728130316e+01 5.164262028631622314e+00 3.703905102682320916e+01
-1.851564767912960718e+01 7.833045282658389397e+00 3.381632734956303210e+01
-1.488647036860235140e+01 2.808716703258390623e+00 3.760221808441352920e+01
-1.943446408277927517e+01 1.026831121193841945e+01 2.951191685471071224e+01
-1.942688769787923420e+01 1.012834768654348316e+01 3.042308897853985528e+01
-1.936488082542784994e+01 9.229278144552836238e+00 3.166576218278966337e+01
-1.523717537992503956e+01 1.398468060896659004e+01 2.307691307484842369e+01
-1.573164461255019475e+01 1.366661880551871633e+01 2.310597625972308578e+01
-1.829850411408155608e+01 1.255605237991185597e+01 2.572588543720136656e+01
-1.919480264716743179e+01 1.110690951625305978e+01 2.808033880064747478e+01
-1.908552204812645314e+01 1.166919436886067096e+01 2.791280406105007117e+01
-1.814371594980513791e+01 7.755048228253986764e+00 3.464512322902223218e+01
-1.690895801905923079e+01 6.789692554508797606e+00 3.649321331367008270e+01
-1.777287213471003824e+01 7.675088273172506526e+00 3.527467607319941578e+01
-1.898105509643041700e+01 8.540937598721221491e+00 3.275721922445570300e+01
-1.510968267086860983e+01 4.230398467598723400e+00 3.807780240017070383e+01
