-3.577552235955517190e+00 -1.537712487062884659e+00 1.871713676560177575e+01
-3.408955894835589806e+00 -2.247261285401314534e+00 1.870526631563046038e+01
-8.788792051884865231e+00 -6.563159477176697010e+00 2.524453581852464978e+01
-9.305714592396666873e+00 -5.926521098766412976e+00 2.593262862009088821e+01
-7.980143569447574414e+00 -7.093250388669798845e+00 2.397869665410856044e+01
-1.007713177074172251e+01 -4.714334034485919922e+00 2.665689071023411572e+01
-6.690524574597888297e+00 -7.413245575170559043e+00 2.126484275637079691e+01
-6.008625587003175283e+00 -7.163307788732439896e+00 2.038439345709708661e+01
-7.159806604065043878e+00 -7.583999617383310188e+00 2.254945325008011281e+01
-5.500197379073845205e+00 -6.329300468442048633e+00 1.968906440084233012e+01
-3.260941939679261825e+00 -2.973778931826267513e+00 1.876386283280841738e+01
-3.305669746572303946e+00 -4.302192297974405832e+00 1.901610897383847387e+01
-8.140849413138399271e+00 -7.067475724930882386e+00 2.458682080069879561e+01
-1.035708703805153519e+01 -3.929804715401785220e+00 2.719923236213395512e+01
-1.060661375276617591e+01 -3.357697795676862551e+00 2.711840035646801184e+01
-6.684692314894635778e+00 -7.998148898005658758e+00 2.230038382221264470e+01
-7.421124572269330422e+00 -7.634057361278593135e+00 2.332304454081250711e+01
-5.565190974079546216e+00 -6.810819218826045685e+00 2.000132524824941527e+01
-3.445950001192189749e+00 -5.182745891033335717e+00 1.917710400680826055e+01
-3.899254459978255483e+00 -5.787378148444573434e+00 1.941235357765432923e+01
-2.924123284673188827e+00 -1.863238679261123742e+00 1.868998852580417491e+01
-9.775460743481346526e+00 -5.285087896681806896e+00 2.665961088106670829e+01
-8.937460396799847828e+00 -6.319802549563518390e+00 2.584634066102704963e+01
-8.345085527659835023e+00 -7.058274017721569926e+00 2.519371334312134536e+01
-1.005590794429619983e+01 -4.500445458896087381e+00 2.720198794720662505e+01
-6.302664984009478388e+00 -7.741231017195533859e+00 2.111774847537363797e+01
-5.702715272399410118e+00 -7.775457571111690669e+00 2.062597837132123857e+01
-6.413270494601531091e+00 -8.086370653719489709e+00 2.180773847155771961e+01
-4.750654903425722608e+00 -6.598066113896990714e+00 1.973304013024800341e+01
-3.109636629551896458e+00 -4.859254244124922906e+00 1.911465160336906877e+01
-2.776114231004303434e+00 -2.589757032070196363e+00 1.874858900871361200e+01
-8.430628493962988301e+00 -6.875407451418840132e+00 2.585978686788721959e+01
-9.379109990312004541e+00 -5.784497462462693917e+00 2.656979081615066107e+01
-7.580606540907131929e+00 -7.606292202243364997e+00 2.392748019315343200e+01
-1.038003460989074433e+01 -3.584317830050285369e+00 2.771859305206038471e+01
-9.754114472963928861e+00 -5.071814082379195732e+00 2.720480721299134785e+01
-5.634072780565697158e+00 -7.292774676831787595e+00 2.031360344674034835e+01
-6.862200801321071353e+00 -8.031270056501034205e+00 2.281592318564586463e+01
-2.650456621931756462e+00 -3.980567124392246914e+00 1.893333168009623435e+01
-2.628087351635937097e+00 -3.316340990666644561e+00 1.880719053088733617e+01
-4.261343901560967318e+00 -6.271018502557044627e+00 1.960047491418789534e+01
-2.913599854963567992e+00 -5.416357910381065288e+00 1.921320778069460999e+01
-3.044226631855624809e+00 -1.115248388063676543e+00 1.870033504596923279e+01
-9.010869089245147734e+00 -6.177734762895373599e+00 2.648352981213595569e+01
-7.740863203176964191e+00 -7.578603886873747086e+00 2.453629211266031618e+01
-1.012850506495188263e+01 -4.254869393664118427e+00 2.782663292688835455e+01
-6.476022021308348364e+00 -8.461700223410144162e+00 2.282481710828426458e+01
-7.039704535170224098e+00 -8.064391601015024946e+00 2.333163158976146789e+01
-5.269602717561487459e+00 -6.794829669996380161e+00 1.992945113516251254e+01
-2.792301271474979973e+00 -4.458069783541877662e+00 1.902824425219317561e+01
-3.276432046827956857e+00 -5.900298342269482355e+00 1.940147850920361350e+01
-2.320729600928825409e+00 -2.060365279603743716e+00 1.872160576337999416e+01
-2.439025435017679655e+00 -1.479015086608991503e+00 1.867471461204574368e+01
-9.452565593138100297e+00 -5.642429255829944701e+00 2.720767402389855505e+01
-8.642638323080646501e+00 -6.570981478635873785e+00 2.639726874616512120e+01
-7.901535685410599363e+00 -7.553642569254145123e+00 2.514312942463032385e+01
-7.939297429308370013e+00 -7.433202550500177530e+00 2.573213535037841737e+01
-9.827188585810752386e+00 -4.825624100322927212e+00 2.782961854613522235e+01
-6.117694467819706716e+00 -8.189806031984169010e+00 2.147944791013373589e+01
-5.817924115640416005e+00 -8.210548407789094227e+00 2.123320326170173189e+01
-6.099886035987157840e+00 -8.782207229885264255e+00 2.259528892006783352e+01
-7.197907302177427802e+00 -7.939770121103596701e+00 2.377663038724256239e+01
-4.000967918396336032e+00 -6.866823408231442549e+00 1.977744667373734799e+01
-5.038915877064764182e+00 -7.260548224337168399e+00 2.016994622945088267e+01
-3.638768713260059240e+00 -6.383627498933374333e+00 1.958949630241449924e+01
-2.396532859197223697e+00 -4.944776190344302158e+00 1.910679635004580135e+01
-2.172736836632002788e+00 -2.786941998385856767e+00 1.878021093935372932e+01
-2.559237934512437640e+00 -7.310307344022685117e-01 1.868506924885918963e+01
-1.015152137909180219e+01 -3.909169679513864182e+00 2.834574972032498508e+01
-5.421756693935093629e+00 -8.272592784639352104e+00 2.105271624859406288e+01
-5.932674114660807518e+00 -8.638432054360137613e+00 2.184118134394226018e+01
-6.653601177404289579e+00 -8.494957418187460974e+00 2.334062557145393768e+01
-1.995184549720101508e+00 -3.658942910517071212e+00 1.885053882321246377e+01
-1.879375506886869829e+00 -4.473150973343951620e+00 1.900035575071766303e+01
-2.749753710610751689e+00 -5.945078560207404550e+00 1.947199406496416429e+01
-2.383705946914344231e+00 -5.635346816719780882e+00 1.933951092576478104e+01
-3.112422423238697000e+00 -6.428473852801527499e+00 1.965999851610067850e+01
-1.717296832418030439e+00 -2.257516429609423891e+00 1.875324157520490331e+01
-3.164278460301803264e+00 -3.673047311161128370e-01 1.871068173161683390e+01
-8.985866581853528601e+00 -6.119569398093399393e+00 2.730489489815355597e+01
-8.292392331701355701e+00 -6.950251472762834837e+00 2.644140817822240308e+01
-8.756677901761912963e+00 -6.402416909712383308e+00 2.687968387237452106e+01
-7.357392081502874603e+00 -7.911983950152733591e+00 2.438246102134570137e+01
-7.977141129018328947e+00 -7.313011904133841057e+00 2.632137813572624196e+01
-1.040429855577426466e+01 -3.239402600624499584e+00 2.823161581799794817e+01
-9.525872949293702874e+00 -5.396076737826856373e+00 2.783266222932625311e+01
-5.133813911508631200e+00 -7.983901085983903023e+00 2.063844888666088906e+01
-6.815868955531320772e+00 -8.370217763177084436e+00 2.378554085935162021e+01
-4.193163521382072823e+00 -7.308962820660065418e+00 2.006896772209910296e+01
-3.420937172083955868e+00 -7.087664195460490646e+00 1.993397203181753952e+01
-1.751981138618577738e+00 -5.146287034633896695e+00 1.923867397447035188e+01
-1.835638336190052788e+00 -1.676201637581185455e+00 1.870635101054104510e+01
-2.614280067574232369e+00 -2.662128060563389020e-01 1.872299331565524128e+01
-1.953985826526988712e+00 -1.094847780627193679e+00 1.865945466694716259e+01
-8.347808784698974804e+00 -6.822193121817141659e+00 2.694823460608000687e+01
-7.442891494212622305e+00 -7.987485693613668225e+00 2.514288331860160142e+01
-7.552139101631214047e+00 -7.766964057830123558e+00 2.575117992953496326e+01
-9.900049076025087658e+00 -4.579561022892027822e+00 2.845363301121569322e+01
-9.144208724042883318e+00 -5.856830976147477941e+00 2.780717852140112356e+01
-9.598869901718737552e+00 -5.149914649452519200e+00 2.845689481179401525e+01
-4.807920230844704435e+00 -7.726899925787242829e+00 2.041078146422880479e+01
-5.639883682881404958e+00 -9.030270222422995374e+00 2.238496004616542834e+01
-6.266947104374420263e+00 -8.926038671875000219e+00 2.335003568693612408e+01
-6.974712465456192945e+00 -8.245478652215920690e+00 2.422964718575308751e+01
-1.598953541698391767e+00 -2.838832185065169877e+00 1.880012968164820109e+01
-3.784853683892697163e+00 -7.377865827757791095e+00 2.010438263393843883e+01
-2.586073801871359823e+00 -6.473328975340169933e+00 1.973053016971040918e+01
-2.968881231701545165e+00 1.190513394370180666e-01 1.875218458822018164e+01
-2.072107799324212074e+00 -5.101967211007930603e-01 1.870681372371478801e+01
-7.649204065952028841e+00 -7.564480700391830403e+00 2.654650505648148595e+01
-5.140419005180035583e+00 -8.770562753255159549e+00 2.147992331585082226e+01
-4.577116730876794826e+00 -8.192877708348675014e+00 2.065143918654576893e+01
-5.396777191479424474e+00 -8.952753624586545556e+00 2.187377377134453482e+01
-6.354694628691095026e+00 -8.903189311410880435e+00 2.394562765491817302e+01
-1.007929391120109486e+00 -2.533899533745187060e+00 1.883059995366533812e+01
-1.362238751952877580e+00 -4.001583474132496043e+00 1.889390835798091572e+01
-2.896166742413466721e+00 -6.861725326652391210e+00 1.987979090180924047e+01
-1.220411619078559218e+00 -4.573689359323607206e+00 1.909981364065010823e+01
-2.272295489179853245e+00 -6.109282683850170592e+00 1.957000515717987810e+01
-1.854048801248465717e+00 -5.854276180399573093e+00 1.946574888896036626e+01
-1.436108746132952252e+00 -1.469991164922624494e+00 1.872695774172677829e+01
-8.519322263520635374e+00 -6.596587426160559708e+00 2.740209048384060608e+01
-8.677550945623419665e+00 -6.333942737000792356e+00 2.790447185730968727e+01
-8.015024177216879764e+00 -7.193129067617708650e+00 2.691030227192553070e+01
-7.117334406235379163e+00 -8.210921469072159695e+00 2.472591035718998498e+01
-9.217425533028835716e+00 -5.610696206453203772e+00 2.843181241745338284e+01
-4.385220381900256648e+00 -7.750985200991369339e+00 2.036030890514104996e+01
-5.347032734210616312e+00 -9.422188609113302249e+00 2.292879200034315801e+01
-6.661628670335135283e+00 -8.596667846149413705e+00 2.422347172537244830e+01
-9.181835877313231364e-01 -1.845162093942939840e+00 1.879443477585975231e+01
-1.480600923522076062e+00 -3.420187313965572518e+00 1.884701852096595331e+01
-2.839441178290256218e+00 -7.309095413914145745e+00 2.009094102399127024e+01
-2.422477730957380615e+00 -7.001370803043617030e+00 1.998894485533470444e+01
-1.328399704163784278e+00 -7.986719021738362123e-01 1.874291000044040700e+01
-7.036591197496579575e+00 -8.254683752729695456e+00 2.574937755975076570e+01
-7.203048600454389216e+00 -7.980157569815998109e+00 2.635876652391121056e+01
-6.984935357513346155e+00 -8.421910984707961845e+00 2.514081449650743139e+01
-8.835774509316172143e+00 -6.071296252079982025e+00 2.840685529945357501e+01
-4.716291786953070719e+00 -8.729328009269003985e+00 2.127881605177334379e+01
-3.965124340663995106e+00 -8.295705449843330470e+00 2.070425235764855287e+01
-4.228178568743834020e+00 -8.620054164941956643e+00 2.107645915692377514e+01
-5.660485855309323355e+00 -9.370241148207915316e+00 2.341079230436737646e+01
-4.924646874738601632e+00 -9.449589158333589367e+00 2.242883158999146787e+01
-5.989409886779075265e+00 -9.172500576494972080e+00 2.381929519621669300e+01
-9.811276912417182805e-01 -3.162522879142264376e+00 1.887276807761201169e+01
-3.568920859199018469e+00 -7.888522642990118960e+00 2.043104930293446486e+01
-3.262132968508962616e+00 -7.545645441262061937e+00 2.022587973156826280e+01
-1.078425417655696217e+00 -5.146509805882174327e+00 1.930595661816422748e+01
-1.413816056265428722e+00 -5.559795429470778316e+00 1.941099696949892106e+01
-1.924062560251864173e+00 -6.496229921904143723e+00 1.976881437781914030e+01
-8.052962398699946789e+00 -7.073442816441872338e+00 2.749925441559233974e+01
-7.383808006549296366e+00 -7.729398429742388110e+00 2.698955769757636247e+01
-4.859033308627783043e+00 -9.267355468749999048e+00 2.190708343180704532e+01
-6.442453759535060165e+00 -8.880308600603964209e+00 2.454125702178475166e+01
-6.751406991085396214e+00 -8.551367135251213725e+00 2.468413494313410084e+01
-4.001963397579199611e-01 -2.220374212787985080e+00 1.886188597239517861e+01
-7.479218681131185598e-01 -1.144191103210696170e+00 1.881873013126375227e+01
-8.627469685424814516e-01 -3.743921938330083687e+00 1.891965367455889790e+01
-7.292118367833866355e-01 -4.365087049843046074e+00 1.905837823502094963e+01
-1.323902361385395743e+00 -6.073446131005017179e+00 1.959209382625149587e+01
-8.108227593337961281e+00 -6.882484101268705246e+00 2.820143067806894166e+01
-8.467226476349345887e+00 -6.465009062543379592e+00 2.839405950641693011e+01
-7.536889456922395425e+00 -7.517534129112992680e+00 2.752364240412081386e+01
-3.353271605662071941e+00 -8.398556312219657372e+00 2.075729654670903201e+01
-3.441957904243614141e+00 -8.936120056482643292e+00 2.134166091711671598e+01
-4.989593030080986757e+00 -9.631801824313324545e+00 2.295051935491636996e+01
-5.054119234372073777e+00 -9.814189137666934570e+00 2.347267156398376642e+01
-6.077747770384516635e+00 -9.143554079655997313e+00 2.433866176275968840e+01
-4.316609608479317073e-01 -2.879077534966282048e+00 1.890105767807592940e+01
-2.806151018274962716e+00 -7.964538367218126247e+00 2.050261861899498683e+01
-9.364675088102210054e-01 -5.719290346345745846e+00 1.951206582209377771e+01
-1.770140256771745912e+00 -7.117220980075340542e+00 2.007111581601311912e+01
-2.258630154730203898e+00 -7.530294393026582433e+00 2.024777211974906876e+01
-6.516095785905450910e+00 -8.630267564494056742e+00 2.635513118786919406e+01
-6.854190858201135050e+00 -8.193262355366933036e+00 2.696487777855498180e+01
-6.521881892329280284e+00 -8.742889558727355848e+00 2.574755912326321905e+01
-3.879388683618559153e+00 -9.047268950099462970e+00 2.150128400395955808e+01
-4.193069554824503165e+00 -9.371402963643813422e+00 2.191638007650271192e+01
-4.457648858126720626e+00 -9.606533089484766919e+00 2.245045325322324103e+01
-5.712080219773791434e+00 -9.418754472018486368e+00 2.428800856555232457e+01
-6.528011840928298781e+00 -8.857408203125000767e+00 2.513936818981407129e+01
-1.231063417431488838e-01 -1.571356793960938525e+00 1.890015350498384805e+01
-3.632145989187051116e-01 -3.486260774324259959e+00 1.894536915584907177e+01
-5.160234872477525991e-01 -5.224144373321093049e+00 1.936752275446337634e+01
-1.282225316063261067e+00 -6.704699098900675835e+00 1.989466437349970107e+01
-8.163479300561620633e+00 -6.691511207108251647e+00 2.890364491565016181e+01
-7.667473520916556318e+00 -7.292135102761403864e+00 2.808668643572905310e+01
-7.020794037798931519e+00 -7.962010736245566100e+00 2.754834389062399325e+01
-2.527383311168788449e+00 -8.347436492232580107e+00 2.090028139594253886e+01
-5.088706568724457924e+00 -9.846645077252414779e+00 2.405714166933520559e+01
-5.892301990993307648e+00 -9.313780571911289385e+00 2.472719811267046808e+01
1.178539770002328263e-01 -2.595631506443019543e+00 1.892930957460009367e+01
-9.600658531962652509e-02 -4.728752772563495022e+00 1.922283654972142841e+01
-7.944551278791212034e-01 -6.292367142697071536e+00 1.971826230321257611e+01
-1.165825413657912923e+00 -7.255719511569863833e+00 2.031171561337191278e+01
-7.722588165325899645e+00 -7.101250602853481197e+00 2.878906024986340384e+01
-7.220830421195091553e+00 -7.683253505200401179e+00 2.807388222160484048e+01
-6.510557139383451819e+00 -8.518211448459457102e+00 2.696275217937604651e+01
-2.892362560412599315e+00 -8.636867311650400225e+00 2.107006980704829857e+01
-3.530575963664130512e+00 -9.474752824265609163e+00 2.192612036370622164e+01
-4.056185492244108737e+00 -9.945763285458014025e+00 2.299382663507054758e+01
-4.355230358840270100e+00 -1.004932874921605013e+01 2.350429008731541103e+01
-6.072455503068692195e+00 -9.208806605287257696e+00 2.516603558481015313e+01
1.424601960258672362e-01 -2.061012071413388380e+00 1.893394610829659896e+01
1.358507170541929099e-01 -3.228599953383997967e+00 1.897105311584627430e+01
1.038846241890762218e-01 -3.935648626448797760e+00 1.910127950864015034e+01
-2.162373703256259994e+00 -8.058022582684950308e+00 2.073048525625415550e+01
-1.761550064195541943e+00 -7.687123572885498746e+00 2.047606182732609525e+01
-3.501493487086785872e-01 -5.892606324029659781e+00 1.960804868792717670e+01
-5.856945418703089601e+00 -9.123504212392930413e+00 2.610315368294398652e+01
-6.015363420530044358e+00 -8.886134355371881455e+00 2.677352110226337700e+01
-6.505201721370799994e+00 -8.406496554097916629e+00 2.757116918342501677e+01
-6.192150565527643202e+00 -8.990575628494358540e+00 2.562168990504381583e+01
-3.569760416453239493e+00 -9.749210826933031981e+00 2.246373147363159006e+01
-4.703714016956261013e+00 -1.001216851879539149e+01 2.394444096964438273e+01
5.997933679045770461e-01 -1.746500630281991651e+00 1.899528508478507050e+01
-2.750249235513843260e+00 -9.294470416036896054e+00 2.181089192420105149e+01
-2.066123196883511870e+00 -8.585990944675021552e+00 2.121313870754877229e+01
9.424481446358391745e-02 -5.492821730207215758e+00 1.949779812389956035e+01
-2.632147084280445637e-01 -6.413902581447043616e+00 1.991647342901602613e+01
-6.636112871683149672e-01 -6.758681287355164713e+00 2.007883956571304296e+01
-6.829765472669052429e+00 -7.956593873577543441e+00 2.841139789674526384e+01
-5.520832085034306225e+00 -9.256540998864734249e+00 2.658502308238796985e+01
-5.434343650414880322e+00 -9.665346094692976564e+00 2.475719601493008071e+01
-5.614685635538763542e+00 -9.560221884117853008e+00 2.519541200892959054e+01
-5.604483471815227880e+00 -9.387589543537668391e+00 2.585950235691067078e+01
5.835222291490281821e-01 -1.134347211017683987e+00 1.899457230174990130e+01
6.160136263852843408e-01 -2.358698294619590019e+00 1.899599556700183101e+01
6.322589280921193655e-01 -2.970939472398299142e+00 1.899670382184232409e+01
5.682936575331462015e-01 -4.385127591735142438e+00 1.925716598633186649e+01
-2.431432433854081587e+00 -8.875340853165571531e+00 2.138276600494227253e+01
-1.264972111157295798e+00 -7.843877727735232952e+00 2.070404159912453323e+01
-1.334227669631945723e+00 -8.319505840482051440e+00 2.111059316714536749e+01
5.362744252672155820e-01 -5.093228088896634809e+00 1.938756926940370562e+01
-6.506753568305703617e+00 -8.291664569261717688e+00 2.814200559811846247e+01
-5.952438351906228498e+00 -8.777401696123558139e+00 2.756305268636734240e+01
-5.122973019052753152e+00 -9.879106973110850731e+00 2.464151781903537852e+01
-3.655211130713693191e+00 -1.028456367187500220e+01 2.353641969171424009e+01
-3.608560398637924216e+00 -1.001814208003053075e+01 2.300015522055837636e+01
-4.353192803724755144e+00 -1.021015638304183071e+01 2.441611756942280920e+01
6.002832542776523894e-01 -3.677807796886349845e+00 1.912689773223700129e+01
1.206688283887688229e+00 -2.238281772361554456e+00 1.914584856955083225e+01
1.222732330200249962e+00 -2.850601390104003041e+00 1.914646689807978674e+01
2.700430694664526787e-01 -6.034426211425643061e+00 1.983933642613083492e+01
-1.854489893962361635e-01 -6.834683331661499217e+00 2.023331087734079503e+01
-5.328147149064283994e-01 -7.224960481650001043e+00 2.043927167201136541e+01
-8.509422666214306874e-01 -7.580186779310488454e+00 2.061532229104673064e+01
-5.647182706451093104e+00 -9.065463199892315416e+00 2.712815721657743140e+01
-6.119947533648463001e+00 -8.552927781328113710e+00 2.802042426137526121e+01
-3.122653647366127494e+00 -9.669347255338694325e+00 2.230821447728840212e+01
-3.654855219694049584e+00 -1.039186113793527078e+01 2.414429133258294513e+01
-5.156988679513084151e+00 -9.911574458629043960e+00 2.522549316635774019e+01
1.186260871956595242e+00 -1.472642188941709174e+00 1.914496999919937537e+01
1.081633162021789829e+00 -3.459586315115100064e+00 1.922975996572579049e+01
-1.969867114329775681e+00 -9.114315975793251923e+00 2.169579210386019597e+01
-1.403482545341575127e+00 -8.795342663660218108e+00 2.151713847022037740e+01
-7.678344984733678213e-01 -8.000900687557363611e+00 2.093219242639983335e+01
7.995049378842642440e-01 -5.654781580578910116e+00 1.976195133329228071e+01
2.689546021856593638e-01 -6.535715154675309613e+00 2.011493698654608053e+01
-5.079777613592826313e+00 -9.814388743976316221e+00 2.580364222736605484e+01
1.814083389139923064e+00 -2.730152446625595974e+00 1.929628498782974333e+01
1.038064140773266697e+00 -4.080179540668426696e+00 1.933935445449794344e+01
1.167996199900995125e+00 -5.037733392586857484e+00 1.956822085173038772e+01
-8.376907157104249713e-01 -8.476754846098721430e+00 2.133867136153735444e+01
-4.020634219591699976e-01 -7.691223044894578642e+00 2.079956265073436228e+01
-5.400608203000574647e+00 -9.149048415563974856e+00 2.755562491420804605e+01
-5.002558358351308243e+00 -9.717202285169674880e+00 2.638390817223322671e+01
-5.184070607898839000e+00 -9.389706366836394480e+00 2.706736510918021921e+01
-5.419250247814120236e+00 -8.978381805244380232e+00 2.819294259768313182e+01
-2.714927175903966372e+00 -9.864175809479620582e+00 2.268998772910449091e+01
-4.655224309742331812e+00 -1.014315280732065538e+01 2.527009397254908052e+01
-3.069501302179583391e+00 -1.027224252891591760e+01 2.350815485889581424e+01
-4.002328747599381842e+00 -1.040828155312550152e+01 2.488799375347191400e+01
-3.196062178602015802e+00 -1.043095692759828630e+01 2.401224734019687190e+01
-4.759388485605843933e+00 -1.001822570713768634e+01 2.565045723976910352e+01
1.693851468157134166e+00 -1.933598715929939038e+00 1.927047608920218735e+01
1.672827671655501947e+00 -3.339297845259318276e+00 1.937959086961203070e+01
-1.946893440268999020e+00 -9.493471797698267878e+00 2.228167380291531074e+01
1.349759444095105065e+00 -4.493234119955944905e+00 1.951558372952727893e+01
1.531551410624360843e+00 -3.948760042077618770e+00 1.946294305064972363e+01
1.062976261902917052e+00 -6.216982004163027042e+00 2.013660587947196845e+01
1.496896993412641097e-01 -7.143162136303200960e+00 2.052373680149405288e+01
-2.835857606411201992e+00 -1.009476342812143912e+01 2.314985201607120757e+01
-3.653335024556820354e+00 -1.049917452190188527e+01 2.475203472479405065e+01
-4.361531561526891032e+00 -1.012494312568663624e+01 2.607552268135993145e+01
-1.435986377306429640e+00 -9.250522069407427495e+00 2.205331748097482603e+01
-7.685128724123889699e-01 -8.928702322230311239e+00 2.190781319937113381e+01
-2.712536276906467037e-01 -8.157852852614896122e+00 2.115999754239476260e+01
1.431013078264880889e+00 -5.599566648050885220e+00 1.994252863871398063e+01
7.983605842992383961e-01 -6.657406211485215053e+00 2.031298384546151325e+01
2.626834136534875186e-01 -7.698766293215885348e+00 2.094397208559822943e+01
-4.925207734884426536e+00 -9.619859975685750797e+00 2.696659392583282866e+01
-4.847937361160216341e+00 -9.522623066807197389e+00 2.754881755032324619e+01
-1.923826569204657666e+00 -9.873383172083975978e+00 2.286708374920675624e+01
-2.307818765595579524e+00 -1.005703731936028333e+01 2.307103461815635370e+01
-4.153458267735437914e+00 -1.037472796568133582e+01 2.531499998687607444e+01
1.772983899882140113e+00 -1.198784441948174351e+00 1.929457638119037100e+01
2.264297250900664249e+00 -3.219021797255074091e+00 1.952931831782900929e+01
2.109392115839544779e+00 -2.217306910108014062e+00 1.937361586432258775e+01
1.799575518272811259e+00 -4.982325262148549427e+00 1.974860475488427625e+01
1.981652096394506568e+00 -4.438087151401680863e+00 1.969606248298153517e+01
7.968487274699290746e-01 -7.238880738984943441e+00 2.072752479534085879e+01
-4.782805867514236198e+00 -9.425025515847009316e+00 2.811488624135972714e+01
-2.483669533864020451e+00 -1.025992182663858543e+01 2.348001104632330538e+01
-3.650954323899370912e+00 -1.060663906249999933e+01 2.536027900191285411e+01
-2.610308180886912410e+00 -1.041870826355790314e+01 2.398425534033486883e+01
2.181158738975028211e+00 -1.628915044311197491e+00 1.939504528588018673e+01
2.406105646299532719e+00 -2.609631114159874254e+00 1.944609988334362782e+01
-1.208559419819249747e+00 -9.637272417448933481e+00 2.270668280333185507e+01
-9.020186181784578539e-01 -9.387009840733922417e+00 2.241067023979308104e+01
-1.619899109462887288e-01 -8.533052367610027389e+00 2.165131735780963496e+01
2.122976282287051930e+00 -3.828385539017669092e+00 1.961266236930491402e+01
1.326450706658269363e+00 -6.779347608494627586e+00 2.051119602511047191e+01
9.667990187068066232e-01 -7.768656579189441302e+00 2.128140142076366104e+01
-4.444421304006749729e+00 -9.925764499763587878e+00 2.673313338167286446e+01
-1.900638791443626463e+00 -1.024760281114482652e+01 2.345198487945983956e+01
-2.736012746403972962e+00 -1.057749446452835151e+01 2.448838545903376485e+01
-3.039078884232366828e+00 -1.069449994106672008e+01 2.538614398172582654e+01
-3.924925327706618283e+00 -1.035639724013421414e+01 2.596331460073467667e+01
-1.212312804797137433e+00 -1.005202271152000471e+01 2.334293086786767901e+01
-4.326542849866849005e-01 -9.184964332325600722e+00 2.233744620295991368e+01
-5.277616490990361814e-02 -8.908294530836986524e+00 2.214215502349054532e+01
3.265716077115983218e-01 -8.246074871664045958e+00 2.147176660809009618e+01
1.694501338002978752e+00 -6.161953297355754700e+00 2.031712610013159193e+01
-4.288302230196692655e+00 -9.829904375538227157e+00 2.748309454831899146e+01
-4.387059699222702669e+00 -9.638428074958168779e+00 2.797714337918923988e+01
-2.887829039105596518e+00 -1.063599732447253210e+01 2.493733622327053823e+01
-3.245995506377756357e+00 -1.070836128821761157e+01 2.578819234456541665e+01
2.484974033170404439e+00 -9.804064002861475613e-01 1.952454641841226390e+01
2.856309411274869259e+00 -3.098687395899272001e+00 1.967899908900290384e+01
2.714656486355339737e+00 -3.708025368744353401e+00 1.976226493056470446e+01
2.589405356440337425e+00 -2.058941328527984727e+00 1.949540037391597735e+01
2.062866093379736032e+00 -5.544406897788499933e+00 2.012297410001540499e+01
-3.686247342250211778e-01 -9.523677200577084889e+00 2.276738181132458294e+01
4.344297884769628415e-01 -8.621416163504960650e+00 2.196284802836060379e+01
2.431370212993515967e+00 -4.926973894804193677e+00 1.992882167155500284e+01
2.573032680233380720e+00 -4.317360385285643254e+00 1.984552644446554837e+01
1.900938057621426536e+00 -6.805962084117790134e+00 2.076620218983002886e+01
1.520592415727304969e+00 -7.212164804785427208e+00 2.098520682400286219e+01
-3.963635071151315525e+00 -1.023166930802366004e+01 2.650060338548270522e+01
-1.871994063671025499e+00 -1.045519357000438454e+01 2.411477269323318140e+01
2.682672885308377886e+00 -1.561844866575773594e+00 1.955200147505332353e+01
2.998025105698529202e+00 -2.489190836927626105e+00 1.959570662596966173e+01
-5.266237892291816269e-01 -9.856423986134355886e+00 2.323389382457258989e+01
-1.432591811380922397e+00 -1.033510698580373877e+01 2.383378372414098578e+01
5.481840186394427300e-02 -9.284163928700071011e+00 2.263314182256511131e+01
9.197063879375327877e-01 -8.334557085207061178e+00 2.178352215514211920e+01
2.095327177829259480e+00 -7.238913753948874152e+00 2.124005657150882342e+01
1.714807313123025034e+00 -7.645156387311212498e+00 2.145902204177042805e+01
-4.027482632752770186e+00 -1.007229790781665990e+01 2.703340056561445692e+01
-4.715718100233176280e+00 -9.328758088592428166e+00 2.868190955810712239e+01
-3.935458527013037777e+00 -9.901112150485824159e+00 2.787267954258809155e+01
-3.489924332960016251e+00 -1.055278044116103509e+01 2.602487041340717866e+01
-2.276176273392951810e+00 -1.072383125336604515e+01 2.496369414761720407e+01
-2.427631287029161200e+00 -1.078229803023142885e+01 2.541224062545083839e+01
-2.840746129655173036e+00 -1.081011529642469782e+01 2.621607207151788543e+01
3.350845614279615248e+00 -2.962547733148972462e+00 1.985937973729319594e+01
3.064550288900817598e+00 -1.913371149786514236e+00 1.964861238774755847e+01
3.131069133520304693e+00 -1.337677332389987095e+00 1.970154525346734786e+01
5.405273139983263198e-01 -8.997139720710670474e+00 2.245389241162415317e+01
1.373604195913716852e+00 -8.028799175118839671e+00 2.167904716053729430e+01
3.359153536169380061e+00 -4.173013799259037704e+00 2.014928000301873823e+01
3.198113137849552867e+00 -3.484953575169833950e+00 1.991734820372579762e+01
2.440890525600047933e+00 -5.977165067762581607e+00 2.052458459609037789e+01
2.340238176330578845e+00 -6.431520441824988943e+00 2.073855620874908823e+01
-3.925311391412163786e+00 -9.754451288948008170e+00 2.840650718724415569e+01
-3.728105785812036110e+00 -1.013749244059711785e+01 2.741826649529367188e+01
-1.844635125132669140e+00 -1.066267889690517201e+01 2.477695837716479943e+01
3.197590213835349804e+00 -7.620293801478873474e-01 1.975451207521863140e+01
2.730470349129971996e+00 -5.416942572711087145e+00 2.032969842706264174e+01
-5.668988995220222149e-01 -1.017701463157397868e+01 2.387969335356395817e+01
3.014334825527667849e+00 -4.909733993114881123e+00 2.017541467856426252e+01
2.475972471046876233e+00 -6.832705910811047723e+00 2.102107102011319029e+01
-3.565990539826202621e+00 -1.033832588348608539e+01 2.692714431109165929e+01
-3.329025672541168213e+00 -1.049898620016088557e+01 2.668769938720901891e+01
3.611600470765032433e+00 -2.484841788164521947e+00 1.984459577457203139e+01
3.500507368008047404e+00 -1.753880934583245788e+00 1.983260026795739961e+01
1.605991215876971523e-01 -9.660408989329720697e+00 2.312465167434944036e+01
-1.428575889360418127e+00 -1.051934465968195020e+01 2.441739041272312249e+01
1.025939176732685976e+00 -8.710230786730900121e+00 2.227457163978022336e+01
1.511523299561634115e+00 -8.423344434026276417e+00 2.209523075577154927e+01
1.909113065094089512e+00 -8.078463569308308223e+00 2.193272542153512461e+01
3.704057433673051847e+00 -3.436349231468472709e+00 2.012311518662410847e+01
-3.468177176649077875e+00 -1.005687094737058906e+01 2.817288151373652738e+01
-1.816180372106314778e+00 -1.087009492187500115e+01 2.543856662709972838e+01
-2.277472288772116826e+00 -1.087363393142479140e+01 2.607637617109437755e+01
-9.666610012961225351e-01 -1.042261534989810734e+01 2.421545467029328691e+01
3.706476324141994017e+00 -1.119312205931616733e+00 1.994476315001200462e+01
3.029301008206724433e+00 -5.906542161858881812e+00 2.072998038377696872e+01
2.285020190117603434e-01 -9.916639412789116648e+00 2.368374097396202060e+01
6.462250789939235629e-01 -9.373812232012930679e+00 2.294512666473491791e+01
1.132369166158286644e+00 -9.086354372225583731e+00 2.276544941176461379e+01
2.289806737128190495e+00 -7.672129667475148018e+00 2.171376700038179308e+01
3.597320323210270399e+00 -4.892565087633063747e+00 2.042164639409047311e+01
3.313266547900480141e+00 -5.399523430806650204e+00 2.057582253572988762e+01
4.057491843445282242e+00 -3.910405907297017425e+00 2.038678350613000134e+01
2.752595577183761133e+00 -6.369611126456359074e+00 2.087553327289957039e+01
2.670616242430061682e+00 -7.265833478690303160e+00 2.149478633482573997e+01
-3.167845819240433070e+00 -1.044511445312499909e+01 2.735427923002902872e+01
-3.011041002837005820e+00 -1.035929051990900618e+01 2.794003377426855295e+01
-3.463787506474202971e+00 -9.870418094357399141e+00 2.883588509773376174e+01
-1.102389051013553889e+00 -1.064289824909210935e+01 2.488116067457974268e+01
3.891982913463504445e+00 -2.922866489326059636e+00 2.006956166309310774e+01
4.100571418777477994e+00 -1.786035600142251045e+00 2.007412068288923024e+01
3.578193201129117540e+00 -5.437747193168659399e-01 1.991880499274943261e+01
6.653851441659880406e-01 -9.718764092919148112e+00 2.346021825633921765e+01
2.969521805301332806e-01 -1.017271822276416948e+01 2.424237080558620860e+01
1.617877529703388495e+00 -8.799394452961676549e+00 2.258604438712616513e+01
3.899084815770861301e+00 -4.436428537791904603e+00 2.044322623212484658e+01
3.051740123917702441e+00 -6.859615703780735707e+00 2.127590065634425187e+01
-2.883812303528565213e+00 -1.068810820693356156e+01 2.675255687088697698e+01
-2.435723781406520239e+00 -1.091177158245438861e+01 2.664335851558129065e+01
-4.994320161776286682e-01 -1.051025275034245432e+01 2.459752605988025209e+01
4.226722551669550576e+00 -2.480506581881951167e+00 2.009362975516570415e+01
6.902486284449990128e-01 -9.951010238496699856e+00 2.395102096091889265e+01
1.174049248335394813e+00 -9.406220682225836072e+00 2.325316721339660475e+01
2.103609649834934814e+00 -8.512421031752536393e+00 2.240659176646428818e+01
2.484325258949120485e+00 -8.105966900506329509e+00 2.218757001354299163e+01
4.180437845106082406e+00 -4.875472520835866241e+00 2.066754710954001339e+01
3.896367088191902806e+00 -5.382471872356392240e+00 2.082185328447777550e+01
3.612278313169448918e+00 -5.889457253139111614e+00 2.097604975045145181e+01
4.449642705512009577e+00 -3.193250519399777332e+00 2.036452205705213458e+01
3.328271285885168407e+00 -6.396502903985865629e+00 2.113022294559818448e+01
-2.635756865425231688e+00 -1.052984035273687979e+01 2.779605656561158256e+01
-2.854415300145720202e+00 -1.027356531131066397e+01 2.852512805705679710e+01
-2.653924532869996078e+00 -1.066842709387522525e+01 2.740109226499854955e+01
-1.065730404350751837e+00 -1.080848879535081686e+01 2.541231992020412633e+01
-1.753227006677502642e+00 -1.095172200083556291e+01 2.612538606411978748e+01
4.038710053468075323e+00 -5.639554633134074013e-01 2.010453188009754300e+01
4.393336379565997873e+00 -1.040982950045519440e+00 2.022637243877735713e+01
-3.193586035592458489e-02 -1.059783929726881624e+01 2.497919629704292532e+01
1.171024888636960970e+00 -9.777127308159727193e+00 2.379567900256659030e+01
4.410745200222224049e+00 -4.384212721132801249e+00 2.065007660392612010e+01
2.865331361014852973e+00 -7.699356854459387556e+00 2.196841685289923518e+01
-3.002476509912097136e+00 -9.986331433777875688e+00 2.926528309667193284e+01
-1.324138615173128253e+00 -1.094806037700377033e+01 2.587394385306329525e+01
-3.152566234391736555e-01 -1.074688354713254235e+01 2.538614147474822147e+01
-2.139726905207642194e+00 -1.089177424925769344e+01 2.744819936067328925e+01
-2.030756962558059264e+00 -1.101337371842590329e+01 2.707021910064045045e+01
1.614258462268939986e+00 -9.097847418192964497e+00 2.301833174715626384e+01
3.659622775451143450e-01 -1.042917169772265318e+01 2.480166592153763716e+01
1.021705006723881981e+00 -1.013234131853051245e+01 2.446636251237405801e+01
2.321664922992497271e+00 -8.814738578078152642e+00 2.295230916332921467e+01
4.592618194497966932e+00 -3.875514121498891740e+00 2.059514255838496766e+01
4.479956101231239884e+00 -5.365357075181088398e+00 2.106759989881239292e+01
4.195483559311363742e+00 -5.872690925564817199e+00 2.122193604670984968e+01
4.563650337605505314e+00 -2.036399242810140731e+00 2.024990729426518499e+01
3.246359073485559410e+00 -7.292871855135381942e+00 2.174928187265951962e+01
3.627249046835174351e+00 -6.886679832300646176e+00 2.153025524291864912e+01
-1.689669400119096387e+00 -1.103334878365259009e+01 2.681158756656526521e+01
-1.865041662827070512e+00 -1.086473623397169064e+01 2.786649489856192830e+01
4.748033272103409530e+00 -1.517932799626893425e+00 2.034796633824624124e+01
4.842056081440603954e+00 -2.476197818078793578e+00 2.034221053338540841e+01
1.811829090997699065e+00 -9.371233539672749302e+00 2.351671818900059563e+01
2.627941928321894327e+00 -8.527352928127930554e+00 2.266528650707788373e+01
3.047392915627362697e+00 -8.080057344956156129e+00 2.242438344427629460e+01
3.911131257589476995e+00 -6.380005290888937530e+00 2.137621607740031848e+01
4.764296545030074270e+00 -4.858453488800964948e+00 2.091334121450728745e+01
3.428592737685989267e+00 -7.673399391391108715e+00 2.220517894390422953e+01
-2.104098185360695705e+00 -1.061449637202477447e+01 2.823761337654336501e+01
-2.697826040001528369e+00 -1.018786015453467542e+01 2.911009792998337886e+01
-3.223455057713569438e+00 -9.779216254431549515e+00 2.973433829193864497e+01
-6.620010827379328999e-01 -1.088904548103381842e+01 2.583294297995246680e+01
-1.286460757201569605e+00 -1.101923380918617745e+01 2.648147247691614226e+01
4.352443484467672929e-01 -1.068527804488393151e+01 2.536002376823631010e+01
-2.181327458395620145e+00 -1.040473176946435885e+01 2.898527097534798713e+01
-1.625632087547336679e+00 -1.111497552181110571e+01 2.749686391577329303e+01
4.328494588840861468e+00 -2.041469678206674909e-01 2.018830127286787146e+01
1.125393579790269882e+00 -1.051659438465559937e+01 2.530376206232062586e+01
1.677495989144722754e+00 -9.835510289411411478e+00 2.413108600816352833e+01
3.847603827954264144e+00 -7.226016441522451927e+00 2.196371974072141597e+01
4.937841795288099078e+00 -4.260771445565146642e+00 2.083245648856673427e+01
5.111168800144808344e+00 -3.664148944051860646e+00 2.075170807891016977e+01
5.284442912496721156e+00 -3.068020446921331690e+00 2.067101765153016402e+01
-8.317257957385363332e-01 -1.102602593048335500e+01 2.630910580193620874e+01
5.094131795916842620e+00 -8.585544661078242656e-01 2.044271549752153305e+01
5.102846464240456292e+00 -1.994892484419442447e+00 2.046929433245187013e+01
4.769380964342498253e+00 -3.740269733283302922e-01 2.033062129662082285e+01
2.540343307075982437e+00 -9.113798146343039974e+00 2.349839720078070826e+01
2.791794366114378256e+00 -8.803670599208482273e+00 2.315166706902882865e+01
2.164794652347009851e+00 -9.505542380709782080e+00 2.388754201813675593e+01
1.746603915885748926e+00 -1.009168588423662882e+01 2.468936881405360140e+01
4.228385149636722851e+00 -6.905470460087737017e+00 2.184278328608203879e+01
3.153640270468560658e+00 -8.539617305839174222e+00 2.292422848037002581e+01
5.018444866365426194e+00 -5.279107980245125731e+00 2.128688712877785960e+01
5.331283341478943782e+00 -4.364606705821231891e+00 2.108167036399916938e+01
4.733803584001100795e+00 -5.786148216462231986e+00 2.144110832155492830e+01
4.512835432119296719e+00 -6.398334026824143983e+00 2.168862356868876518e+01
5.457801660195203297e+00 -2.471919494770265402e+00 2.059031957258194012e+01
-2.541326697997615458e+00 -1.010220429687499966e+01 2.969474478713552301e+01
-1.346562889592611612e+00 -1.105342467359020020e+01 2.801220918317886799e+01
-1.572450489279952679e+00 -1.069914832802143678e+01 2.867929511587241009e+01
-1.718993950018155581e-01 -1.092746670090358130e+01 2.611637304141710558e+01
-1.054424179425105912e+00 -1.108066154391413427e+01 2.690374022863403880e+01
4.879279440162836989e-01 -1.082890743536546196e+01 2.592369510596941851e+01
5.233636590079891349e+00 -1.477302572476161924e+00 2.049938087330490433e+01
4.618388480405632990e+00 1.556255868236788298e-01 2.027202115251142445e+01
4.068442719564031584e+00 -7.566246649196934904e+00 2.239772240379626211e+01
3.664360895281764119e+00 -8.077951031000507598e+00 2.271052063727307058e+01
5.275281992261283470e+00 -4.894080824822234277e+00 2.120764888861657127e+01
-1.090565166189189528e+00 -1.114840147635336187e+01 2.786756585832215904e+01
-1.634622496137519310e+00 -1.055259041458055158e+01 2.918935536933570773e+01
-8.680528595440666351e-01 -1.116330821452062949e+01 2.753562850136922080e+01
-1.864213810494399270e+00 -1.035746371468979632e+01 2.965053437973388029e+01
5.263419337574119616e+00 3.882144468372560747e-02 2.047700875234292539e+01
9.011096725302222277e-01 -1.075318721614621076e+01 2.574920465191062036e+01
1.815991136671388118e+00 -1.034786133753611281e+01 2.524744857506269824e+01
3.152729189034717994e+00 -8.961741077599318928e+00 2.355263586428199929e+01
2.759301739686796928e+00 -9.412764473575439439e+00 2.404417357878071471e+01
2.183534167444339591e+00 -9.893778771731609467e+00 2.446565205246459485e+01
3.679444615223427473e+00 -8.551454282872931856e+00 2.318282092910622794e+01
5.272471827713778758e+00 -5.699702882388042902e+00 2.165999353013072692e+01
5.584041066967642131e+00 -3.413755957361575000e+00 2.093975069069708184e+01
5.570393093264885742e+00 -1.873085375508883876e+00 2.061291031523971995e+01
5.768508066020646474e+00 -2.899331314531939707e+00 2.088933566649968654e+01
-3.073682418468287381e+00 -9.694588891087711602e+00 3.029548361482224905e+01
-1.067276031067361908e+00 -1.099183694725682514e+01 2.852920047892057553e+01
-3.389293375656459162e-01 -1.110399687009866554e+01 2.674405976133176566e+01
5.410094397755075279e-01 -1.097253646882391998e+01 2.648708172250853110e+01
-1.040453603284620332e+00 -1.078385466420543004e+01 2.912139241614958607e+01
-1.186493608444025183e+00 -1.061293749162752142e+01 2.960690733854300660e+01
5.682965771699211466e+00 -1.274535140950945555e+00 2.063551319452238175e+01
1.591663327405683726e+00 -1.058447348981644787e+01 2.569281185366432751e+01
4.289432059496473215e+00 -7.902710285529551903e+00 2.283164193496245531e+01
4.559814623479779172e+00 -7.414438748472749197e+00 2.249339581960893497e+01
5.727877446052195509e+00 -3.932909789710629322e+00 2.117341215930007081e+01
5.474984033397720218e+00 -5.282852904390654913e+00 2.153367243241726570e+01
5.660683187898872148e+00 -4.494581071878407386e+00 2.130277075280340426e+01
5.138364735854829668e+00 -6.339445702326973908e+00 2.196705675868173913e+01
5.984751322678338425e+00 -2.497200721987685945e+00 2.089571000921946720e+01
4.830368529217492046e+00 -6.924532706651508995e+00 2.215515509754344592e+01
-2.373277398284275197e+00 -9.985800866179435076e+00 3.039759203699883017e+01
-1.971299660569135082e+00 -1.021172636572124937e+01 3.007800439359275302e+01
-7.880256039027406789e-01 -1.093026773312887201e+01 2.904604311800873262e+01
-5.554256648888806769e-01 -1.118183088924151392e+01 2.823969761166813797e+01
5.795546766216991053e+00 -6.773457487939495980e-01 2.065813240377478266e+01
4.995115148790539195e+00 5.752608573075261855e-01 2.039939322712509195e+01
1.367367867616733124e+00 -1.082108633822938515e+01 2.613813252172216295e+01
2.507309837084229720e+00 -1.017901164999330454e+01 2.519105952138273352e+01
4.038255044318555420e+00 -8.252198497234614294e+00 2.305716897919226582e+01
5.786429795878062166e+00 -4.929785324866332807e+00 2.150141088562351044e+01
5.526582402733394517e+00 -6.120662868896783237e+00 2.203297042285763041e+01
5.855183723847531496e+00 -5.513912722479521911e+00 2.186710193599198249e+01
6.079160352588856675e+00 -3.326698040853770966e+00 2.118796830752746985e+01
6.236512293789745698e+00 -1.724888157677961331e+00 2.098573255510373770e+01
-1.100179071937157499e-01 -1.121166534396444803e+01 2.757457008889734951e+01
-1.401699226443547719e+00 -1.032116625611397076e+01 3.046143871558018290e+01
-1.842673491541414688e+00 -1.010207854816315276e+01 3.069821650736024310e+01
5.908144118896785812e+00 -8.107102171834880411e-02 2.068076772906697514e+01
5.564946660090675401e+00 5.105616182194228081e-01 2.058081249590752293e+01
1.544682252242808307e-01 -1.118201057029559564e+01 2.717898913698751784e+01
2.168129985492069700e+00 -1.046641249461542067e+01 2.569910149925553711e+01
3.361830761146288093e+00 -9.352808455270164245e+00 2.423073196617352565e+01
3.783610321358023221e+00 -8.958073642256479729e+00 2.383595421283729365e+01
2.978441471640849603e+00 -9.711581844658118357e+00 2.458952025248224516e+01
2.690746239462395994e+00 -9.952127038326009867e+00 2.480047350404348450e+01
6.088003552804879703e+00 -4.341862095317806869e+00 2.149386099942258355e+01
6.110307362832304356e+00 -1.093735028360242278e+00 2.086864632160453681e+01
-2.677859882210089193e+00 -9.742167769795953447e+00 3.078265298344353695e+01
1.214267623101505711e+00 -1.100262862150973042e+01 2.678870079049256958e+01
5.944624858653199118e-01 -1.111626531598605894e+01 2.705051449881374737e+01
-5.082486372122646534e-01 -1.086859253942426662e+01 2.956378417353858978e+01
-2.643956169894646213e-01 -1.104192929159316883e+01 2.908785450528284500e+01
-2.017025676334216477e-02 -1.121526673581439049e+01 2.861195231510158976e+01
3.139906720057341061e-01 -1.123764824079812996e+01 2.811133260275809320e+01
-8.256235419135224962e-01 -1.058155554723407477e+01 3.025219265776622635e+01
6.111806485169974046e+00 6.101256586686507610e-01 2.087462302001468828e+01
1.928441986066335989e+00 -1.067648840228581264e+01 2.607447010758277983e+01
4.205100320322052276e+00 -8.563277897572566744e+00 2.344094388104078419e+01
5.106650970455659966e+00 -7.346318513686300733e+00 2.269714646993631391e+01
5.432262717371145300e+00 -6.941837078158042296e+00 2.246686215780382057e+01
4.510595059694057163e+00 -8.238983237494576173e+00 2.326555367761482174e+01
5.780709289521671401e+00 -6.540403974780266694e+00 2.240572409184833447e+01
6.118193763252276263e+00 -6.036570263731208641e+00 2.230153274252601392e+01
6.389711408017227257e+00 -3.754005777649717768e+00 2.148614970922549006e+01
6.511790153376320944e+00 -2.523391422371366488e+00 2.120127521711969365e+01
6.570983569861341245e+00 -1.079082358373647077e+00 2.113357088674316131e+01
-3.056708784120342859e+00 -9.509212831983665737e+00 3.100648452484700712e+01
1.294762650884793365e+00 -1.121822810571165974e+01 2.763317554516768837e+01
6.482109575792843748e-01 -1.126002968750000122e+01 2.761365891636922854e+01
1.834086161708076146e+00 -1.088899126593229028e+01 2.652688052024751997e+01
-2.205332918612092907e+00 -9.870960306502892578e+00 3.109989154340524564e+01
6.239325931024074734e+00 -5.798255156607081684e-01 2.090638895809541964e+01
5.221892596088096639e+00 1.102163431219669754e+00 2.048024343991241381e+01
2.708271673599973894e+00 -1.033425246230082983e+01 2.565431451270121599e+01
3.197836000020498837e+00 -1.001041367187499986e+01 2.513471585774180284e+01
4.836121901736850859e+00 -7.834620529938234768e+00 2.303545340533624142e+01
4.348174974312168040e+00 -8.934037075694442720e+00 2.405815960722025082e+01
6.767459419178327273e+00 -3.136382746202585725e+00 2.152419955790149331e+01
6.298063767349351139e+00 -4.965618099141305919e+00 2.179471462745286914e+01
6.700645302147822058e+00 -4.181972050317739331e+00 2.178572567412480510e+01
6.776573352698601838e+00 -2.087255488986954788e+00 2.132509134139307605e+01
6.903300164643618508e+00 -1.579164980149023956e+00 2.136317703341592633e+01
5.151234624739382539e-01 -1.124870388278609568e+01 2.898427648435950488e+01
-1.426367592748261970e+00 -1.014988631731506175e+01 3.110816043453640134e+01
-8.317934301191478585e-01 -1.043066417178738625e+01 3.084551353815429664e+01
6.402067777540288773e+00 -1.938332627332543245e-01 2.099566422583649938e+01
2.521804324788655460e+00 -1.061881243565057709e+01 2.623054256403611006e+01
3.964695992032450267e+00 -9.292852120741804001e+00 2.441703892004121812e+01
3.581068620743156572e+00 -9.651814726724451177e+00 2.477606188238732088e+01
4.731773938321536477e+00 -8.575117968749998099e+00 2.369917193494567087e+01
6.455802788845524276e+00 -5.531260712511118172e+00 2.219708913003041317e+01
-2.546981428609901510e+00 -9.632916509489483303e+00 3.140402180598961124e+01
8.825983108974644331e-01 -1.127391757673939665e+01 2.814022121470363302e+01
1.792805159741356347e+00 -1.104156716180078668e+01 2.709752689834307304e+01
-2.357434960939243929e-01 -1.079568713903240607e+01 3.024778482119070233e+01
1.896792615933355353e-01 -1.101761328305647503e+01 2.961885035317025938e+01
6.782136864391717701e+00 3.956294217269908375e-01 2.129957551585309972e+01
6.897273890054474776e+00 -3.060465658006245038e-01 2.131656086499313929e+01
2.301146656727757644e+00 -1.095689050255334074e+01 2.691536224302500102e+01
3.207255793245568753e+00 -1.028093488867303584e+01 2.577422977025742412e+01
5.709015363331459092e+00 -7.361974477240482706e+00 2.300858681222596047e+01
5.057658435228344018e+00 -8.170517174784880154e+00 2.346890755401179618e+01
6.356342060375855141e+00 -6.478050023290116144e+00 2.267889862960710090e+01
6.034854015568144270e+00 -6.957576562499999895e+00 2.277825913401983726e+01
6.810015008336747222e+00 -5.001604575520961937e+00 2.209004156886084758e+01
7.011302781400821083e+00 -4.609756446203122415e+00 2.208669990308540676e+01
7.016164856926263127e+00 -3.550876510457102508e+00 2.178588688207284463e+01
