1.497317171539888569e+01 -8.896753953371010937e+00 3.093229614350831369e+01
1.493123200237891091e+01 -9.096079803135049602e+00 3.106840655047492916e+01
1.138377408854626616e+01 -7.856206455446003822e+00 4.422263912667436614e+01
1.166453690876334903e+01 -6.173986243297328258e+00 4.484682690707733599e+01
1.395509306727833376e+01 -2.901513235155246395e+00 4.563643881392227541e+01
1.118459374468968015e+01 -1.094813031525646885e+01 4.045619605337184765e+01
1.098996232857951938e+01 -1.012914452135442822e+01 4.214291438605483364e+01
1.112070240487446249e+01 -1.082905148255121297e+01 4.078003344412351083e+01
1.067361043313122515e+01 -1.102169827580506656e+01 4.004619110533270998e+01
1.282498652704959596e+01 -1.184902489280827709e+01 3.453683975850825050e+01
1.338503930332282543e+01 -1.113486654754707494e+01 3.285027913296435287e+01
1.301501676849348144e+01 -1.148885097339920769e+01 3.348434846256953534e+01
1.348474697794033084e+01 -1.073015623068842928e+01 3.206248225518341144e+01
1.524666836780424539e+01 -7.347529497769211382e+00 3.056546912216690970e+01
1.543765033297641232e+01 -6.459280358209441353e+00 3.067578092402384726e+01
1.199785430597516545e+01 -1.200564960088370192e+01 3.544960351579458546e+01
1.232861711016753503e+01 -1.201290723133623750e+01 3.494013875193972751e+01
1.109068961684437760e+01 -1.147654445544873347e+01 3.884309869137377547e+01
1.124553589620474625e+01 -1.183462288625223380e+01 3.731660086077000216e+01
1.093698657605870750e+01 -9.330632863972983415e+00 4.324485567166429689e+01
1.202031432608826123e+01 -5.744000366630211296e+00 4.500406058513067364e+01
1.127308339066603260e+01 -7.308909130601312754e+00 4.441725322007910393e+01
1.237736229562085377e+01 -4.774557199244096495e+00 4.534543472572789824e+01
1.194386030355823891e+01 -5.240093196090936267e+00 4.517369737636767724e+01
1.321181115453080679e+01 -4.156019693179438868e+00 4.544025189191226843e+01
1.350680988154624629e+01 -3.603348950223938196e+00 4.555865245884612591e+01
1.484964649307756979e+01 -1.911827312799065037e+00 4.565342744280579979e+01
1.112395327258148114e+01 -9.547703007626029859e+00 4.299757697302142390e+01
1.054519388386629686e+01 -1.078345617806918177e+01 4.069378773804948679e+01
1.081425069875747624e+01 -1.120814940538033255e+01 3.958911420820026450e+01
1.458485003203001540e+01 -9.451738092206040776e+00 3.113872168216912328e+01
1.384555055940472990e+01 -1.025582542661175722e+01 3.156286824659367696e+01
1.287156405438046569e+01 -1.163507345316519093e+01 3.381258431387294650e+01
1.364888555087408228e+01 -1.058582151683306094e+01 3.191385496904288743e+01
1.095475450265965733e+01 -1.139469758437628677e+01 3.913202041386725938e+01
1.160265355001058296e+01 -1.200194299198796521e+01 3.600381765276726043e+01
1.099364605149412810e+01 -8.604853079315743614e+00 4.377761751603595286e+01
1.080576446452070094e+01 -8.326484341165349079e+00 4.394048164974194037e+01
1.117566359908256324e+01 -6.739648360510079428e+00 4.462393086571498912e+01
1.267266753099448806e+01 -4.222074504510400672e+00 4.546380032891288892e+01
1.326311794384228904e+01 -3.117486674141549674e+00 4.570044179357811487e+01
1.430773334267126096e+01 -2.189561905270309250e+00 4.573981041815227400e+01
1.065865116961032655e+01 -7.595825590804588856e+00 4.420043312219971199e+01
1.079384972868720816e+01 -1.038898633621788115e+01 4.155850041551160245e+01
1.032669218802873345e+01 -1.049009352823844310e+01 4.121253445028181517e+01
1.417217602195031390e+01 -9.736887388820152367e+00 3.107178108185907561e+01
1.260663984567585949e+01 -1.137752126482692105e+01 3.293055925119664096e+01
1.504608279852491926e+01 -6.677768636733807384e+00 3.025546777507986107e+01
1.080948205589362132e+01 -1.164750736393184027e+01 3.792175583298695329e+01
1.062222467288039240e+01 -1.150783416817290750e+01 3.844873884413838994e+01
1.035003402313829035e+01 -1.134403431269660167e+01 3.902675860477663150e+01
1.105544474926567133e+01 -1.187683855657598997e+01 3.662171529714957785e+01
1.133645976579114212e+01 -1.198366906928141162e+01 3.534074306865829129e+01
1.049259883139948535e+01 -8.805389663276312007e+00 4.352697208438771526e+01
1.496905661328703907e+01 -7.726053858780579375e+00 3.029401773490401695e+01
1.449070560579419187e+01 -9.109975441913773508e+00 3.068091064850373684e+01
1.151107209930773934e+01 -5.704822086341987841e+00 4.500229095397892820e+01
1.296812546400994037e+01 -3.669314902501993103e+00 4.558222401877173269e+01
1.361600411983708980e+01 -2.405516899385593099e+00 4.580388065894518235e+01
1.062303522317216853e+01 -7.207982137656244959e+00 4.435240704370299625e+01
1.058705127806876334e+01 -9.702617415686638935e+00 4.264164903688418917e+01
9.985662237085227488e+00 -1.088979169411646630e+01 4.016950977605280571e+01
1.016266710776758231e+01 -1.109531036480907318e+01 3.963627329681418843e+01
1.205746479413220307e+01 -1.184730641757955283e+01 3.409418548771340340e+01
1.403673960959359768e+01 -9.908275375473259317e+00 3.119047110837124492e+01
1.288440359551274561e+01 -1.111195967786797212e+01 3.245499216283677413e+01
1.232887363571581041e+01 -1.164308257116190148e+01 3.340612761723789959e+01
1.318421344522231919e+01 -1.057993767307259425e+01 3.153625909192630417e+01
1.492288263447042773e+01 -7.198100115896993501e+00 3.017749226842474286e+01
1.183254091877069847e+01 -1.199470252883028287e+01 3.457657103199840520e+01
1.073474078537041265e+01 -1.182773235655722921e+01 3.689887775837397044e+01
1.457467923980321167e+01 -8.711427389166539470e+00 3.040885279119620321e+01
1.107804801716855003e+01 -6.169733435522020137e+00 4.483087529352743417e+01
1.221034472447256292e+01 -4.267184277534935788e+00 4.550549581197208937e+01
1.158718377309464387e+01 -4.728173373498718135e+00 4.535891097624174506e+01
1.141729617384598505e+01 -5.209184920159657395e+00 4.518268189660026479e+01
1.451046984854810695e+01 -1.415858011500463531e+00 4.582103332394282091e+01
1.025144300933851049e+01 -1.007101634768681642e+01 4.203620687168735515e+01
1.021352138994688907e+01 -9.268732739463128922e+00 4.313521451838760612e+01
9.968913998473317051e+00 -1.073783055314806134e+01 4.060746832540512941e+01
1.019226184915066646e+01 -1.027290401840677880e+01 4.161039941185215696e+01
1.257701249715197811e+01 -1.174608111833069835e+01 3.397162922322091561e+01
1.295928557238905654e+01 -1.084777195027587204e+01 3.194751502002921129e+01
1.062134819348404591e+01 -1.178437169944604257e+01 3.720510777845354511e+01
1.015340640837146147e+01 -1.153919983333914701e+01 3.805410108821371296e+01
1.030519850247365099e+01 -1.165769759133101324e+01 3.760338912972040504e+01
1.086527594450603296e+01 -1.191918793052129821e+01 3.592680985631470492e+01
1.113885266383386963e+01 -1.198177509081500069e+01 3.561784781500765718e+01
1.049291641759222493e+01 -6.448435645583487918e+00 4.462822167259809447e+01
1.256984076669797012e+01 -3.185112327294419288e+00 4.576304820335584367e+01
1.301652305211076843e+01 -2.587867593576790082e+00 4.588170997586246358e+01
1.204321551387031519e+01 -3.759420220294845905e+00 4.566568117916310854e+01
1.396849120980415826e+01 -1.693586693750281702e+00 4.590729659841468191e+01
1.004281830273548159e+01 -7.883097048438985510e+00 4.398250582448919488e+01
9.972609402461683814e+00 -7.107041446137059459e+00 4.428665523813337757e+01
9.990960236309794240e+00 -9.006009946002759392e+00 4.327624139476294118e+01
9.860040193355368743e+00 -1.059111221228301680e+01 4.086703045930126166e+01
1.345362157707087114e+01 -1.021577535109194734e+01 3.119953365846669158e+01
1.356661596962694283e+01 -9.884659857142908734e+00 3.079121813101992089e+01
1.383783970425531606e+01 -9.541920579348058595e+00 3.055415170715919615e+01
1.238393498275033977e+01 -1.108905886002136221e+01 3.205983538838319191e+01
1.209247619009385488e+01 -1.149308293912375056e+01 3.287191392196895379e+01
1.009703147738874129e+01 -1.142055606189292938e+01 3.854926157498007910e+01
9.651615266374205859e+00 -1.116899774972740644e+01 3.922630859936153058e+01
9.697496801123755006e+00 -1.100344868985155955e+01 3.972748568246715450e+01
1.022393166880886106e+01 -1.182089606738159127e+01 3.648115046141524687e+01
1.100584012623670915e+01 -1.196908428770162480e+01 3.472245130632654764e+01
1.405010325765921486e+01 -9.123873640832574239e+00 3.029335978078049862e+01
1.098435298508579550e+01 -5.673954242327647002e+00 4.501127740435245528e+01
1.169867388842963862e+01 -4.159380138891608958e+00 4.553877316607727010e+01
1.336941235160826125e+01 -1.875790821745704218e+00 4.598520989559354177e+01
1.011602448463637671e+01 -8.248644848851261813e+00 4.385245163672446012e+01
1.004954685516099033e+01 -9.857649636609318478e+00 4.228520909388185345e+01
9.392911548720968895e+00 -1.069225993213386872e+01 4.052126022864310784e+01
9.511311011705531726e+00 -1.001283640502175309e+01 4.192852265988648242e+01
9.452251754745516266e+00 -1.035246143186375534e+01 4.122506976187975170e+01
1.133646138704565054e+01 -1.197533841302728774e+01 3.421300042654414852e+01
1.179313910294302303e+01 -1.159698927157013415e+01 3.298490210699603153e+01
1.258379489991980371e+01 -1.073444508894739791e+01 3.144747691633107678e+01
1.067505423074961435e+01 -1.196171105011299396e+01 3.523187862238628298e+01
9.745016098317814013e+00 -1.129336873173454414e+01 3.892147126634812793e+01
9.996910183565008268e+00 -1.173412513318369754e+01 3.709359152525273373e+01
9.684629598781198112e+00 -1.157061915609018143e+01 3.765951676296550943e+01
1.048861742352368687e+01 -6.063496608177127101e+00 4.479788810134812138e+01
9.906904439291990272e+00 -6.727387123191442164e+00 4.442435618569325584e+01
1.089066985313785807e+01 -5.178273760877964982e+00 4.519165886161921719e+01
1.232298707986460151e+01 -2.655560744545865326e+00 4.594423329039567250e+01
1.187646020002475034e+01 -3.252737966633625799e+00 4.582552519595880369e+01
1.151697044563673522e+01 -3.728579023255972569e+00 4.567459417883394224e+01
9.969642069668086748e+00 -8.604113849820967275e+00 4.356359847739044255e+01
9.499905203389795716e+00 -9.609788546906461448e+00 4.247695986074442231e+01
9.488438292331441204e+00 -9.206783759560213554e+00 4.302534402804528924e+01
9.308844771294818798e+00 -1.087573099316271552e+01 3.995275000247404051e+01
1.143522564080207715e+01 -1.185114360913421372e+01 3.375689216204128940e+01
1.292760185253494853e+01 -1.038835107016728543e+01 3.105077637195177687e+01
1.309717456152042558e+01 -9.861078104338128369e+00 3.039255070353278398e+01
1.185611555341001733e+01 -1.134310470999955101e+01 3.233778093778593643e+01
1.170842890432759020e+01 -1.171126008992424516e+01 3.333513190651743940e+01
1.269119247499120640e+01 -1.051759379294861674e+01 3.111071651491947065e+01
9.638497503401200817e+00 -1.140652203523501385e+01 3.836145091962008991e+01
1.019425054498876015e+01 -1.188788570236310171e+01 3.564767047322902727e+01
1.079683596904027176e+01 -4.681788872594844442e+00 4.537234586080142407e+01
1.039500418693100059e+01 -5.567505277011340681e+00 4.497842378226676630e+01
1.115681357466771750e+01 -4.205313529642654480e+00 4.552340741549942749e+01
1.276984375747667144e+01 -2.058059795829259020e+00 4.606300535078212732e+01
9.425064407824370605e+00 -8.170752871077711532e+00 4.376423917100535022e+01
9.373350163297347493e+00 -7.588384153335548277e+00 4.399243971974803458e+01
9.456790478050564275e+00 -8.688823525946315129e+00 4.339469435202873626e+01
1.188385412165759369e+01 -1.106617640800201485e+01 3.166498771478833518e+01
9.140451966769422398e+00 -1.124276475502222894e+01 3.881629825992605731e+01
9.224669557646056006e+00 -1.105925441975233170e+01 3.938435431481035209e+01
9.372068307169053369e+00 -1.168387036654283939e+01 3.698203106345899016e+01
9.713111675245883703e+00 -1.181411889182713892e+01 3.606342577388866744e+01
1.084038308294820396e+01 -1.195544185100751022e+01 3.384943084151774428e+01
9.899395911046079632e+00 -5.957322247334267296e+00 4.476383796479539257e+01
9.321040728416427612e+00 -7.005974307433556980e+00 4.422071535081322935e+01
1.030137700804966627e+01 -5.071563999864651784e+00 4.515890474192915605e+01
1.118394781352707312e+01 -3.161330923211692845e+00 4.587670370676448783e+01
1.169265528442212698e+01 -2.702609162905201590e+00 4.601616253582381688e+01
8.874966879888381399e+00 -1.072381486257189565e+01 4.008977465223350833e+01
8.773002376237744926e+00 -1.035051125157931828e+01 4.085705547516041491e+01
9.027634267659029987e+00 -1.006365570336779847e+01 4.156323758823123882e+01
1.267089122905097121e+01 -1.019669323051579646e+01 3.056511357230784043e+01
1.108839323353258521e+01 -1.177938889440607539e+01 3.326418516457121655e+01
1.125718004064992783e+01 -1.155087509874213225e+01 3.256349915827539121e+01
1.198384958362509778e+01 -1.088882878657109821e+01 3.135876571183074546e+01
1.046842788243940880e+01 -1.195173790731089092e+01 3.470449001728448479e+01
9.315730301085741516e+00 -6.428448953055248438e+00 4.447522686998106423e+01
1.213921762706999452e+01 -2.104975451635632488e+00 4.613505296792961730e+01
8.930607884132060192e+00 -9.590602372752007554e+00 4.225515156393520755e+01
8.922118115650604864e+00 -9.288366046682659416e+00 4.266624528764331359e+01
8.818057675307482413e+00 -1.058595595728165506e+01 4.041672130688382225e+01
8.829818144102416611e+00 -1.089197967487128693e+01 3.958992170348653872e+01
8.939527563040329028e+00 -9.892889282322510525e+00 4.184400292557226209e+01
1.161987278642063259e+01 -1.119320180624271011e+01 3.180391811606189378e+01
1.219762706286247678e+01 -1.045518213584304412e+01 3.068471735309756454e+01
1.012373484793402412e+01 -1.193339099971648487e+01 3.480697351420890584e+01
1.005164400672109437e+01 -1.191982523605653910e+01 3.512647676697192622e+01
9.009533936118137021e+00 -1.137285450781640606e+01 3.816789031887117289e+01
9.215705919200740226e+00 -1.160210894312731433e+01 3.726482772496739670e+01
8.537920450302644682e+00 -1.098497281076289944e+01 3.913684988976444146e+01
9.202282639885572380e+00 -1.180740713010987442e+01 3.564570031731248889e+01
9.230461637839509237e+00 -1.172385782908722440e+01 3.646699628586214459e+01
1.026181394674304492e+01 -1.194012084674226948e+01 3.417709904409422705e+01
9.806202063358352206e+00 -5.461014097086789754e+00 4.494452406523560484e+01
1.069494537130706568e+01 -4.144267946730938235e+00 4.555758123845014751e+01
1.026934940377482341e+01 -4.550850040357103943e+00 4.536944987495901671e+01
1.059303790865665285e+01 -3.606588481917139877e+00 4.574288198704964969e+01
1.099983466454131609e+01 -2.611026901333927785e+00 4.606735761511768601e+01
1.150866044315496417e+01 -2.151880884432097130e+00 4.620699357510745386e+01
8.727738302549983729e+00 -7.969091098571771781e+00 4.370233361825496132e+01
8.659357080351728797e+00 -7.192511219698047853e+00 4.400658023004799446e+01
8.919257944750867750e+00 -9.053234593761526838e+00 4.295843758239293919e+01
8.356458389260629005e+00 -1.075545808748054810e+01 3.965788251071499815e+01
1.138361148180960747e+01 -1.104328567880794765e+01 3.127001206760900942e+01
1.105263225574902286e+01 -1.127404068406771920e+01 3.170621969877990409e+01
8.878424774202663627e+00 -1.150314766530396504e+01 3.751923314157008349e+01
8.556077939254359777e+00 -1.114477266964443380e+01 3.870276447512976148e+01
9.773851125955090424e+00 -4.940518700608095060e+00 4.515511272693944278e+01
9.309962697073913773e+00 -5.851131125951993361e+00 4.472969182051883053e+01
8.697374916382159427e+00 -6.807989660977862734e+00 4.418745310270338678e+01
8.870770338200594907e+00 -8.276072362044571307e+00 4.351257995112817412e+01
8.811830938017047643e+00 -8.661026197687805350e+00 4.321181019964967618e+01
8.358851212679997644e+00 -9.369890840038408442e+00 4.230765140229586763e+01
8.243281623939230585e+00 -1.047978389558898904e+01 4.031200356994604306e+01
8.543446916345216025e+00 -1.011457576992403062e+01 4.119767882540654114e+01
8.369433408001196284e+00 -9.773045535219248237e+00 4.175947300767761305e+01
1.059500714575970903e+01 -1.167615743114811622e+01 3.266783276334798103e+01
1.072164345689126819e+01 -1.150479634135151841e+01 3.214242896896185187e+01
1.046832621692609600e+01 -1.184751776473570573e+01 3.319323840277493076e+01
9.428105930638983168e+00 -1.187794603685163075e+01 3.502107130211603447e+01
8.676590140942273877e+00 -1.124682347281323835e+01 3.841898607865943660e+01
8.747191000076728784e+00 -1.163363761192533552e+01 3.687049683589698645e+01
1.016773049996843525e+01 -4.013269596573233677e+00 4.555470650560509682e+01
9.278118600489573709e+00 -5.329764662287939991e+00 4.494064793433212657e+01
8.690988151128724581e+00 -6.037988054703870233e+00 4.452682162049720915e+01
1.049133918089704132e+01 -3.069923681065187537e+00 4.592784167917518801e+01
8.352220568656633759e+00 -8.899663141188028703e+00 4.289146421509918383e+01
8.059648659388463088e+00 -1.016550820197199911e+01 4.083252258719448236e+01
7.674436817699108460e+00 -1.054303012030382192e+01 3.976277939176675602e+01
7.837795881731183911e+00 -1.078716995859663363e+01 3.922588675091162003e+01
1.034430565048980988e+01 -1.193554468030986193e+01 3.348586201519428585e+01
9.572404220093751803e+00 -1.190449374555545248e+01 3.438206461034965145e+01
8.212651857759874829e+00 -1.125091353751128942e+01 3.802162841318806130e+01
7.971258677817037785e+00 -1.104676989371681373e+01 3.858921514947182629e+01
8.558511209611484816e+00 -1.168699428103650639e+01 3.618379541785998299e+01
9.742203933203226640e+00 -4.420014078933040658e+00 4.536580391392736544e+01
8.729626074472063735e+00 -5.615545379073494381e+00 4.470779670783044679e+01
1.088133679584989189e+01 -2.034842500621286021e+00 4.627682693012685888e+01
1.006602459245278247e+01 -3.475989162124100584e+00 4.573985702279336607e+01
8.320105459378378754e+00 -8.381375797689278428e+00 4.326105427914402668e+01
8.073563332112810187e+00 -6.610117968880650174e+00 4.415412832925837705e+01
7.668092569009724357e+00 -1.037367750185578963e+01 4.020727371624646196e+01
7.576745622697925953e+00 -1.021648222572272857e+01 4.046761342143701512e+01
1.018542237590763477e+01 -1.145865774845455576e+01 3.172082118606685341e+01
1.019319536023661144e+01 -1.164159301471738850e+01 3.235193563679636242e+01
1.005525905378249618e+01 -1.192788426988609807e+01 3.364969752711124329e+01
8.691440242171196928e+00 -1.180076729843085026e+01 3.522797177738644336e+01
9.848227156440747976e+00 -1.191564683292053495e+01 3.312229263391914458e+01
8.268728196284007126e+00 -1.142933201939137255e+01 3.732618759249227480e+01
9.246257425141267916e+00 -4.809472926412637683e+00 4.515119176948847013e+01
9.640451637737443846e+00 -3.882273074385797162e+00 4.555112751851439867e+01
7.996859562558473300e+00 -7.379172585501697412e+00 4.379229543545992698e+01
1.037241381618501990e+01 -2.493793779120379472e+00 4.613727124611057206e+01
8.033742112561037985e+00 -7.767410828767580711e+00 4.364032751013611744e+01
7.795182041982765320e+00 -9.451541157564737006e+00 4.194878972175011711e+01
7.790352706104735958e+00 -9.098825711262062299e+00 4.238664657836830685e+01
7.746453314565401094e+00 -9.911359641456257918e+00 4.114821057163979390e+01
8.369627931918468988e+00 -1.174050542590827995e+01 3.549701971139841561e+01
8.804425510735500282e+00 -1.183607360303041212e+01 3.491565901654180237e+01
7.748671352140579671e+00 -1.125503583816194286e+01 3.762425586491574592e+01
7.567638784290475762e+00 -1.110190470175465371e+01 3.804997160835001324e+01
9.434874362201572495e+00 -1.189504560089757312e+01 3.353972816877016783e+01
8.248869382034976994e+00 -1.161332609705699070e+01 3.646238915520536494e+01
8.149970767477967115e+00 -1.154216858801563284e+01 3.676077934889206489e+01
8.697957319849770386e+00 -5.094705532788091240e+00 4.491853707409065777e+01
8.071244832983868633e+00 -6.224827002295364231e+00 4.432395254988573896e+01
8.194749347140954043e+00 -5.805705404737695474e+00 4.452073619448505326e+01
9.801457039040547770e+00 -2.831446983897953906e+00 4.596870031188472439e+01
7.819955010719859878e+00 -8.089207533652478688e+00 4.332834155044464097e+01
7.800819837552840141e+00 -9.653182426713208031e+00 4.167484121480540438e+01
7.094400264170158898e+00 -1.026757326753733501e+01 4.010247848654937997e+01
7.377183152966236612e+00 -1.064052961357167604e+01 3.930518660693753930e+01
7.318856519741441247e+00 -1.081896397465972193e+01 3.879365116265819324e+01
9.664691671744174428e+00 -1.177838827156941726e+01 3.256143846081570103e+01
7.806451243243957450e+00 -1.138756010051308465e+01 3.712100138268605320e+01
8.601011191930327371e+00 -1.183507912495680081e+01 3.438371872642390770e+01
9.021067819213541839e+00 -1.187444400786545451e+01 3.395715422905025349e+01
9.214342538874221944e+00 -4.289013263601324510e+00 4.536182265932687585e+01
9.577209013946868410e+00 -3.387816084229916758e+00 4.573712285635696873e+01
8.148662707529751970e+00 -5.379762863669173001e+00 4.468582336556280410e+01
1.025351919285304447e+01 -1.917720174029430069e+00 4.634668524768211739e+01
7.769451092830711225e+00 -8.486762409361125137e+00 4.300944281879461073e+01
7.393011712320677553e+00 -6.988982454987467285e+00 4.384934551706679429e+01
7.785526567211515037e+00 -8.746188806527223747e+00 4.282447477511433220e+01
6.995421403422843909e+00 -1.046183964245769715e+01 3.952264074373991320e+01
7.140196781064697795e+00 -1.002262831345286109e+01 4.059853448220581384e+01
7.386164010667294555e+00 -1.094879044794370415e+01 3.847569917883559754e+01
7.224768143864467973e+00 -9.062995601261627954e+00 4.217341438590875669e+01
9.481132324495856523e+00 -1.164112356593419939e+01 3.200056483418019582e+01
8.180590563695020023e+00 -1.179420711905875230e+01 3.481024483162890704e+01
9.228318922260829282e+00 -1.188280782432869565e+01 3.301232517472854511e+01
9.364697415124631164e+00 -1.186563998351958027e+01 3.275131628047386556e+01
7.284384850160638081e+00 -1.125919693389976395e+01 3.722663325191465589e+01
7.207852589273720412e+00 -1.110100378755804229e+01 3.775730798431379753e+01
7.750407574484261986e+00 -1.159303657929855724e+01 3.605417582606607851e+01
8.666167514916054415e+00 -4.573920890089897995e+00 4.512927766724575207e+01
9.179816686867591002e+00 -3.723339276760706529e+00 4.557745322880357008e+01
7.448385708844634578e+00 -6.412024115778200972e+00 4.412068551204244216e+01
7.339521298791910731e+00 -7.565668368399251165e+00 4.357820696066933408e+01
9.682370945734687595e+00 -2.255073019808439660e+00 4.617815219372076285e+01
9.145290542186723215e+00 -3.157874230917924852e+00 4.579302164022791288e+01
7.231761862893175241e+00 -9.533238370835096731e+00 4.159006768449558678e+01
7.185967425846942369e+00 -9.777939833178232121e+00 4.109421933106477098e+01
7.217772080214317043e+00 -8.592433432977051311e+00 4.275730006892025159e+01
7.716459949960849052e+00 -1.168341298937839312e+01 3.522800069396051015e+01
7.552370373476593457e+00 -1.145068348549355974e+01 3.665103125557610042e+01
6.800517628012396010e+00 -1.085079362279328841e+01 3.836196002086589374e+01
8.469718779889499061e+00 -1.184439336395432107e+01 3.353224932178722639e+01
8.717648091810787037e+00 -4.040844379827726485e+00 4.536801177748732528e+01
8.117424608102121297e+00 -4.858984456608329339e+00 4.489659154504633420e+01
7.509186080939021402e+00 -5.777686634100910545e+00 4.439239316063215313e+01
8.683536636412405585e+00 -3.475386759124099889e+00 4.558361825802720801e+01
7.278646550072239485e+00 -8.078950853019845724e+00 4.316775606941833843e+01
6.559329914016100993e+00 -1.025253436420613973e+01 3.967505660371141119e+01
6.898144054571202943e+00 -1.065633014848039117e+01 3.894221539725246828e+01
7.251604723975866307e+00 -1.157276206006256380e+01 3.564569907500989387e+01
7.977272128054148759e+00 -1.179285937794342942e+01 3.427831377505062704e+01
7.567984197739339614e+00 -5.144156398054884782e+00 4.466380690105434326e+01
9.654642060647518065e+00 -1.654633332484415575e+00 4.641966590124242487e+01
9.110780782144614065e+00 -2.592722055012868676e+00 4.600848542105662631e+01
8.649302661973429451e+00 -2.909892331059597215e+00 4.579923924734760021e+01
6.822483425424182180e+00 -6.424686482155460787e+00 4.396304833102247045e+01
6.490600204131080631e+00 -1.007913941031991278e+01 4.001052394768944964e+01
6.675399533887762082e+00 -9.773949024778055161e+00 4.072312033792901786e+01
6.501616917419471342e+00 -1.043327435709494999e+01 3.916617509686887644e+01
6.721136853166331804e+00 -9.529208461435883848e+00 4.121882187350081495e+01
6.625046922431335084e+00 -8.957539104736177649e+00 4.199166795793311024e+01
6.686120680992869048e+00 -8.603354937657744728e+00 4.246571803305391057e+01
8.881127265483915068e+00 -1.181562993360100577e+01 3.238032162163406724e+01
8.607917521037851571e+00 -1.184996871570484345e+01 3.290235842632186092e+01
7.574959631444023067e+00 -1.172372676753726672e+01 3.471278204082396712e+01
6.652502972491571853e+00 -1.098974443713681914e+01 3.771826035594730087e+01
6.820221787454615381e+00 -1.126339326028543830e+01 3.682913454686304533e+01
7.773894350205238446e+00 -1.179000397350295337e+01 3.374636287579860294e+01
6.954174301049696361e+00 -1.135915068357843971e+01 3.654121562700785830e+01
6.804070891732874493e+00 -1.142014466789130900e+01 3.603858549546319523e+01
8.169552225957032121e+00 -4.325852410705348206e+00 4.513541963580504301e+01
8.221234676147640030e+00 -3.792846488197571198e+00 4.537414982546469844e+01
6.913844008095779259e+00 -6.130790277920779019e+00 4.411130396550114341e+01
6.742766303625306712e+00 -7.290236202586930503e+00 4.355618455879080386e+01
9.083270281352445963e+00 -1.992417901168099803e+00 4.624993901154871878e+01
6.799376894448047715e+00 -7.560631214863001048e+00 4.338777847720312053e+01
6.563973732187209364e+00 -9.311840999207303682e+00 4.151759645563178225e+01
6.685974606334957215e+00 -7.944942459801060508e+00 4.305611203712097534e+01
6.572573036338553720e+00 -8.329393383944946549e+00 4.272444541579595523e+01
7.642218613721857068e+00 -1.176211239268162778e+01 3.439848161124231041e+01
6.752877815355819990e+00 -1.155252259251769509e+01 3.523729205271423126e+01
6.504310289620078400e+00 -1.112861274559682023e+01 3.707503247219062814e+01
6.333078565603452503e+00 -1.082575872388970950e+01 3.797507589105619985e+01
7.918361412870035920e+00 -1.181434216360760381e+01 3.310733557706844721e+01
8.187202557210822462e+00 -3.227433170451231348e+00 4.558973826320617206e+01
7.620595488309525933e+00 -4.610734416853154549e+00 4.490275352730096614e+01
7.005050586817129776e+00 -5.180045030327786293e+00 4.451860826760377421e+01
6.694703867310509260e+00 -6.838501217288221135e+00 4.374667284536786838e+01
8.502954612517978461e+00 -2.200443163353202447e+00 4.606300668607651261e+01
6.269157838798239624e+00 -9.779422252695685103e+00 4.041166621803935044e+01
5.886872568468538347e+00 -9.890764501664909503e+00 3.991851280084508602e+01
6.192681356960090255e+00 -1.050693088197634850e+01 3.870983268768662100e+01
6.204386679234158208e+00 -1.068626533491023345e+01 3.826297134880096706e+01
6.024410380525364594e+00 -1.023756397378540406e+01 3.924775357893157945e+01
6.154865326086489397e+00 -8.614330976856509281e+00 4.217433582178339435e+01
5.896107204363667087e+00 -9.090438653996658402e+00 4.144504946336936513e+01
8.397476520145195522e+00 -1.176561945645949692e+01 3.200932875223697494e+01
7.570465213839481677e+00 -1.178714761402063615e+01 3.321439700256920702e+01
8.206346408640831314e+00 -2.713070763205235103e+00 4.580266143978081317e+01
7.672873401260601689e+00 -4.077784377149220596e+00 4.514151374078191736e+01
6.873938420213856482e+00 -5.636086244764229036e+00 4.430285441318206807e+01
9.055748023674192737e+00 -1.391558176086026277e+00 4.649163469194854059e+01
6.381527866325506615e+00 -5.849769295835762328e+00 4.410190500057499463e+01
6.210605275972743478e+00 -9.525269398404208943e+00 4.084763393749783944e+01
5.622779876816729860e+00 -8.625395295998711021e+00 4.188248169709310531e+01
5.928359266898445945e+00 -8.066762835203121540e+00 4.269159713532438616e+01
6.259178014529912737e+00 -7.555635016836333762e+00 4.319730404019678360e+01
6.969012625705246933e+00 -1.165324384103665878e+01 3.461530586574901491e+01
7.103810501721146586e+00 -1.172879063278710099e+01 3.398671058056281424e+01
6.355779992886938068e+00 -1.126763237992461342e+01 3.643140871139573989e+01
5.866088206401037120e+00 -1.080077714135965117e+01 3.758856179448707024e+01
7.987496913338310023e+00 -1.181712931681830270e+01 3.279238743254081356e+01
6.155732090618040608e+00 -1.134897344592585355e+01 3.576102756082909906e+01
7.724984968858932710e+00 -3.544958305324355408e+00 4.538023929360722519e+01
7.781683795836632278e+00 -2.965502662355997021e+00 4.562616197692815945e+01
6.955312728019374724e+00 -4.765496553877386354e+00 4.466975687370958070e+01
6.145192908914471452e+00 -7.014426408398003687e+00 4.353409846180404941e+01
6.198144197508269393e+00 -6.437394403339324889e+00 4.380529333385549506e+01
8.475215722783147498e+00 -1.599775707034134964e+00 4.630453660290517348e+01
5.700336968577491170e+00 -9.521432402664888883e+00 4.047662994663317448e+01
5.692521447148689795e+00 -8.308064282477237938e+00 4.228758207460309393e+01
5.710934524825758807e+00 -9.273987002250231981e+00 4.095704236999472414e+01
6.253854879789542132e+00 -1.153230487413382122e+01 3.482865416885760368e+01
5.892603378838082051e+00 -1.100395169134652740e+01 3.689466250346516318e+01
7.366994620392969040e+00 -1.178429007177863141e+01 3.268241903590386954e+01
7.235072580644150264e+00 -3.162841403332025791e+00 4.541092562639677510e+01
7.838235757478818400e+00 -2.386872184233622907e+00 4.587175408213598615e+01
7.008244966682762644e+00 -4.232382163215366866e+00 4.490860984441582104e+01
6.441612201233248847e+00 -5.215933219896448314e+00 4.437348378258446502e+01
5.307026506235330565e+00 -9.912283589188263022e+00 3.936950436741209813e+01
5.282954848622917865e+00 -9.702366819618255533e+00 3.982640730251711858e+01
5.607549037152979032e+00 -1.052168108932245261e+01 3.816388953641424564e+01
5.489276021138500994e+00 -1.022265753150542267e+01 3.882027781302971192e+01
5.228121373672082406e+00 -8.869020685871500831e+00 4.137241889278960372e+01
5.719072212062816796e+00 -7.550687817402407909e+00 4.300683387250954581e+01
7.640368105440457747e+00 -1.174994959823893126e+01 3.216037907046752053e+01
5.955399211268236570e+00 -1.143047972080486829e+01 3.509045225538117307e+01
6.362371892630080517e+00 -1.158271469969877465e+01 3.451775605064006669e+01
6.966461648049338429e+00 -1.173980995299938357e+01 3.312868600636380734e+01
7.292272155877102868e+00 -2.583786068699601035e+00 4.565679666589868191e+01
7.060818284125117472e+00 -3.699326350906262384e+00 4.514746205718407879e+01
6.342767010733959765e+00 -4.386975451179690566e+00 4.467567536533648820e+01
7.894773840913728691e+00 -1.807983314050508383e+00 4.611747219667944364e+01
5.190008566233871079e+00 -9.517710935747821566e+00 4.010556989353506907e+01
5.117684422403004696e+00 -8.267583199918913550e+00 4.203313227881351821e+01
5.150231244400042208e+00 -9.228960791001524555e+00 4.062728753101354329e+01
5.283180933446375960e+00 -7.803743180948879754e+00 4.265865874207206332e+01
5.864276627422071897e+00 -1.122970106837887450e+01 3.603284252830127343e+01
5.398743233302202960e+00 -1.077580820652630322e+01 3.720164328381574848e+01
5.766773526627968494e+00 -1.112601713708517437e+01 3.633407030192840637e+01
6.565371825579568998e+00 -1.169532846164036144e+01 3.357493600226023034e+01
6.745856878222569186e+00 -2.781296615110071535e+00 4.544154403861147529e+01
6.110624938909174020e+00 -4.819382550943467791e+00 4.445200124737230141e+01
5.711929977814598658e+00 -6.009382999001815051e+00 4.387010177274158451e+01
5.547636910464066595e+00 -6.738624870910182807e+00 4.351197892056796945e+01
6.395958045620249166e+00 -3.853783820653163605e+00 4.491457580593638710e+01
8.532766971115350429e+00 -9.714243977211536318e-01 4.657837062498307290e+01
7.348789310469772573e+00 -2.005045633204966649e+00 4.590241145542921686e+01
4.679394877132661890e+00 -9.514121908135477312e+00 3.973428520354616467e+01
5.286360771277432313e+00 -1.058508084249793590e+01 3.765825787478493680e+01
5.091559773424293667e+00 -8.636526400984489982e+00 4.159108244206665717e+01
5.178862663900669183e+00 -7.545802486838502965e+00 4.281629223496294401e+01
5.363248640920636134e+00 -7.142137569139317854e+00 4.316413783051283559e+01
5.372621626550941443e+00 -1.119178504739683611e+01 3.563414770489759320e+01
6.160465539444106575e+00 -1.160500230075086670e+01 3.399755968651916760e+01
5.754953170156190900e+00 -1.151213007823309198e+01 3.442011628581102656e+01
6.763060286633298723e+00 -1.173695083946117279e+01 3.259665337232726756e+01
6.570989866355575693e+00 -3.317438436057242868e+00 4.517808113486316302e+01
6.802827632312265393e+00 -2.202070108410105309e+00 4.568740982140946016e+01
5.849172590975942221e+00 -5.568726667562827970e+00 4.409248204106607716e+01
5.574704943756995768e+00 -6.450140874238645239e+00 4.364770620830142889e+01
7.952126249321030294e+00 -1.179625957087766741e+00 4.639122965107296181e+01
4.999350723336043245e+00 -9.998194658238382715e+00 3.890878472779149888e+01
4.592845056223085365e+00 -9.740354708854125576e+00 3.914505038305078699e+01
4.954497998464407971e+00 -1.020783745211659088e+01 3.839308552782515704e+01
5.012668581104041010e+00 -1.035735235207224392e+01 3.806489782548516843e+01
4.600133610775411164e+00 -8.936491522208328320e+00 4.077785765171537236e+01
4.612595321659417991e+00 -7.909772201328303609e+00 4.218374915127501623e+01
4.794470932332954405e+00 -7.002034022691843163e+00 4.305763138727014194e+01
5.404950467123433633e+00 -1.130559113974352847e+01 3.507633521075459981e+01
5.444589872169754763e+00 -1.092697349153746522e+01 3.671192779378633730e+01
6.026872397141838533e+00 -1.166186410321505207e+01 3.316313328920227121e+01
5.876877424772654734e+00 -5.251856049844800367e+00 4.422831464544753288e+01
5.729950951876028320e+00 -4.008351099051235877e+00 4.468156698054781373e+01
7.361890878238807723e+00 -1.233359899728029285e+00 4.620563347088035044e+01
4.639777002661951144e+00 -9.225379901492003043e+00 4.025585350305107823e+01
4.560509276955005298e+00 -8.647753880507179858e+00 4.129975484382479323e+01
4.586555625890015087e+00 -8.278641965515905810e+00 4.174182105521716579e+01
4.638639188478210329e+00 -7.540989872797837279e+00 4.262570876438743284e+01
4.950409569839071544e+00 -6.462975356697494789e+00 4.348983691278549202e+01
5.317107086714127462e+00 -5.287838272795252870e+00 4.408303982034358626e+01
4.881264351646914967e+00 -1.115392057219800925e+01 3.523568569239671433e+01
5.177630666327454279e+00 -1.098443564762525781e+01 3.623674626971580182e+01
5.486508458820090972e+00 -1.154154884459895847e+01 3.372634143300214049e+01
4.790157083802943916e+00 -1.052535028311592669e+01 3.734656703734651018e+01
6.081124714644824181e+00 -2.935552751428101903e+00 4.520867706499898730e+01
6.256069701688160123e+00 -2.399331823243868733e+00 4.547217471118464971e+01
5.521490751848643797e+00 -4.648153083561466836e+00 4.438225397105485825e+01
5.133703918384550313e+00 -5.875426696669644677e+00 4.378639299004357355e+01
5.905842865039509171e+00 -3.471922531736988393e+00 4.494512481310221830e+01
8.009485887611615951e+00 -5.510870685155824233e-01 4.666508900350756761e+01
4.506279463222141679e+00 -9.966692805325971349e+00 3.855555520443854789e+01
6.158873458238399934e+00 -1.168961122838784306e+01 3.251088544186740137e+01
5.237187073076239763e+00 -1.146601565645621967e+01 3.401778044195285133e+01
5.024879360471175893e+00 -1.127399388488191967e+01 3.478039653390754893e+01
4.931723192434435354e+00 -1.075088812791371318e+01 3.681499678253541674e+01
7.419308394691193520e+00 -6.048208194045370245e-01 4.647945593243245810e+01
4.083480154967013220e+00 -9.267669979764507460e+00 3.973192225086091867e+01
4.167004221437212053e+00 -9.447304438938825655e+00 3.943480434955723979e+01
4.419709738996496107e+00 -1.019310152953448778e+01 3.796588179117200923e+01
3.988508218524194238e+00 -8.574365851679923267e+00 4.098429999853883032e+01
3.952540298320137868e+00 -8.898130950837504827e+00 4.033535251406476618e+01
4.070409245393243225e+00 -7.479870865381876399e+00 4.235011800361971268e+01
4.352232955513628987e+00 -6.382675042393497478e+00 4.330134612659901450e+01
4.102954195261634851e+00 -7.245266340663436111e+00 4.261003895051032941e+01
3.958569575135529650e+00 -7.897950739482316962e+00 4.179914529216873831e+01
4.150251286904238945e+00 -9.668593256291847737e+00 3.891827651409054312e+01
4.734962098865160840e+00 -1.099838030809200617e+01 3.568758306215079301e+01
5.168132441575186142e+00 -1.139418193704372051e+01 3.432507734667201049e+01
5.087402443430688592e+00 -3.944960841497541448e+00 4.452853775444152973e+01
5.278982620022695471e+00 -3.629604972049768286e+00 4.469026954308434796e+01
7.607445397065616177e+00 2.281972616622103545e-02 4.676956067023647989e+01
4.006909900339815422e+00 -8.365178948855383823e+00 4.128915112037110191e+01
4.136802412082801972e+00 -6.783816659062885890e+00 4.293931844733987191e+01
4.751785397763534036e+00 -5.216401072561126284e+00 4.395411992280654800e+01
4.779663281558277355e+00 -4.904564895005034231e+00 4.407953333793614803e+01
3.856220847046561317e+00 -9.977165783240602437e+00 3.795986129289968147e+01
3.755364401108717054e+00 -9.678846049635794202e+00 3.854760921682431274e+01
4.354956026174273909e+00 -1.096557418945742590e+01 3.539341397431422820e+01
4.588232431690634883e+00 -1.084285946596466133e+01 3.613942888427044409e+01
5.218055563864668400e+00 -1.156823777859315427e+01 3.303279603312407886e+01
4.389869794848106466e+00 -1.111608244908134324e+01 3.483718728139429999e+01
5.673771178924027048e+00 -2.422585110015006205e+00 4.528316819375888969e+01
4.335225864294354636e+00 -6.079758495698423637e+00 4.347695904474701223e+01
4.840503147113905058e+00 -4.390414111703020872e+00 4.429199968194615167e+01
5.416046381841571389e+00 -2.994907842214394211e+00 4.498013316041942744e+01
3.654521955778014863e+00 -9.380541810590727891e+00 3.913526072679601953e+01
4.276680788185067250e+00 -1.036229308165991014e+01 3.732545855249073696e+01
4.453285986907894234e+00 -5.613309920498342542e+00 4.370469857388628299e+01
4.580793880309586008e+00 -1.127618068241767446e+01 3.422998690310695480e+01
4.137621495535565685e+00 -1.053166897517708023e+01 3.668425290710830211e+01
4.464744805562514962e+00 -1.072600518989303531e+01 3.642838317156260075e+01
3.998102063604398015e+00 -1.070117636829719210e+01 3.604204734364196838e+01
3.487632004725396140e+00 -9.021304654714043636e+00 3.972955286891643567e+01
3.937063839853623293e+00 -1.013686832288134276e+01 3.760009356560629357e+01
3.416314780287522002e+00 -8.501116551987527359e+00 4.066873946697553066e+01
3.454108877315336112e+00 -8.083050474723092904e+00 4.127854511013047301e+01
3.567369684326072488e+00 -6.949605347783332832e+00 4.259435144159314035e+01
3.501581975664862068e+00 -7.418818917668827062e+00 4.207422113868700819e+01
3.753982107142773028e+00 -6.302416007313973445e+00 4.311280428715027568e+01
4.186884627735447673e+00 -5.145040381363388704e+00 4.382526408401378859e+01
4.827579502823795998e+00 -3.250547104948856791e+00 4.469897516327812781e+01
4.444409597365158504e+00 -3.881601589782682105e+00 4.437551788705118838e+01
3.366834674802563043e+00 -8.737889866196329791e+00 4.017596048520296392e+01
3.395938067269129945e+00 -7.725817602333070688e+00 4.165546775462242124e+01
3.720984989608972171e+00 -5.697126270235502332e+00 4.346408331790256341e+01
4.242345633514163161e+00 -4.521383257401605960e+00 4.407601872920731267e+01
3.292665489201990869e+00 -9.761251058576876360e+00 3.795383491782465057e+01
3.141178594074937269e+00 -9.313739034338857081e+00 3.883520549641730923e+01
3.832060005712719875e+00 -1.029538226896245945e+01 3.703154251255331531e+01
3.801416422678046469e+00 -1.081420387524673821e+01 3.537490066995479765e+01
3.898516755727848171e+00 -1.107827923976235951e+01 3.443870998290099550e+01
3.507539887753146068e+00 -1.032390828213953959e+01 3.659344275433648619e+01
4.885973957224815756e+00 -2.821448169480314405e+00 4.488427949756918878e+01
5.091745942465819574e+00 -2.445831355132919605e+00 4.509434967337831068e+01
3.063949837193183257e+00 -7.032183864664863115e+00 4.221008058270874130e+01
3.156289136169339482e+00 -6.222294106239276701e+00 4.292440941741234184e+01
3.135881001077976737e+00 -9.516219575301102296e+00 3.837151741658205140e+01
3.454067549976673757e+00 -1.008061323847807600e+01 3.723401987473403807e+01
3.016515488030322878e+00 -9.044390554157009987e+00 3.928122644388276541e+01
3.604341016876259740e+00 -1.092731190972011035e+01 3.470756734440361413e+01
3.505710325373689429e+00 -1.063846196983728554e+01 3.566613696950194168e+01
3.379237306673896324e+00 -1.048978584089078758e+01 3.597399077242716459e+01
2.843774435907046261e+00 -8.428016186128681753e+00 4.035298907720884642e+01
2.891867148385550479e+00 -8.775043413127031400e+00 3.972717395234330695e+01
2.872547181900651836e+00 -8.114453100023052201e+00 4.081047372641920390e+01
2.901330876023697325e+00 -7.800980817036863080e+00 4.126792002068144427e+01
2.933152305706851593e+00 -7.357965707636438424e+00 4.179850726480491829e+01
3.031761403478452355e+00 -6.653933650650142972e+00 4.257864615070070613e+01
3.621946166406595058e+00 -5.073702669685419941e+00 4.369636528636439010e+01
3.618590461811837855e+00 -4.683837658693179584e+00 4.384263781528937187e+01
4.087070138132550490e+00 -3.344785772149539316e+00 4.446498121748344801e+01
2.628221658082037671e+00 -9.247064696176677145e+00 3.853536770313245086e+01
4.376123344225715250e+00 -2.871502592982267732e+00 4.470767632582426643e+01
3.805784023348172784e+00 -3.818170834187306184e+00 4.422222863148098781e+01
3.704969297305017673e+00 -4.138161189093861658e+00 4.407249483987371264e+01
2.937210241130345789e+00 -9.807550323625923383e+00 3.743880297758850872e+01
2.729411828464856082e+00 -9.545501440235634405e+00 3.794780985200068812e+01
2.424835555447458102e+00 -8.836209214782117627e+00 3.920446869598535500e+01
2.970939039527002112e+00 -1.002436175908015947e+01 3.686782628734030709e+01
3.156667231359375325e+00 -1.075503036867134021e+01 3.479701723254311219e+01
2.943790227938470672e+00 -1.018467676689130030e+01 3.637761227361551875e+01
3.012858502524972337e+00 -1.057570052379894143e+01 3.528987550585357980e+01
2.508909197174495453e+00 -6.852998616405032273e+00 4.206350311819204535e+01
2.831754211658229270e+00 -5.727932867539025530e+00 4.309343231448322342e+01
3.105888915533713046e+00 -5.313962113209870886e+00 4.345116979731038498e+01
2.296113465178462043e+00 -8.528867417465804124e+00 3.972478488113663531e+01
2.760381107825030877e+00 -1.027846056248030848e+01 3.590590332690589292e+01
2.303746040996252464e+00 -8.006613543540785471e+00 4.054590126976277276e+01
2.271854538623456321e+00 -8.355229024542698113e+00 4.003757858873397169e+01
2.347962825296423972e+00 -7.518665590326540915e+00 4.125726389520627180e+01
2.364076252069815531e+00 -7.297251205741667412e+00 4.152245879836346631e+01
2.557626581088733975e+00 -6.142127496682045162e+00 4.273567398463778488e+01
2.495770150555468359e+00 -6.358055382789933319e+00 4.256291086914248467e+01
3.057008896811468368e+00 -5.002401947983650565e+00 4.356742851405483208e+01
2.829320391119154898e+00 -4.342693265678077452e+00 4.375370365744749535e+01
3.167394595247415179e+00 -3.754795352915930362e+00 4.406896203137278434e+01
3.417422577409230389e+00 -3.333897010845720654e+00 4.428481093751498321e+01
2.079886752453466769e+00 -8.910166350374089106e+00 3.875950290944688703e+01
2.487648184527840201e+00 -9.968110918024438050e+00 3.650148862191142030e+01
2.326930214656702578e+00 -9.648957860205907622e+00 3.722169635844143443e+01
2.166235307835279400e+00 -9.329835060524599655e+00 3.794178589290511638e+01
2.115044308156653230e+00 -9.180449422081634836e+00 3.823538675244211760e+01
1.700339804365633478e+00 -8.282774328513848872e+00 3.972239147222441602e+01
1.667707696285376517e+00 -8.559756795904837290e+00 3.912714808968218705e+01
2.415153645078142564e+00 -1.031497771755987358e+01 3.539666913395316072e+01
2.520081577476849688e+00 -1.051296048529015792e+01 3.491365685835097565e+01
2.491191143545513409e+00 -4.931040673184248213e+00 4.343824755365913859e+01
2.225628510200940990e+00 -5.496098330026381262e+00 4.299296640674161551e+01
2.582094060081667308e+00 -1.066209649726174824e+01 3.443244741734777392e+01
1.984710927267077318e+00 -9.736807830947412867e+00 3.660454921218585156e+01
1.732020803807704512e+00 -7.934026351362160057e+00 4.023047467348996520e+01
1.959778827559316206e+00 -6.062183150487030936e+00 4.254715612743444808e+01
2.634739567826425155e+00 -3.589843216940828974e+00 4.392204331127062034e+01
2.746766495127134000e+00 -3.270876965940656689e+00 4.404911690506171595e+01
1.635097272872482854e+00 -8.836776715888383649e+00 3.853173245355858967e+01
2.141205144180614806e+00 -1.006709057042172795e+01 3.583760948257512524e+01
2.004849529396869112e+00 -9.911938592022361050e+00 3.613549814648490610e+01
1.895241779144458016e+00 -1.021617273847879126e+01 3.509920775612210520e+01
1.994457150213354124e+00 -4.430623019674230001e+00 4.341229445224254846e+01
2.211829154550552623e+00 -3.943710180034282864e+00 4.364995044214798980e+01
1.582296783529905326e+00 -9.299518703150543075e+00 3.739400810028702438e+01
1.602482725225836235e+00 -9.114008573119598111e+00 3.793575292151187739e+01
1.562140983238720970e+00 -9.484868671855016586e+00 3.685268633036365316e+01
2.027632683602539565e+00 -1.045027504280024644e+01 3.453765888008501150e+01
2.102632277455415810e+00 -3.425066177637368980e+00 4.377525381402384852e+01
1.541994769463383541e+00 -9.670229602213742837e+00 3.631128275942894845e+01
1.521954375239285451e+00 -9.855762998233423389e+00 3.576932114088023695e+01
1.025760474791036270e+00 -8.852483917509777811e+00 3.794932826992687325e+01
9.810249868266839313e-01 -9.219531075547232390e+00 3.695959026998952623e+01
1.002880442301102626e+00 -9.015465465671901768e+00 3.755527654028329465e+01
9.591837310986077725e-01 -9.423604739163799593e+00 3.636381973229107700e+01
9.390996652298653213e-01 -9.609069271838791337e+00 3.582204808701489185e+01
4.034009771487240825e-01 -8.916955317699896355e+00 3.717474707757906316e+01
4.490230656526431607e-01 -8.591013233951597883e+00 3.796290260461238120e+01
3.798082712069000832e-01 -9.139645745805434984e+00 3.652480902890444270e+01
3.562304369096117584e-01 -9.362347867163261839e+00 3.587468937855666695e+01
-1.959077696221054876e-01 -8.818484497376728015e+00 3.679417823776305596e+01
1.415577915380399965e+01 -9.828576186712166818e-01 4.587732902265895518e+01
1.375558883776187535e+01 -1.161204323561417562e+00 4.593384394380984048e+01
1.295618069237128545e+01 -1.404080585155324856e+00 4.603764616608759042e+01
1.354222899523414192e+01 -6.288370825394368202e-01 4.596037741331819149e+01
1.314250217721378355e+01 -7.501061504684835013e-01 4.601227329289586265e+01
1.252505865886981162e+01 -1.463915890475682602e+00 4.609191086144873850e+01
1.332870780643640352e+01 -9.648364299295147939e-02 4.598689698273851434e+01
1.228001813535838949e+01 -8.693945662358030235e-01 4.612081999149251033e+01
1.268208363198368893e+01 -1.856205963469954590e-01 4.606834408518545132e+01
1.168396700736089855e+01 -1.526592725124673144e+00 4.618791397821782851e+01
1.185937913943251232e+01 -9.008679274178570395e-01 4.616882106962344778e+01
1.270102523235187242e+01 4.373444755493207659e-01 4.606903129600120650e+01
1.203486236658598685e+01 -2.748299264595398528e-01 4.614971619771833389e+01
1.318620691741919870e+01 5.039947522917452849e-01 4.600793074635007684e+01
1.114454609459235712e+01 -1.095932663040713573e+00 4.624818345483308946e+01
1.221581425076051808e+01 3.706962623764720743e-01 4.613004713678123636e+01
1.344886069382548754e+01 5.792158580299111570e-01 4.597294639902570879e+01
1.069909513045794291e+01 -1.506765398435197634e+00 4.629742362429883684e+01
