2.190936127495627161e+01 6.874972719989560943e+00 4.255051148382892734e+01
2.164274503826493046e+01 8.356210852903904751e+00 4.220601423796689033e+01
2.220673582530741896e+01 7.061615041455008068e+00 4.215725776620210041e+01
2.203637226338693367e+01 6.190133872778150526e+00 4.265486910008845456e+01
2.205333576800531858e+01 6.885042664012272162e+00 4.241541218874219510e+01
2.232439800307548694e+01 6.209996263716280218e+00 4.238467787407329013e+01
2.216360892101733171e+01 5.504062030776404768e+00 4.275941469383087679e+01
2.259566860462509652e+01 5.534379602990390445e+00 4.235392042662203238e+01
2.240129294449361197e+01 6.297644652521801945e+00 4.225563446236994025e+01
2.279061213377205775e+01 6.131244720274588111e+00 4.190759072541568031e+01
2.260003322443343166e+01 6.757856097224001601e+00 4.183233967482026117e+01
2.225446311949234968e+01 7.244931185653175731e+00 4.204000136164507495e+01
2.051637839585409395e+01 9.678807950754684697e+00 4.297455084244430168e+01
2.101550067891002271e+01 8.485712338887418937e+00 4.341825164381782542e+01
2.078089669383646054e+01 8.921380341372076472e+00 4.371973199121115528e+01
2.328297214476491561e+01 4.549805106938701549e+00 4.135534868048374335e+01
2.273883790253772830e+01 6.085127595770101649e+00 4.200184658509127900e+01
2.249655082374145465e+01 6.665282083728776286e+00 4.202092948864881805e+01
2.182344005586450919e+01 4.751392458595216972e+00 4.340260916305992822e+01
2.191340223325802583e+01 5.500789921320445863e+00 4.306206490784843055e+01
2.215706585338195111e+01 4.755742305377419932e+00 4.299904493289854202e+01
2.230800765408288910e+01 4.877732875255966327e+00 4.283450137909161981e+01
2.118259581881162745e+01 6.645288511460400116e+00 4.460220452042203476e+01
2.245223280587649839e+01 4.252061668521425197e+00 4.290951012445496815e+01
2.215051813746830689e+01 4.008270733313667122e+00 4.323840583227715939e+01
2.198378274864085213e+01 4.005942554369552155e+00 4.344015661631006253e+01
2.340549330663912997e+01 3.704739914281681479e+00 4.172175869287443106e+01
2.352679129501283484e+01 2.610445435358510480e+00 4.134781249387314972e+01
2.330359519217267561e+01 4.450587790178141212e+00 4.153988296717157880e+01
2.363816565439998385e+01 5.509171082409531905e-01 4.077679188748406602e+01
2.366369239774142841e+01 9.349788830634995218e-01 4.106294364464292102e+01
2.307912513784494024e+01 -4.723727892376384574e+00 3.867242512796271114e+01
2.367037431667870706e+01 -5.296679873656794379e-01 4.069788151222739714e+01
2.338622058214271604e+01 -4.102988815948992674e+00 3.949601063173615501e+01
2.353074173180678130e+01 -3.499449646321307394e+00 3.972583301620399965e+01
2.155061616965957683e+01 2.849215640782483572e+00 4.413233787840159295e+01
2.092039095485819189e+01 1.891994070484833257e+00 4.487315336906839036e+01
2.109253131436704720e+01 2.479777583030959409e+00 4.460553845418675678e+01
2.011942729980585653e+01 1.162972911600770320e+00 4.564569149214316468e+01
2.052940822370633711e+01 1.191165207446682528e+00 4.525701741354589558e+01
2.109737078646250907e+01 8.570521980280354057e+00 4.416926715519481661e+01
2.096633342730067540e+01 9.198487025651463256e+00 4.410149241796580100e+01
2.012222144819431691e+01 1.012068533205669674e+01 4.316713621572311155e+01
2.012282104431880825e+01 1.018111844507781960e+01 4.307336156478308453e+01
1.972793768648888602e+01 1.056099498537768788e+01 4.336064156788899737e+01
2.120548227032308120e+01 7.293670932219776581e+00 4.441966792464555880e+01
1.870845927209551007e+01 1.157924577162053126e+01 4.357430544256298077e+01
1.883613371527951941e+01 1.134730289079772270e+01 4.370903807725866130e+01
1.826968723758727009e+01 1.096151476213642617e+00 4.720129875480270698e+01
1.811840780779946769e+01 5.181283696814068529e-01 4.709635700616639298e+01
1.912659202297165351e+01 -1.500265431752744946e-02 4.644596531528507199e+01
1.589567039999155185e+01 -1.300927064816203238e+00 4.837050554833896143e+01
1.676492560830049428e+01 -9.444465658839217292e-01 4.790005458003810190e+01
2.173663169982025778e+01 6.654273151768852479e+00 4.292168246045785196e+01
2.195024487711122063e+01 6.078857718634959717e+00 4.284050541758394814e+01
2.298101457845433160e+01 5.505209417808218930e+00 4.198277659993861022e+01
2.276435126495052330e+01 4.829954780769360134e+00 4.243496923355245087e+01
2.263192272406394778e+01 4.901251574409480227e+00 4.253021595516999298e+01
2.266818911668852721e+01 4.267796155248563039e+00 4.270660377036302435e+01
2.259635167958266422e+01 3.626747042745388949e+00 4.298447545832026861e+01
2.310660234365294841e+01 4.847689253456048064e+00 4.200317567317753031e+01
2.305349496630745421e+01 4.807647213079851767e+00 4.215660029371271378e+01
2.323219647498593687e+01 4.190104308237533992e+00 4.202357832648682745e+01
2.350718123733815190e+01 2.960394136698305090e+00 4.190327165092450912e+01
2.297598818538217103e+01 -5.282087429041916415e+00 3.857356875874868507e+01
2.284003746848894068e+01 -5.795264708005373855e+00 3.833033186975306705e+01
2.324160612022851424e+01 -4.706897472782731739e+00 3.926623423502297783e+01
2.354711977420715030e+01 -2.765857004669960428e+00 3.987831851928154947e+01
2.372805819840935726e+01 -1.225155569200290007e+00 4.090532342425345291e+01
2.369378931908547159e+01 -2.050581530162790322e+00 4.065679252101154617e+01
2.179061365937971928e+01 3.457456232822393005e+00 4.377272369020843001e+01
2.202216363093831220e+01 2.588158243738815756e+00 4.373836104724362883e+01
2.166457695382739246e+01 2.045128992881931840e+00 4.419716053842162751e+01
2.214395911812208340e+01 3.261078957914981480e+00 4.347768098936881387e+01
2.222930335010181935e+01 2.623778746423825581e+00 4.356712658151838014e+01
2.096541431940311639e+01 1.115215949864629685e+00 4.492750466526189967e+01
2.013889639188191438e+01 4.911739341371826884e-01 4.564004611635372299e+01
2.003990050166993697e+01 1.019878439599585107e+01 4.395635782745046072e+01
1.795419241394987253e+01 1.213220598228263114e+01 4.405825739307944389e+01
1.950572361556400480e+01 1.069228910447245084e+01 4.384653866288866908e+01
1.932633944837265716e+01 1.093260302275493956e+01 4.373974790300544413e+01
1.958681197863483447e+01 1.080839980584867988e+01 4.412267280449727025e+01
1.892422986510045391e+01 1.130415508606687780e+01 4.411897453194444552e+01
1.802445940958960335e+01 -2.158846381467099118e-01 4.714761051887224852e+01
1.961015394963415304e+01 -1.122050506984551138e-01 4.605118624601277588e+01
1.725303996429275344e+01 -7.022156706606736964e-01 4.765763471595406031e+01
2.293324450871195452e+01 4.124553126706868689e+00 4.251613154863100164e+01
2.270444173672288102e+01 3.634428333008844714e+00 4.288297015620636898e+01
2.312596879803448147e+01 4.110072092892662177e+00 4.233042987217293529e+01
2.335780297959196261e+01 3.531864359140829190e+00 4.204398592152002578e+01
2.360798612762446069e+01 1.964816265957543662e+00 4.134870340810273603e+01
2.368918063122053397e+01 1.319335209797740882e+00 4.134803934826285854e+01
2.372004144379748425e+01 5.307331342133979613e-01 4.134378806623788449e+01
2.309687168260580137e+01 -5.311288825881088194e+00 3.903648299396325427e+01
2.375089389127044370e+01 -2.573102127889660973e-01 4.133853535548346514e+01
2.378173903437927450e+01 -1.044413228584293307e+00 4.133266887612431617e+01
2.134949802491663462e+01 1.566739752302057864e+00 4.456815559070886934e+01
2.190026030627652531e+01 1.914735579108345354e+00 4.399923405415970024e+01
2.101030754744947160e+01 3.393553961380952888e-01 4.498157902365192484e+01
2.059732562138032463e+01 2.704188770130362685e-02 4.533758852016301688e+01
2.067693712956064900e+01 9.764640170963557964e+00 4.416227677697677478e+01
2.038727472305733102e+01 1.033090801506956424e+01 4.422307231753303114e+01
1.925584456631049690e+01 1.105719483985041940e+01 4.412080008755990690e+01
1.876081032649008051e+01 -3.044818198848406321e-01 4.667493484523453873e+01
2.010117924108023857e+01 -1.044783595511248053e-01 4.569870847960825699e+01
1.704968592985727582e+01 -1.343099645755899463e+00 4.770846002094431526e+01
1.656877640257994599e+01 -1.676618459871310529e+00 4.793845973193351284e+01
1.793046022925133087e+01 -9.492775055313159571e-01 4.719881225274171044e+01
1.754486353736064075e+01 -1.192228023440110363e+00 4.745372485904255910e+01
2.310224924997800144e+01 3.418569752694240904e+00 4.259736169950107154e+01
2.319847343415613139e+01 3.412137231998803255e+00 4.250434934199475379e+01
2.348333671885665552e+01 2.873933939057739195e+00 4.206438583923115715e+01
2.274073763248820512e+01 3.000140405273437505e+00 4.305959604714637123e+01
2.360886261705722333e+01 2.216052678233166873e+00 4.208478834581501360e+01
2.364902725831505492e+01 1.767236017191604835e+00 4.171560196196545434e+01
2.327106948662092023e+01 2.713220266486934928e+00 4.267851893364486671e+01
2.283450967804147425e+01 2.296157670462630751e+00 4.315654777803161579e+01
2.265548175927545316e+01 2.236393895580281566e+00 4.331852357772046247e+01
2.295228195362470913e+01 -5.915060649795536918e+00 3.880720475377711409e+01
2.346975243102600217e+01 -4.240977048723058473e+00 3.997991061584290406e+01
2.364227781613260859e+01 -2.543111952909262286e+00 4.035899986234282721e+01
2.363490529281057917e+01 -3.206828761445949194e+00 4.025670626206006375e+01
2.358213606454678413e+01 -3.786042498516893673e+00 4.041449085075561953e+01
2.177838976988739361e+01 1.241604674901722660e+00 4.426318961049575762e+01
2.231466417201886898e+01 1.986117987007675501e+00 4.365662240189647747e+01
2.153728095440515489e+01 6.821709304232808080e-01 4.452104286736015126e+01
2.213193771041922986e+01 9.764154421504980252e-01 4.405065020371910123e+01
2.239995746324498782e+01 1.348656425366462130e+00 4.374609090031093928e+01
1.991436695874475760e+01 1.080697046183140309e+01 4.442405532322823802e+01
1.945178264644956201e+01 1.128324784600721920e+01 4.462516352320279367e+01
1.902408286699722240e+01 1.128556473108565683e+01 4.439495862956608363e+01
1.846722896902647193e+01 1.176245419018924743e+01 4.466582682901100299e+01
1.884405394191383820e+01 1.166275121828909889e+01 4.493836853813228771e+01
1.916014549796499011e+01 1.142520074387927131e+01 4.463687888333485887e+01
1.920933034592594524e+01 1.143473530799783155e+01 4.475011476006026356e+01
1.908159686901646523e+01 -7.153876071168154827e-01 4.646355770197080659e+01
1.845900796498972696e+01 -1.198611992384252645e+00 4.685720133772241525e+01
1.710448825531700834e+01 -2.045275840140343249e+00 4.761337002632846094e+01
1.783636528401799026e+01 -1.681912112186835451e+00 4.724995267042956471e+01
1.637239785489909849e+01 -2.408838647306652092e+00 4.797686131985783931e+01
1.613415719623713684e+01 -1.854955675690879824e+00 4.817365782899542381e+01
2.332635215804562279e+01 2.074592482585666975e+00 4.271717062498218098e+01
2.323208070473278042e+01 2.081404991663144077e+00 4.287075212218534404e+01
2.372934849393340428e+01 -3.994979335180891961e-02 4.173853336590158136e+01
2.280750503984485533e+01 -6.519598207233282317e+00 3.857706764450099257e+01
2.326352556053000953e+01 -5.212830691460824895e+00 3.973261173067172791e+01
2.310987129636167126e+01 -5.700527479019766197e+00 3.937730039932060322e+01
2.378573442621627976e+01 -1.923039423732707531e+00 4.111265766011494804e+01
2.381257772246218707e+01 -1.831874552229688202e+00 4.132641155162252034e+01
2.374942559549327825e+01 -7.195959133878286895e-01 4.193322934416045200e+01
2.373921674427865014e+01 -2.913739613798172812e+00 4.078851229278896540e+01
2.354590261563058462e+01 -4.484105399259632030e+00 4.082088881140966663e+01
2.366635620203938117e+01 -3.422118620781482434e+00 4.071765212201306383e+01
2.364512591083479620e+01 -3.862749713373214266e+00 4.098672381542392174e+01
2.006336544063725924e+01 -7.005658898138483748e-01 4.575741241403530779e+01
2.178645356294578761e+01 6.337816121344863607e-01 4.435095761175672635e+01
2.179446494461689454e+01 2.608145286517606076e-02 4.443842475162777106e+01
2.129620230788075119e+01 1.228371661822813127e-01 4.477835577073435758e+01
2.257027837259184366e+01 1.473349877510501393e+00 4.357721404149511812e+01
1.757502402614789716e+01 -2.446866021224262777e+00 4.729967715497089387e+01
1.811309164155652240e+01 -2.146391783525784192e+00 4.705738467460496821e+01
2.364099039201968111e+01 1.492835642717909250e+00 4.209305912309260833e+01
2.292815726469736504e+01 1.592838908069581283e+00 4.325340962334970385e+01
2.359345484022003703e+01 1.543170268315707583e+00 4.228150531002768986e+01
2.370926661378289424e+01 6.396943963722204751e-01 4.154351473895809477e+01
2.298750506930293014e+01 -6.254991025735508359e+00 3.921371434983107918e+01
2.340869599050111916e+01 -4.983304968691856018e+00 4.023450825293694066e+01
2.334764903090773558e+01 -5.725502225486379437e+00 4.048745245248976232e+01
2.316747042665939915e+01 -5.990415497469445683e+00 3.985021746298424006e+01
2.344675166992222870e+01 -5.104970852526742320e+00 4.065429305786926761e+01
2.370524427410364865e+01 4.656052160183796890e-02 4.211246795518336938e+01
2.373737093133723519e+01 -6.764353409642407389e-01 4.212030559638529326e+01
2.376949739340194157e+01 -1.399247679177659132e+00 4.212769011605382019e+01
2.380651254589844257e+01 -2.009117905666736981e+00 4.172403262890046705e+01
2.374428264856166493e+01 -3.241768444881322431e+00 4.115316962735295192e+01
2.384341098761357003e+01 -2.620912103418851391e+00 4.131993837388066737e+01
2.105509364222214685e+01 -4.365157485889287203e-01 4.503554178495777194e+01
2.226046046774573028e+01 7.828189070078281353e-02 4.409695743840624260e+01
1.894358321564299530e+01 -1.502020160277660610e+00 4.653365467666266397e+01
1.659977626273216345e+01 -2.931590152120099102e+00 4.778424619998285294e+01
1.784937012026965064e+01 -2.911578882092094922e+00 4.710714518620553548e+01
1.953434187459459892e+01 -1.304538993096463484e+00 4.616886152204311600e+01
2.338157036039444137e+01 1.436596248220187055e+00 4.275578801377927363e+01
2.367311741327891994e+01 7.696642112068409203e-01 4.210375886599950945e+01
2.312550176470127283e+01 -6.238581061286514462e+00 4.020773241439813006e+01
2.360270964859074994e+01 -4.470468614242486538e+00 4.145068030964626615e+01
2.357803411837149810e+01 8.702280561373678669e-01 4.248172172094035659e+01
2.343677464884641637e+01 7.986363535876757069e-01 4.279616551688522463e+01
2.319311144537389069e+01 1.450172656800471804e+00 4.306280852679308424e+01
2.302165746871723684e+01 8.902912285106016066e-01 4.335016684967126110e+01
2.315412763020891873e+01 8.189735984005180880e-01 4.325573829286393845e+01
2.069872745873225739e+01 -9.217061184247523631e-01 4.531503878001923624e+01
2.034167148974885464e+01 -1.407330683374742542e+00 4.559480291105572292e+01
2.248517133779836641e+01 7.114300092939018771e-01 4.383810205456909870e+01
2.180241728398509338e+01 -5.817507683735541058e-01 4.452579539879631199e+01
2.143251809764458216e+01 -8.129592351075024537e-01 4.482446235340984941e+01
2.002406276193096346e+01 -1.296964182619069872e+00 4.581616443928495386e+01
1.731148979085669382e+01 -3.211847523988536235e+00 4.734937780030132615e+01
1.838755242961821068e+01 -2.610940392722845171e+00 4.686478959294264968e+01
1.880297364228398393e+01 -2.288684992234442550e+00 4.660286608198465075e+01
1.998431118117825989e+01 -1.893408290406755290e+00 4.587497812582913781e+01
1.866236199763879355e+01 -3.075723502890969296e+00 4.667209797998113174e+01
2.261734215883821975e+01 -7.109964558179300731e+00 3.874769993304036575e+01
2.290336073535636174e+01 -6.751639235494986124e+00 3.992799573605981323e+01
2.268142929927119411e+01 -7.264206825316074756e+00 3.964850200790537116e+01
2.314494245210055112e+01 -6.397796446296274198e+00 4.069144245071108656e+01
2.322485213531736647e+01 -6.139169790264833892e+00 4.114238417083864618e+01
2.343154363040413912e+01 -5.454784445074667865e+00 4.102582578987944117e+01
2.356259921812605640e+01 1.964722301899393120e-01 4.268019533227889895e+01
2.354714795994359378e+01 -4.772839454527770808e-01 4.287770334447632337e+01
2.372139957508932184e+01 -3.766796197958139469e+00 4.171183064939911844e+01
2.351820699167871709e+01 -4.893363527253274725e+00 4.114252539857996993e+01
2.378242865849056642e+01 -3.193647274908812062e+00 4.151566748606240509e+01
2.248689896240647101e+01 5.602308544896789783e-02 4.393611975925436752e+01
2.311511324737989170e+01 1.876501613686159253e-01 4.345060594567343060e+01
2.203549547848630752e+01 -5.554926921856127020e-01 4.435506080723278188e+01
1.954356779304581693e+01 -2.287581677241037337e+00 4.614206479031010133e+01
2.089382795806492155e+01 -1.642380709213908663e+00 4.524717421886827395e+01
2.097467419703433933e+01 -1.039445096680009728e+00 4.514136095463483400e+01
1.812389713602156149e+01 -3.376293555737457375e+00 4.691461127502926587e+01
1.910304108621094343e+01 -2.681582234955249167e+00 4.640704724925381441e+01
2.273798545483793276e+01 -7.383269083965012136e+00 4.028148770827063885e+01
2.295069397074461648e+01 -6.828018199096274721e+00 4.040540156154037987e+01
2.245928287427650005e+01 -7.777266973071001566e+00 3.936872628690449716e+01
2.377246829743868162e+01 -2.712102289888306927e+00 4.171907502782961075e+01
2.373549699425833381e+01 -2.101794653686264169e+00 4.212313218013136407e+01
2.365834430851694492e+01 -9.378725689559098688e-01 4.250278796083313182e+01
2.367789002596501646e+01 -1.980361473227814528e+00 4.230703469788158344e+01
2.348949950633153350e+01 -1.776018776946530320e+00 4.286492982334394952e+01
2.349196766401021108e+01 1.606775730138108316e-01 4.283773360710384281e+01
2.290717529758553539e+01 -5.122448943534185783e-01 4.371069371992469854e+01
2.248857172582874142e+01 -5.993900262584180849e-01 4.403350773840109866e+01
2.181029051869886715e+01 -1.189826102234564642e+00 4.461314538869579849e+01
2.145076965571323058e+01 -1.742940145881164637e+00 4.489520944061817431e+01
2.081294135267778245e+01 -2.245323714852560659e+00 4.535299140039252563e+01
1.977286886166364255e+01 -2.663872236865485466e+00 4.600240066823484852e+01
2.035837261773658113e+01 -2.371069597518023375e+00 4.566677795704160303e+01
1.831235733289686252e+01 -3.798490318569625046e+00 4.677226042051279364e+01
1.900625661498344598e+01 -3.639622451862349006e+00 4.646371316705597110e+01
2.308358613731505216e+01 -6.610234584819040471e+00 4.150090218725886615e+01
2.325540885169351313e+01 -6.044842177043280529e+00 4.170145904521979219e+01
2.351544257970975593e+01 -5.183976086382897641e+00 4.156428676384201992e+01
2.240459081596272028e+01 -8.107679717240582562e+00 3.975904479485203069e+01
2.351832415932383569e+01 -1.126646961876476949e+00 4.287148248344029611e+01
2.346067493643374036e+01 -2.425406699849673497e+00 4.285819671693966626e+01
2.366034739897930805e+01 -4.340156538003574482e+00 4.190775688879632810e+01
2.308566679488611939e+01 -5.387804998165280912e-01 4.350048972744943399e+01
2.171328293402875431e+01 -1.828557406987991074e+00 4.472840497978913277e+01
2.109123477512973821e+01 -2.295784146530932990e+00 4.517709902790211629e+01
1.956154927247840902e+01 -3.433632625136328720e+00 4.612925901866601208e+01
2.370147952873178099e+01 -2.803277509638190779e+00 4.211823913361270399e+01
2.359934009676545941e+01 -4.913075671469385064e+00 4.210282104094397226e+01
2.366744792094432270e+01 -3.506394962847831920e+00 4.211316126449924013e+01
2.294223895931049029e+01 -7.070064719583288415e+00 4.089541460902889014e+01
2.342730360322322269e+01 -5.479199454205410547e+00 4.190207437680497549e+01
2.358627594593591681e+01 -2.561402339971271758e+00 4.248626208716198960e+01
2.340969899253180131e+01 -1.037329603533183597e+00 4.307053716733200588e+01
2.363340448039233266e+01 -4.209639040528569964e+00 4.210834435733196557e+01
2.249017399909206816e+01 -1.254810956684422996e+00 4.413070973973866273e+01
2.215119290438951438e+01 -1.550222102243586697e+00 4.442040025564168815e+01
2.213589085275448198e+01 -2.521453365224499699e+00 4.450987360780644764e+01
2.161597539886476227e+01 -2.467002196299715067e+00 4.484360750619380553e+01
2.073196948669097850e+01 -2.848275026815056066e+00 4.545883066270852169e+01
2.027132667444411140e+01 -3.299972264543884481e+00 4.572434443817339655e+01
2.349465453481084865e+01 -3.142433577275874246e+00 4.266540617316891115e+01
2.291148139726479727e+01 -7.176543249831120797e+00 4.129999578489429268e+01
2.335454594183174493e+01 -5.572781947730647722e+00 4.229833945742100809e+01
2.273959331355259650e+01 -7.742127227880659213e+00 4.109932933001641686e+01
2.327223184515870003e+01 -1.597382312085021239e+00 4.326302987093746566e+01
2.305620618068695293e+01 -1.265009795431092154e+00 4.354968414911876806e+01
2.313474134779480096e+01 -2.157443730552086159e+00 4.345531832810102912e+01
2.269946030006410354e+01 -1.211239438239278821e+00 4.396944130199218392e+01
2.350128106901112801e+01 -4.318314503282899786e+00 4.247377802062349161e+01
2.318785451786935070e+01 -4.990093948287114500e+00 4.278252437206337788e+01
2.249168313151361431e+01 -1.910241481932154040e+00 4.422783888151671761e+01
2.107613214657014211e+01 -3.296240111922879468e+00 4.526670644605120231e+01
1.981067968161557147e+01 -3.751697189447691372e+00 4.599046546821368509e+01
2.054756337216078776e+01 -3.448745772657735298e+00 4.555973714396987617e+01
2.282344530685698203e+01 -7.174769889212023521e+00 4.215936086495378987e+01
2.310993710010673396e+01 -6.231946610964693711e+00 4.249369855255381623e+01
2.343185014879385974e+01 -3.074826335163221014e+00 4.285136563925756548e+01
2.340302427627405635e+01 -3.724324423699397535e+00 4.284449228721252467e+01
2.329547432135663954e+01 -4.357121770052300391e+00 4.281347509930910178e+01
2.177905236432243541e+01 -3.132983631835515759e+00 4.479196857522203601e+01
2.151850750747678731e+01 -3.105766779314345971e+00 4.495887484902501541e+01
2.302672583346952706e+01 -1.991252578750642099e+00 4.359863348898748114e+01
2.274445430942787283e+01 -2.313875669862081708e+00 4.393764891743774115e+01
2.236386764209063571e+01 -2.600371865003171301e+00 4.428811553093177622e+01
2.223590237003395842e+01 -3.291129305612629619e+00 4.434843427575202668e+01
2.036303325015094501e+01 -4.049224863131069441e+00 4.566105422486486276e+01
2.299722071020291381e+01 -2.717512478941548348e+00 4.364748127146128098e+01
2.320027266211564765e+01 -3.221094894437385392e+00 4.324577834073365779e+01
2.278153039502527122e+01 -7.458504389565211667e+00 4.162928195746655291e+01
2.310450825089538540e+01 -4.381362245216309681e+00 4.307309991733097121e+01
2.287485841678268272e+01 -3.461926621141238947e+00 4.361800711573142308e+01
2.274305239705650550e+01 -3.206521726389026661e+00 4.385284440630316283e+01
2.094499471423908687e+01 -4.246706161855639650e+00 4.533700889221142916e+01
2.308030999326536303e+01 -5.624391048419990824e+00 4.275250736047674849e+01
2.261903257136885514e+01 -7.385781553536863164e+00 4.244257304012905507e+01
2.286528967807869250e+01 -6.891167314189189597e+00 4.268908345831880524e+01
2.280618847806436733e+01 -5.036968518702870767e+00 4.330153972954650499e+01
2.263024487111516692e+01 -4.950270311527573242e+00 4.355910184621512116e+01
2.250803321028451265e+01 -5.691734469506048555e+00 4.352997112974906457e+01
2.275250038743072523e+01 -4.206355251951781504e+00 4.358851049574065684e+01
2.248886244940015899e+01 -3.695495406597410160e+00 4.405812852326881313e+01
2.223434948176620551e+01 -4.184997676143097145e+00 4.426359702983281608e+01
2.210769960449129456e+01 -3.982979386291682911e+00 4.440886094383841254e+01
2.142080655619441032e+01 -3.744968979055243619e+00 4.507424855984331202e+01
2.046901865226531925e+01 -4.748664359404306090e+00 4.560063074325277199e+01
2.098796017018892002e+01 -5.012473860926366598e+00 4.514727697932599426e+01
2.077123846108572280e+01 -5.646902022098615248e+00 4.518420136465665138e+01
2.150599389555605256e+01 -5.210412862197745021e+00 4.471955080216857681e+01
2.120441723340638163e+01 -4.378687080036862689e+00 4.511061745656321875e+01
2.297282109860353572e+01 -6.257904861349766534e+00 4.272103156719292372e+01
2.268676493533534710e+01 -6.289215523483894899e+00 4.311070124764037104e+01
2.224376993327852503e+01 -5.184352720359267863e+00 4.399973076453788678e+01
2.170140996742704331e+01 -4.210204907704414801e+00 4.477175836430434686e+01
2.197936685945084889e+01 -4.675291289592760080e+00 4.446938719555937780e+01
2.103058587658494716e+01 -5.746330527410898448e+00 4.497078012496237420e+01
2.176075182145921971e+01 -5.373510256989676215e+00 4.447952161640324675e+01
2.154222377468202154e+01 -6.071584542971507403e+00 4.448950770266534249e+01
2.027342362470998438e+01 -5.765809352743628047e+00 4.554162579455446291e+01
2.243329140376552999e+01 -7.428026208938406150e+00 4.283657755509617004e+01
2.213247596777954840e+01 -6.813893694221669683e+00 4.337193911851782957e+01
2.232035526784120805e+01 -6.251656214861928795e+00 4.345163649815521723e+01
2.204061402101073597e+01 -6.281670830456624444e+00 4.385698653635322586e+01
2.157289880496387013e+01 -6.871901887205298820e+00 4.418189458784338797e+01
2.194463462212775795e+01 -7.376452598464641852e+00 4.329187632389885465e+01
1.491111439102161462e+01 4.022427510361331393e+00 4.881455603618099559e+01
1.502127123509706230e+01 4.658635902221636371e+00 4.859645789992318754e+01
1.447380320491755334e+01 4.565158145796896605e+00 4.887078052011983686e+01
1.481891190282325077e+01 5.182638767704013993e+00 4.855568851106295369e+01
1.546062648735586897e+01 4.984063466047269131e+00 4.826113024818316433e+01
1.568290660951662652e+01 4.153307581326955322e+00 4.838960582363524310e+01
1.530184673325583944e+01 3.938101178696601146e+00 4.865249369304483906e+01
1.618193439901014941e+01 4.767759042754735610e+00 4.794043182195330388e+01
1.590440711703243615e+01 5.309457093229696056e+00 4.792726948761963968e+01
1.515650973501549004e+01 5.770046092240082025e+00 4.819998217855228972e+01
1.461636701983586306e+01 5.706636518275958636e+00 4.851491869388664924e+01
1.558673805542337831e+01 3.217555335447307208e+00 4.870852735696703206e+01
1.634855410530947495e+01 3.647976480328148252e+00 4.818450419932861450e+01
1.644269174851872606e+01 2.819845505940187014e+00 4.837196130286173457e+01
1.701386433249735219e+01 3.142645411530564203e+00 4.797990313318440769e+01
1.673664144782608432e+01 3.684353835877297367e+00 4.796674806954305126e+01
1.645933757691246413e+01 4.226058414813536501e+00 4.795359109320335023e+01
1.408988409598976510e+01 3.882081188827315454e+00 4.922610184056999572e+01
1.480103933253496784e+01 3.386190079229498551e+00 4.903265353964866335e+01
1.469316397639922833e+01 2.749922614218898165e+00 4.925075040299198292e+01
1.425358879478976348e+01 3.292530210185172557e+00 4.930702839472336052e+01
1.615596731462043323e+01 5.831597016925276655e+00 4.763035744182256792e+01
1.661618453021292652e+01 5.284218780809387894e+00 4.754338985598796796e+01
1.659557992295470896e+01 4.887359528041037571e+00 4.767863076194659300e+01
1.441366742902114240e+01 6.230628885377982762e+00 4.847414764342512683e+01
1.573891601763802228e+01 6.312709427744689350e+00 4.771234173967193470e+01
1.640752744617076786e+01 6.353716667116608541e+00 4.733276117069011946e+01
1.749553523808933164e+01 3.592445962290112593e+00 4.758062260558475742e+01
1.728640575088674680e+01 4.465256664310088830e+00 4.742977078621213849e+01
1.587143756590148769e+01 2.496995683929710275e+00 4.876455995199607685e+01
1.732771369732473588e+01 5.258957693037690895e+00 4.715844388324017444e+01
1.718881472931011345e+01 5.972192177917169609e+00 4.701653892219491837e+01
1.498013465776498165e+01 6.655420705774070633e+00 4.805990793668454586e+01
1.507655985389947162e+01 6.271680951869873510e+00 4.809125749150648943e+01
1.554657243785936238e+01 7.080177109683090109e+00 4.764849328326874911e+01
1.625717397161547240e+01 6.929309810790736712e+00 4.728474275228143853e+01
1.719948158156338991e+01 2.602137951148811190e+00 4.804152664749089752e+01
1.709856236266977092e+01 6.395936319206983356e+00 4.693774034092125902e+01
1.797059572538827510e+01 5.590225767478698593e+00 4.669657049380718661e+01
1.804005486961997917e+01 5.233641299971821148e+00 4.676820744050144896e+01
1.778993124015192606e+01 6.438171057821800325e+00 4.654248095009711506e+01
1.706366166644805915e+01 6.754095187262816324e+00 4.686620808279934636e+01
1.683724233131414749e+01 7.617728498677509563e+00 4.679510825014092035e+01
1.611297459123010611e+01 7.504903112946291976e+00 4.723658746146595178e+01
1.561978031448201953e+01 7.801753795795367097e+00 4.749458227768489849e+01
1.637763200030456190e+01 8.033148924990989315e+00 4.699044260260050265e+01
1.558786788420636249e+01 8.508215841454777717e+00 4.740814050707160732e+01
1.512605730434399653e+01 8.098599750649805529e+00 4.775668064517628153e+01
1.669654686382352082e+01 7.942516260743018641e+00 4.680848859928151029e+01
1.522841385715734397e+01 2.305325153559275364e+00 4.911670964951001395e+01
1.779173800944461803e+01 2.697202166843938098e+00 4.769556497392992611e+01
1.797772913737614076e+01 4.042705373864818874e+00 4.718029818965263900e+01
1.643796829083792232e+01 2.171660799719172363e+00 4.856426812055627806e+01
1.568456806039162288e+01 1.840182256601948785e+00 4.903154629809289844e+01
1.607839491704838153e+01 1.972929222619919321e+00 4.880532412619437110e+01
1.836507417458762959e+01 4.625846534312749725e+00 4.678086184264142844e+01
1.848107804964712386e+01 6.480385364403906223e+00 4.614929844989925556e+01
1.875199142723533186e+01 5.208316551931530647e+00 4.638041797624276796e+01
1.772043129177090393e+01 7.154866073683148642e+00 4.640329863768722873e+01
1.756751850703296114e+01 7.730643783067074892e+00 4.635589483577101788e+01
1.837730994554306463e+01 7.555713805000023875e+00 4.594027827925165752e+01
1.537060333483892549e+01 8.740356113810955563e+00 4.751018614766773140e+01
1.664233488471607103e+01 8.561592948053821317e+00 4.674689009519167371e+01
1.728065496555413461e+01 8.380545958472309209e+00 4.638265518348796945e+01
1.604976826394841893e+01 8.917895400452779953e+00 4.705942925380986708e+01
1.690715509801610139e+01 9.090380819559852554e+00 4.650317467956499939e+01
1.817516148115016250e+01 3.445527358038082077e+00 4.725726840257910766e+01
1.458525917389496129e+01 2.113624427958988417e+00 4.946884793634782795e+01
1.738506374441881874e+01 2.061620214365539994e+00 4.810314901227707907e+01
1.549769362608444290e+01 1.183327330934450972e+00 4.929853154106042723e+01
1.482721041001412132e+01 1.584567677247606499e+00 4.950107268724744358e+01
1.628528978668559901e+01 1.448853702900225304e+00 4.884656856635260169e+01
1.896236336962243385e+01 5.865682075651632132e+00 4.606803253741740889e+01
1.830094647783463557e+01 7.843570746777889013e+00 4.591657877504304963e+01
1.910335738370470438e+01 7.239543225040708130e+00 4.561660040230869129e+01
1.903401312756149011e+01 7.956457988550547533e+00 4.547718090907377331e+01
1.917259213553779773e+01 6.522612721536556357e+00 4.575584909529369071e+01
1.786472289335383223e+01 8.818568632994837841e+00 4.595681220768804565e+01
1.751860280075921494e+01 9.218768682076172283e+00 4.610817904621293195e+01
1.944262997692983674e+01 5.260384208233648273e+00 4.597989825939293951e+01
1.874089111539947083e+01 8.606575543924167349e+00 4.550409599870459232e+01
1.844891164065890621e+01 9.256710196573980198e+00 4.553083762271702284e+01
1.651198900332377661e+01 9.327845777071704703e+00 4.671160764365581031e+01
1.561506137831014485e+01 9.382092318298591138e+00 4.726071190232452324e+01
1.697430856315077108e+01 9.737873806503754892e+00 4.636367865286871393e+01
1.641707661907756943e+01 9.881025388836947698e+00 4.668895555592165181e+01
1.677071786641507245e+01 1.040725026701896105e+01 4.639164982498821388e+01
1.585957531922566055e+01 1.002417489515737792e+01 4.701335791209407233e+01
1.610419304406700292e+01 1.066672117485363991e+01 4.676612695630929295e+01
1.873199577049537723e+01 4.085294860380924931e+00 4.674457362070383226e+01
1.949618723319643365e+01 4.689205044698862679e+00 4.612645135852830691e+01
1.700433651414135738e+01 1.846323123789049392e+00 4.836455981173448038e+01
1.873146852194125245e+01 3.581882389779647013e+00 4.690754182893087432e+01
1.837246674197885454e+01 2.848620513909539742e+00 4.733411100701773933e+01
1.948604179208673770e+01 4.127846154451825456e+00 4.630680339307610893e+01
1.985773032582355313e+01 6.995822023514850940e+00 4.524841371248633948e+01
1.972262664340853533e+01 6.136536314460643737e+00 4.556377110864843161e+01
2.013261716303953719e+01 5.312389249536478175e+00 4.557972597821056127e+01
2.027257315236633417e+01 5.750457242734381857e+00 4.536772241156075580e+01
1.984266630341102200e+01 6.563516864753254687e+00 4.537084363564498801e+01
1.976544930323395732e+01 7.951802139854109441e+00 4.506146488136388939e+01
1.869965432698257501e+01 9.763245974455770693e+00 4.530470146978017709e+01
1.794348020616895312e+01 9.702121839276424353e+00 4.577321997458447811e+01
1.928725589786993666e+01 9.237317057698481548e+00 4.505281757600828030e+01
1.909399983177097226e+01 9.614763363686254394e+00 4.509349681231903162e+01
1.717182416013783453e+01 9.618969690219081770e+00 4.625954601025187429e+01
1.743658946218111794e+01 1.014785551241980954e+01 4.601577752734375082e+01
2.012664413426613663e+01 9.217915336477769728e+00 4.457693437202693332e+01
1.810895480821264414e+01 1.052660743175291636e+01 4.555391409839151606e+01
2.054278760967962825e+01 7.468965857935595309e+00 4.474231396481264511e+01
2.049665884389855819e+01 7.947138078657951965e+00 4.464911744077235056e+01
1.967798110668211109e+01 8.370376612052325527e+00 4.501618365994340820e+01
2.051265423001916943e+01 6.604407285197057220e+00 4.498580110578522806e+01
1.715635919851467506e+01 1.081354756100249048e+01 4.609502977557769299e+01
2.032189635034982089e+01 8.784262812671588705e+00 4.455871246597605762e+01
1.974060491336921785e+01 9.972799459940359768e+00 4.465789589260017323e+01
1.895034427233371588e+01 1.026977738147592412e+01 4.507717091956683220e+01
1.770327207713159723e+01 1.077968598238561704e+01 4.576092983188887331e+01
1.663727848783554109e+01 1.101063710547830254e+01 4.638774721967724446e+01
1.920098163217407716e+01 1.077630131908088096e+01 4.485101641216979118e+01
1.796966864900426586e+01 1.141099768870229703e+01 4.550628716942884466e+01
1.717018080677286562e+01 1.135443566483579048e+01 4.600962320785456683e+01
1.878023821447440866e+01 1.090481586588895802e+01 4.508992578840041432e+01
-5.461046218319763668e+00 -2.096234555687513268e+00 1.818676533895654757e+01
-4.886381623813560893e+00 -1.534231231273801344e+00 1.824049716204464744e+01
-4.533342929066432880e+00 -2.388050464169610088e+00 1.823132402411849640e+01
-3.941412331897653498e+00 -1.952614078572711298e+00 1.828162706481183619e+01
-4.169571544904410842e+00 -1.146035342627587772e+00 1.829651842895852099e+01
-5.796821896221816317e+00 -1.368934598274584191e+00 1.819250623134025702e+01
-5.439807928790122205e+00 -9.747553449624631883e-01 1.822747015508483770e+01
-4.935891927017244996e+00 -7.354507168903232639e-01 1.826566924705651829e+01
-6.294285044827045539e+00 -1.981345357035525501e+00 1.814861491522103520e+01
-6.132573922771825892e+00 -6.415832953279088091e-01 1.819824804188918321e+01
-6.588984743097711316e+00 -1.081828495269564483e+00 1.816175176317928575e+01
-3.980263932221589585e+00 -6.418402347325734558e-01 1.837923913480655358e+01
-5.702127570919214072e+00 -3.248335676297623431e-01 1.823482714408390848e+01
-7.212784221960697018e+00 -1.648819188685815451e+00 1.811296026473277010e+01
-6.975283114471316992e+00 -2.467702727128238127e+00 1.809945959572637264e+01
-7.703725477781374842e+00 -2.106647793840956240e+00 1.807420691636658105e+01
-4.173707450751240167e+00 -2.517550122354741265e-02 1.843506492669515140e+01
-4.996664353620817067e+00 1.986974091836376244e-01 1.837501177722548462e+01
-6.959315257432565183e+00 -3.720269391419741556e-01 1.816522001745541459e+01
-7.450282682452758820e+00 -8.298714506683372294e-01 1.812646080070530985e+01
-6.246773256376855876e+00 -2.828724173754400439e+00 1.812472089999550562e+01
-6.468308109767667347e+00 8.581981744433188342e-02 1.820399072425007247e+01
-7.941216143533828209e+00 -1.287713920000311374e+00 1.808770859009574750e+01
-7.621694059444618752e+00 -2.994837766821899727e+00 1.815483674645703971e+01
-6.821456969076733046e+00 -3.145974978536075550e+00 1.816004758373874139e+01
-5.808942226584083102e+00 5.052362839368637060e-01 1.832634571969690285e+01
-4.312424538483709213e+00 6.839449037459086611e-01 1.850818834043290906e+01
-7.866020380031735648e+00 2.884917539309058213e-02 1.822093428090936840e+01
-8.255843607562797004e+00 -6.272923391188577336e-01 1.816028501604173329e+01
-8.432119860460160155e+00 -1.745554553907874284e+00 1.804895936412633972e+01
-8.026914369206929578e+00 -2.370227645930147897e+00 1.810189862075258205e+01
-5.149550228522718598e+00 9.246529574060504686e-01 1.844870475170720781e+01
-3.432659019960713209e+00 5.198304218594687054e-01 1.858171899237305524e+01
-6.748635369750401125e+00 6.984188851941238729e-01 1.831278026532435277e+01
-7.238415954750894166e+00 5.122243375877156835e-01 1.826007422053709206e+01
-8.746747846986325570e+00 -1.085141302787747231e+00 1.812153735311694192e+01
-8.342444685413536121e+00 -2.484919872386673667e+00 1.809396302174054583e+01
-6.111098571261321943e+00 1.229573011512460567e+00 1.845662096316952017e+01
-8.252695099012193225e+00 -3.224757513177072710e+00 1.813900610051994278e+01
-9.019274879055018346e+00 -1.261817054083210765e+00 1.811580708356432723e+01
-4.490125379075347922e+00 1.344070387130795741e+00 1.857107126586280899e+01
-3.631670079282146801e+00 1.141646164883742598e+00 1.863758416525651995e+01
-7.028959915713723028e+00 1.311036119101364417e+00 1.842156666734182835e+01
-8.589378369070319152e+00 -3.155156699602381515e-02 1.822656132249410632e+01
-9.061375868480411100e+00 -4.246950288401677431e-01 1.819411489335442411e+01
-9.094555233991071574e+00 -1.780768055914845327e+00 1.809824979248496035e+01
-3.161252915157442445e+00 1.349927410720185961e+00 1.873263312963422678e+01
-5.328398040179805228e+00 1.714748434793023524e+00 1.859928170052312169e+01
-8.008484083136215403e+00 9.386555990014283646e-01 1.831616559931667254e+01
-9.606976536394412847e+00 -7.775807494366181460e-01 1.818272047906719990e+01
-6.149530980257486235e+00 1.870380435510842210e+00 1.858473782070441516e+01
-6.652526412772512998e+00 1.661537990495170369e+00 1.851399242816492219e+01
-8.692280921269160743e+00 5.872549396865411886e-01 1.829142863964525390e+01
-9.288131079300878667e+00 -2.386877605714625261e+00 1.815406175176611825e+01
-3.830661006281145919e+00 1.763487932519240520e+00 1.869344896005788925e+01
-8.044101030806487529e+00 1.880251517128505467e+00 1.849686457892327596e+01
-9.376038997077419168e+00 2.358549591829474101e-01 1.826669979039359148e+01
-1.001158858345252511e+01 -1.130170722990526233e+00 1.819795403293337088e+01
-1.019488476970766477e+01 -2.931237795351269160e-01 1.824965945314149351e+01
-4.550387075296892014e+00 2.096599692765438672e+00 1.872068198045265675e+01
-3.216291581447065173e+00 2.089604481780335643e+00 1.884386474698156277e+01
-5.785673529093421585e+00 2.212702125965208655e+00 1.867479628235592415e+01
-7.309284002019112769e+00 1.923674175911171957e+00 1.853035052711308595e+01
-8.778708613643480874e+00 1.365220987023352928e+00 1.837227702541164476e+01
-9.757788831635243909e+00 -1.816018860459773565e+00 1.814763577188600863e+01
-4.122270660131047038e+00 2.394974906034968765e+00 1.883429848709506516e+01
-5.270061061356619447e+00 2.429724968569725085e+00 1.874792085512464368e+01
-6.869691311839214443e+00 2.203596980665667004e+00 1.861197720856253923e+01
-9.951229487587237799e+00 -2.421820847392410325e+00 1.820343784754464167e+01
-6.429722124561278562e+00 2.483241284624868150e+00 1.869357031624482701e+01
-9.690989231696130801e+00 8.970407372149110659e-01 1.833935049550125029e+01
-1.042028325652072596e+01 -1.851219020786009972e+00 1.819698566403677020e+01
-1.103561377681447553e+01 -6.462119884258807900e-01 1.829839222761148676e+01
-1.023689295838930136e+01 5.441911737059080822e-01 1.832797519792884700e+01
-4.842093326425675137e+00 2.728362054199306552e+00 1.886158703267565073e+01
-3.491639204802188701e+00 2.804872842157867474e+00 1.900898294876872185e+01
-5.989744780550818604e+00 2.762886364755979152e+00 1.877516679063301197e+01
-7.589833506042119815e+00 2.536830489969447822e+00 1.863922037408826426e+01
-8.981385575687898637e+00 2.278229449769102910e+00 1.854174262259516226e+01
-1.072791076799687815e+01 -1.248816833558961337e+00 1.824768108117194032e+01
-1.078274067804365366e+01 1.913463826181028560e-01 1.831659338412361748e+01
-4.414110343763370636e+00 3.027000181220000918e+00 1.897526070706002344e+01
-7.150103325640727370e+00 2.816670640467023645e+00 1.872083598933436832e+01
-9.550183707281840739e+00 1.792527123412552381e+00 1.842848644222330989e+01
-1.011378615147484972e+01 -2.499526667921614376e+00 1.827717937403997439e+01
-1.103911326474070265e+01 -1.247890344229212634e+00 1.834608061595217166e+01
-1.134306047436446896e+01 -4.405524736809571240e-02 1.834906442779031721e+01
-3.775425991869489017e+00 3.478786134279757469e+00 1.916207075376549795e+01
-5.562147106808605024e+00 3.061912761276943229e+00 1.888889790518895850e+01
-6.710365576359023088e+00 3.096509856950548034e+00 1.880245404583737567e+01
-8.425984335650493762e+00 2.714309521283597260e+00 1.864494775232877899e+01
-1.000596210749613491e+01 1.558307718443592060e+00 1.841200605540597834e+01
-1.079357765582261841e+01 -1.943563910642386983e+00 1.847153447623098188e+01
-1.055164555161917583e+01 1.204948496550213966e+00 1.840057703819749690e+01
-1.137054887338804043e+01 6.758412783489833320e-01 1.838352175866561922e+01
-6.204756039932687983e+00 3.332732658481464050e+00 1.890625017501286464e+01
-9.778462762025105448e+00 2.605469140934911998e+00 1.857774217999842392e+01
-1.165744022735260366e+01 -6.436954877364828853e-01 1.849535361442121939e+01
-5.134133644546105657e+00 3.360655402841563166e+00 1.900259431119602738e+01
-4.706107813485925107e+00 3.659399633750947345e+00 1.911629949239290838e+01
-2.769522090570563311e+00 3.203110373997138716e+00 1.918981369160886885e+01
-5.854228841646500925e+00 3.694115955714428079e+00 1.902987050989392870e+01
-7.430741774077596951e+00 3.430046606031152301e+00 1.882973719822286895e+01
-7.870557875764038869e+00 3.150389746120943801e+00 1.874815578605589650e+01
-1.032085532876816103e+01 2.219439184774329554e+00 1.848464270677167676e+01
-9.236126503250005726e+00 2.991449265651042300e+00 1.867082043741824648e+01
-1.159860729913772914e+01 -1.386042704197246289e+00 1.875802999421253148e+01
-1.165037017230310035e+01 5.578820416859143760e-01 1.839971699424500429e+01
-1.196438833540099012e+01 2.588532429133849067e-01 1.852207050436936697e+01
-4.127907475200748522e+00 4.094296656356168462e+00 1.929240875709078651e+01
-6.652252214350960813e+00 3.842461283968786834e+00 1.900227733052599177e+01
-1.086662968246059435e+01 1.866150207672564010e+00 1.847322458482990370e+01
-1.116805465196139302e+01 -2.035900263935810806e+00 1.874621515554364493e+01
-1.227500147376922968e+01 -4.011522247025336996e-02 1.864442732752933907e+01
-1.202981859173786461e+01 -7.357123282056181601e-01 1.876985527134203480e+01
-1.141225599271330182e+01 1.512935187885497967e+00 1.846180463618535939e+01
-3.204993020191062580e+00 4.039910668599032917e+00 1.937146704095844285e+01
-1.060904987247010745e+01 2.894191420909841383e+00 1.868002851900615013e+01
-8.693588717578736080e+00 3.377558891098050964e+00 1.876392744520103761e+01
-1.169097173963285918e+01 -1.539694875399430618e+00 1.897529941898148920e+01
-1.195767033979242555e+01 1.159844424715909206e+00 1.845037087150484822e+01
-5.361606363259863173e+00 3.922144876333936381e+00 1.913045558919403533e+01
-4.998053648437194241e+00 4.291720823462638279e+00 1.925731469569881682e+01
-2.286074856181881554e+00 3.819515666370859819e+00 1.940530298187528402e+01
-8.151116390562064495e+00 3.763608325678349686e+00 1.885702488649042508e+01
-7.507886295863993809e+00 4.211942671092931967e+00 1.902769843626378687e+01
-1.010291417199594832e+01 3.266947402977147252e+00 1.877033152413782346e+01
-1.092006253405389593e+01 2.624544692808988611e+00 1.866739070653246202e+01
-1.145195352157514179e+01 -2.223139023668049052e+00 1.929608435592755455e+01
-1.221368510565087995e+01 -1.043509014115006517e+00 1.920429549309722361e+01
-1.242750266554498495e+01 8.617140974546729781e-01 1.862189993251964637e+01
-1.246084081589589765e+01 -8.624032341381919486e-02 1.878166747810324466e+01
-3.824671954955091380e+00 4.519087826778412698e+00 1.943786597010653949e+01
-5.905452138881641666e+00 4.374549573116816248e+00 1.920347740158645422e+01
-9.415691778249824395e+00 3.743778647204659915e+00 1.888479992625648052e+01
-1.168396372021198637e+01 2.129793104042115193e+00 1.865136208515299998e+01
-1.197053950054368165e+01 -1.599852602933172996e+00 1.940124615811321718e+01
-1.289257194404395079e+01 5.636788566671238065e-01 1.879349008929882459e+01
-1.273638031025485340e+01 -5.470364734526245165e-01 1.943328478995366737e+01
-1.222945979035583264e+01 1.776627083751543212e+00 1.863993805853198538e+01
-4.512702590994411622e+00 4.661321678224639165e+00 1.940636985687940452e+01
-2.473345776340339697e+00 4.507078352448551151e+00 1.957188235150730904e+01
-6.865571098158132379e+00 4.659629253342395749e+00 1.919813330166047649e+01
-1.089704104859077205e+01 3.569802362367396675e+00 1.887526598317261772e+01
-8.873539432540461291e+00 4.130189935971550597e+00 1.897795102115738786e+01
-1.211671539185250701e+01 -1.820524759307611484e+00 1.980018829632033572e+01
-1.255666022233479850e+01 1.678048323203024328e+00 1.872683098967472404e+01
-3.250371178507573067e+00 4.768999111591607942e+00 1.956365647811240649e+01
-7.742444592855171059e+00 4.930793182357376736e+00 1.926981307444730973e+01
-8.449838469874372038e+00 4.438456553966230622e+00 1.908233357436209232e+01
-1.151894238778392321e+01 3.029896652935663681e+00 1.885004706945972330e+01
-1.201012774320946619e+01 2.711521100286282238e+00 1.883978369323414981e+01
-1.249739235332459053e+01 -1.230171936725224846e+00 1.975416603738396404e+01
-1.173642693588133668e+01 -2.410400000000000098e+00 1.984618984436571765e+01
-1.307500989244122991e+01 2.562813669593638211e-01 1.922798857178070264e+01
-1.297617794750811093e+01 1.536895244014207185e+00 1.888804491625641901e+01
-4.027342173108841017e+00 5.030925251011161059e+00 1.955543064519562790e+01
-5.289630333493396286e+00 4.923268639012435166e+00 1.939815165323111401e+01
-6.223384748432294167e+00 5.107216457048325609e+00 1.936854558251244995e+01
-1.033569936658525279e+01 4.095467900395648897e+00 1.900659922452282657e+01
-1.325887290275565178e+01 -5.015749629143394228e-02 1.966218675358072332e+01
-1.287811860759703464e+01 -6.400335057398858218e-01 1.970816497904207054e+01
-1.326224743852258570e+01 1.231792870909770077e+00 1.898456561411171251e+01
-1.250127636193523628e+01 2.393501380995156413e+00 1.882951335466732701e+01
-2.808837333448310325e+00 5.089265418335337188e+00 1.971291370528436104e+01
-7.100202437839823411e+00 5.378333300698909802e+00 1.944022745909115457e+01
-1.211805688495280542e+01 3.435853781428293452e+00 1.903278290118817040e+01
-9.595255981985484794e+00 4.497070119970162594e+00 1.909876791139219421e+01
-1.234367255698371402e+01 -1.827563912292667458e+00 2.014899187657133339e+01
-1.337630834734810925e+01 1.019420994859462803e+00 1.911293288322659123e+01
-1.315645933291984271e+01 2.197042681291509592e+00 1.900367428173590056e+01
-1.299020215589231242e+01 -8.806732700945157921e-01 2.013011802394366967e+01
-4.804277860036455294e+00 5.292858012041275373e+00 1.954720481917257757e+01
-8.748241969145867714e+00 5.113267541048385212e+00 1.930738982226416667e+01
