-8.751108528270037823e+00 1.643059756147383510e+01 3.689571020189585226e+01
-9.637245602390091648e+00 1.578753479206650390e+01 3.673561479672182628e+01
-8.989324551483019121e+00 1.621217521162340702e+01 3.690458447078131599e+01
-2.906040910836264590e+00 1.528985863088035657e+01 3.965831385818531629e+01
-3.500809178890606610e+00 1.565929155688050223e+01 3.928665462301408695e+01
-5.936014342407865962e-01 1.453573978221639607e+01 4.040949817735956628e+01
2.038542934365792814e+00 1.341609263498288485e+01 4.091354301198287402e+01
1.422648032909186622e+00 1.393842678489697917e+01 4.077144167290815346e+01
2.759366045300792880e+00 1.175280968462810982e+01 4.162406884786796013e+01
-6.960566827286650771e+00 1.664584219909031404e+01 3.774292241988660379e+01
-7.615936670538472342e+00 1.675659090274216823e+01 3.731135233473191448e+01
-1.004817562957803823e+01 1.558101189259045150e+01 3.655215054389042706e+01
-8.511956328461920407e+00 1.664898290857050611e+01 3.688741416785257599e+01
-5.823299960721775470e+00 1.612516735589126782e+01 3.845251379544326653e+01
-5.250601812312578609e+00 1.645138869508627621e+01 3.838724710730316048e+01
-4.094850735941157893e+00 1.602906421244326651e+01 3.891710890329718353e+01
-3.196563460726372430e+00 1.584728620008946187e+01 3.922072842427817818e+01
-4.084430511285793486e+00 1.640152786693287368e+01 3.866651256474975185e+01
-1.284379177488060630e+00 1.491764330573052710e+01 4.010572521646263056e+01
5.164181357470418732e-01 1.437068326224636117e+01 4.057633193039741570e+01
2.932721269606832770e+00 1.335238191669754571e+01 4.108095116029028304e+01
-9.727128968537705589e+00 1.614734726740164561e+01 3.633057008384579945e+01
-9.280785985684229189e+00 1.643481545367634311e+01 3.650492610798948334e+01
-8.271741061756891611e+00 1.686736243944710978e+01 3.687942811525454800e+01
-6.387823755469107745e+00 1.657517113754323290e+01 3.798471607108179882e+01
-5.814591631455042098e+00 1.650446054183730382e+01 3.822657163949492798e+01
-2.404201338355141715e+00 1.531961978001840841e+01 3.972834177885904694e+01
-4.686854674151244460e+00 1.639836433661346149e+01 3.854767563217938431e+01
-1.901862658317994059e+00 1.534937221950752040e+01 3.979839869112734618e+01
-2.228537877602860401e-02 1.461481605405210438e+01 4.047795147624029966e+01
3.490624715110636433e+00 1.213476422449283909e+01 4.165630898185328590e+01
2.213889744941656357e+00 1.378426107490496655e+01 4.090913028195314638e+01
3.405929143637768330e+00 1.278884242387792369e+01 4.138263850307017577e+01
-9.814049747484883568e+00 1.650418133273721466e+01 3.586459379290729999e+01
-9.331938844286817414e+00 1.687569188081852189e+01 3.609713030019943858e+01
-8.826208240608538702e+00 1.709212685296784429e+01 3.628433282852335395e+01
-3.481364228188043697e+00 1.640465623800563222e+01 3.878533939210284842e+01
-2.094512115200150681e+00 1.572093688470506834e+01 3.950453410192473314e+01
-7.506778911712425062e-01 1.515066138864286671e+01 4.009427417714294251e+01
1.906541452656854485e+00 1.404548351155397867e+01 4.083903715211597074e+01
3.685431967559995581e+00 1.255104374257691724e+01 4.152751681517037241e+01
-1.022767076530613117e+01 1.630071505793355158e+01 3.574647179683078946e+01
-9.649402705826719995e+00 1.681495626515814479e+01 3.579738637035678295e+01
-9.379520423794673434e+00 1.731650408144194131e+01 3.568981867168884037e+01
-8.180204129658891432e+00 1.723423065315615332e+01 3.668245068475787463e+01
-7.478193835725430283e+00 1.730672313190389744e+01 3.701606483522428448e+01
-7.087052045899478792e+00 1.719435800038174733e+01 3.730905639012503627e+01
-5.250388314636046161e+00 1.680230502652595703e+01 3.813439798690858140e+01
-6.097345306626349881e+00 1.705747735108382912e+01 3.776696002442186284e+01
-2.788278686672107209e+00 1.606273992767785685e+01 3.914523401418907866e+01
-4.158665253241590420e+00 1.679511554556032493e+01 3.838855946276948572e+01
-5.101302256367756804e+00 1.698723658307049078e+01 3.807115179519610138e+01
-1.399673114607305369e+00 1.537907401534191898e+01 3.986838919673537163e+01
1.162507864832354132e+00 1.451337651252364047e+01 4.066644182125349971e+01
3.468483032390012433e+00 1.350495333662229491e+01 4.116225737217871483e+01
-9.719369779156057376e+00 1.721569313866393713e+01 3.539856690121887084e+01
-8.435418508634295875e+00 1.734025598326654460e+01 3.642357293005814967e+01
-9.172263993595862530e+00 1.763898890934372332e+01 3.563102810109922558e+01
-5.812558796053012955e+00 1.720625660647716160e+01 3.772087985604175486e+01
5.492377550367785188e-01 1.469385010503497568e+01 4.054638163367471293e+01
-1.011657286310738979e-01 1.492229548270064399e+01 4.032035179128512681e+01
2.390084588482017214e+00 1.415241698943486526e+01 4.090655513245266661e+01
3.704313849531025049e+00 1.322295643044787639e+01 4.131197321170746761e+01
-1.039799816618199380e+01 1.701410351467971083e+01 3.481629062630910454e+01
-6.513210684820564644e+00 1.712392010282146870e+01 3.755068422991365651e+01
-1.005885876199293349e+01 1.711489108358886568e+01 3.510738111510950432e+01
-9.350073929151262675e+00 1.778195939294926120e+01 3.534321793554022406e+01
-8.086106599305864506e+00 1.760080166185814932e+01 3.648561424062575753e+01
-4.835800525526074090e+00 1.718599449650637112e+01 3.799111757303791848e+01
-4.116924268553937338e+00 1.700220170436680078e+01 3.828003769996707462e+01
-2.922455288500721338e+00 1.644791027970069308e+01 3.881852205016749480e+01
-1.883814884014238356e+00 1.593521990113389464e+01 3.935805952765412030e+01
-9.234371213501441078e-01 1.542808213475693080e+01 3.985666567463659504e+01
1.776696387103264829e+00 1.433272814955083341e+01 4.078661338260561564e+01
2.927410326747891034e+00 1.398741968904037236e+01 4.101927943758377637e+01
-1.067591140878844413e+01 1.687861180074356326e+01 3.473541774513929425e+01
-1.026296145908552404e+01 1.738833518095720265e+01 3.465394506890581283e+01
-1.072842962901304276e+01 1.645417632736516822e+01 3.516192969072766061e+01
-9.684346910463494496e+00 1.772702199713744520e+01 3.500957075688835118e+01
-1.012637436440987848e+01 1.776304537191577992e+01 3.449146370640421821e+01
-8.595971826113803615e+00 1.781235456434990638e+01 3.596830256950430282e+01
-7.597432654877170677e+00 1.785501307350996569e+01 3.658189070158532274e+01
-6.373408720719458742e+00 1.761025678558734597e+01 3.730712267989548536e+01
-3.954260920695243708e+00 1.722991860429385014e+01 3.813380609737204452e+01
-5.511204459345496964e+00 1.757636353435258769e+01 3.759401696418945704e+01
-5.942735633223491298e+00 1.759333024121211153e+01 3.745046841370778878e+01
1.112345126906335135e+00 1.475710010607055267e+01 4.052691289695393806e+01
4.003218189619724754e+00 1.365720197762479593e+01 4.124486415358791902e+01
3.464986542817399151e+00 1.382238744268312125e+01 4.113202221533908443e+01
4.262381285528459962e+00 1.274723713397960978e+01 4.160215460971015489e+01
-1.061823665727798094e+01 1.719736537640745055e+01 3.435082960128544727e+01
-1.095290220112344670e+01 1.674323338699826991e+01 3.465530656885474059e+01
-8.963489512255845781e+00 1.796144661117608265e+01 3.557225168372465873e+01
-7.988932280459032143e+00 1.796750467241027494e+01 3.628866476123680940e+01
-7.205787131351472752e+00 1.774246854386881012e+01 3.687520415068209445e+01
-6.789583671532706255e+00 1.767635448072255500e+01 3.709120127633556052e+01
-3.159040507930114039e+00 1.686054545986753794e+01 3.849279560090318597e+01
-2.363218161515965754e+00 1.649110236154858811e+01 3.885169345309498823e+01
-1.566112868026467764e+00 1.616963580006805756e+01 3.917830235492887425e+01
2.877176314802175061e-01 1.511007746931629647e+01 4.018961721625797878e+01
-4.465626331679542482e-01 1.547708237336177994e+01 3.984493683443011491e+01
2.313471608511557864e+00 1.451785643277207249e+01 4.069757952537573686e+01
2.878558525072704821e+00 1.421003583439869367e+01 4.090487182426736723e+01
4.204663701905435147e+00 1.320736413017345967e+01 4.143742015072377427e+01
-1.046950436792753436e+01 1.747260253962427612e+01 3.429052851228461662e+01
-1.083833787498787160e+01 1.738048728802435505e+01 3.388566770813052642e+01
-1.033343039680767461e+01 1.784655859328349337e+01 3.412859502734530537e+01
-9.318577065919392055e+00 1.824718394587932480e+01 3.499667407258504426e+01
-8.371311567021486155e+00 1.812575264414412146e+01 3.590079679801294787e+01
-4.749017476402915605e+00 1.759926771777304921e+01 3.777471916004129326e+01
-2.985355648372155724e+00 1.677989753117103433e+01 3.857115702424555082e+01
-6.255763710218256612e+00 1.797897176941826913e+01 3.716284886735135728e+01
-7.682496635605664537e-01 1.584805230363103590e+01 3.950475877436460337e+01
1.676509599663156047e+00 1.482038467315245711e+01 4.050582971975832436e+01
-1.065914792920588638e+01 1.756601863625042981e+01 3.395014081524946903e+01
-1.122944913286403334e+01 1.660774200695118807e+01 3.457689154460354786e+01
-9.988442024514689876e+00 1.813732684012968832e+01 3.432918777118442932e+01
-8.753091526048075721e+00 1.828369884276136403e+01 3.551351388562945743e+01
-9.637492002837852567e+00 1.842473999208739599e+01 3.448971272002130206e+01
-6.978063975316290524e+00 1.802974987500317994e+01 3.683866899954723095e+01
-4.205624534784202062e+00 1.765521645170110077e+01 3.781719630107870245e+01
-5.587051954721842684e+00 1.799622768302430842e+01 3.740059323520110013e+01
-2.978134900479445957e+00 1.687924637671244810e+01 3.850693437786594586e+01
7.671180804139899889e-01 1.531195960683678869e+01 4.005041825893579244e+01
3.367296043082762314e+00 1.426764960116345549e+01 4.090318855505881146e+01
4.474025649809393101e+00 1.348452971234851638e+01 4.141287299167541391e+01
-1.125463139039170812e+01 1.717740221778079501e+01 3.376530191303659478e+01
-1.019604258476527292e+01 1.822066771798748519e+01 3.396637698526763671e+01
-8.307095353583170194e+00 1.843164864689450866e+01 3.583641351375685957e+01
-7.675995475741680174e+00 1.817986999508838153e+01 3.639806327877660408e+01
-8.067539803089960770e+00 1.829199173814626889e+01 3.610507575576915684e+01
-3.592242461138948073e+00 1.726727809624017596e+01 3.816209664432820148e+01
-5.968584469400378012e+00 1.798484488204073273e+01 3.731017171969973845e+01
-1.873737176348803990e+00 1.656647906565698847e+01 3.879668804921828240e+01
-2.089928584379537657e+00 1.689534682542394251e+01 3.851041465761864657e+01
-2.795558090224579573e+00 1.714873911744430046e+01 3.827927503309114599e+01
-6.782684282711828327e-01 1.608451017383123371e+01 3.928649351522646782e+01
3.109002127834911353e-02 1.552608289301573130e+01 3.983319933326031048e+01
2.240715845658030503e+00 1.488357817053720211e+01 4.048524101684573395e+01
1.503491034251293934e+00 1.509783629817891892e+01 4.026767561923107053e+01
4.541359099498296636e+00 1.373147792566760472e+01 4.126483036484793132e+01
-1.054031890815307015e+01 1.793006468066357328e+01 3.376574536666801407e+01
-1.105837799287869849e+01 1.756353175294477964e+01 3.342064116673429197e+01
-1.083625916330833583e+01 1.777721628869545256e+01 3.351569958619452194e+01
-1.040339063562408306e+01 1.830397219877555415e+01 3.360367716628892509e+01
-9.805381826813023949e+00 1.852985628669837581e+01 3.415080258501613741e+01
-7.581151316155701814e+00 1.844945763110541748e+01 3.636971093411103340e+01
-6.998150245202690911e+00 1.838090412891994774e+01 3.673223163289024740e+01
-4.758365202349428280e+00 1.792939304713308246e+01 3.763420529643181567e+01
-3.500665182952096721e+00 1.740198550071204764e+01 3.804824049315939760e+01
-5.306806114542829356e+00 1.803873982407387899e+01 3.752134692046919184e+01
-6.425094006730565077e+00 1.839337758132761280e+01 3.702619170495840706e+01
-1.980542086026381821e+00 1.685607020156002278e+01 3.854623922930571212e+01
-2.577320818311902073e+00 1.720444588274940756e+01 3.823712368604510203e+01
-1.383810420815311026e+00 1.664182445302357749e+01 3.874163953294147689e+01
2.943230027921043934e+00 1.471658152881432002e+01 4.062495312388630708e+01
4.915103290851067230e-01 1.558432145650391121e+01 3.975033652939646345e+01
9.519120174409951840e-01 1.564247910311516243e+01 3.966940360465191873e+01
4.173608160872746886e+00 1.401991371739679693e+01 4.107245195358763112e+01
-8.688858127062076164e+00 1.858947176771253851e+01 3.544903177233961600e+01
-1.127832320814455436e+01 1.774646431838865013e+01 3.295582410914709470e+01
-9.989455246945045275e+00 1.869544964675016985e+01 3.374959531476201136e+01
-9.284785832077481871e+00 1.871208800021107876e+01 3.465021786181964103e+01
-4.750038887501160545e+00 1.814167100154166334e+01 3.763879366905938184e+01
-3.769021162683707349e+00 1.776648082016619767e+01 3.773293598203414234e+01
-4.531677652230981401e+00 1.819726884376215637e+01 3.759667198466342342e+01
-5.863671577899583376e+00 1.847777166912947067e+01 3.726816713304281592e+01
-3.173293533053666238e+00 1.748549063082423061e+01 3.798502740513063713e+01
-1.980785243614030522e+00 1.692320236586152404e+01 3.848934930247783370e+01
1.362690022355782411e-02 1.617133959624014850e+01 3.916495659511488014e+01
7.131646051247473306e-01 1.593588048414730096e+01 3.937675000262640879e+01
1.824800101194946400e+00 1.529233478609715213e+01 4.003366074168072686e+01
3.856882470838128185e+00 1.432532142907184003e+01 4.090150363127114019e+01
-8.849746424829762148e+00 1.877716487732132222e+01 3.514680560837003043e+01
-1.105627072196309157e+01 1.796009529005052130e+01 3.305071022822509974e+01
-1.145532894872666851e+01 1.744482398991484473e+01 3.270875079728428148e+01
-1.146563176265816075e+01 1.704921058913164345e+01 3.317542801230312932e+01
-1.083363480881448915e+01 1.817374782816780510e+01 3.314580746215177243e+01
-1.030117118370074891e+01 1.881992462323319515e+01 3.320581012253384756e+01
-1.061056396215370512e+01 1.838726416924511753e+01 3.324097846203292050e+01
-9.360257747809274775e+00 1.901330373189472311e+01 3.422235458429309318e+01
-9.621264659557137833e+00 1.892219698844210640e+01 3.397243613490622494e+01
-8.142682771172923495e+00 1.861660606163030351e+01 3.592132456401622420e+01
-8.621558660596331691e+00 1.889508600725756438e+01 3.538457191156453518e+01
-5.311081925439557594e+00 1.820359612431192176e+01 3.745118403144601160e+01
-3.237427973815193649e+00 1.795992948394805921e+01 3.761726232141830906e+01
-3.722831245184288207e+00 1.825624235857182498e+01 3.760110602587641182e+01
-6.855704203393533369e-01 1.640672431145866739e+01 3.895318723474202471e+01
-1.781807559651496176e+00 1.723175807868337728e+01 3.819140974710102654e+01
-2.444418306074488179e+00 1.741004180382111599e+01 3.803855005369795350e+01
-3.106745775552441913e+00 1.758826231806064655e+01 3.788574292852411673e+01
1.671375839145339270e-01 1.648342921156019969e+01 3.886127712300582715e+01
2.777997954428967464e+00 1.490555998075760513e+01 4.036337734623533180e+01
4.347041078071052667e+00 1.438301228748307992e+01 4.089981779695099107e+01
2.022521523700654189e+00 1.551284537423398113e+01 3.972118476639732876e+01
1.412409326377622731e+00 1.570056581633505921e+01 3.958835748027463097e+01
-1.110173983233297434e+01 1.826847897108785901e+01 3.230939593900804141e+01
-1.091319712370903794e+01 1.831427774042256473e+01 3.266697322703502238e+01
-1.132570982451865760e+01 1.778764497686684365e+01 3.229171490750841400e+01
-1.163250314826953691e+01 1.714247975273430669e+01 3.246146456473572783e+01
-1.071491488301853678e+01 1.852174633861682906e+01 3.271526199176695116e+01
-9.115292190949379147e+00 1.899121703395572780e+01 3.471503302492098442e+01
-4.231345789241465205e+00 1.830771268047339717e+01 3.765082642717114680e+01
-9.194386631698603374e-01 1.675828890021741202e+01 3.861962614153302553e+01
-1.847131936101936711e+00 1.741768282236696308e+01 3.805712720662681647e+01
-1.118459205547279955e+00 1.705328973227468481e+01 3.834442603935936233e+01
-1.151375679822992160e+00 1.714636601894665802e+01 3.827719932090587207e+01
7.894006177921337741e-01 1.609209930172927727e+01 3.922485960607207289e+01
-4.547376995562338875e-01 1.687473660075332660e+01 3.849751291220830751e+01
3.645312256637613491e+00 1.454972990780431275e+01 4.076279529592643058e+01
3.315650814267860902e+00 1.492750071305199988e+01 4.024161802892162854e+01
2.632735244797247631e+00 1.532511253621593461e+01 3.985398986671053478e+01
-8.943660265288675859e+00 1.927063713886330021e+01 3.477992039098405286e+01
-1.148696950653345716e+01 1.750434039614903625e+01 3.210910427665999833e+01
-1.047521947664376007e+01 1.898274743102884088e+01 3.265326773586826903e+01
-9.713345364766693635e+00 1.928361145149678535e+01 3.348238729066536479e+01
-9.990089490678062845e+00 1.925244557693425662e+01 3.317068747571557452e+01
-9.435774889937658116e+00 1.931474605541368916e+01 3.379389767879128925e+01
-9.172466832498361811e+00 1.921201215284645869e+01 3.440282195525865916e+01
-2.542330702271995424e+00 1.768881279900013581e+01 3.783719509879020393e+01
-5.294220910020944082e+00 1.862802552376218301e+01 3.746032935890186621e+01
-4.693577126630017915e+00 1.884883596484640478e+01 3.756839319501371222e+01
-4.208213609948777467e+00 1.855254426519821820e+01 3.758482311690584510e+01
-3.651665337506652342e+00 1.855502261185369406e+01 3.758433236058490934e+01
-1.365172177144017951e+00 1.758612722643657378e+01 3.789408296217203542e+01
1.958933148688966897e-01 1.668721457915927431e+01 3.863778162462617871e+01
8.462181553377229326e-01 1.649979146059466117e+01 3.877797527479780371e+01
2.335896002951663775e+00 1.585859534176409724e+01 3.932856106652610606e+01
1.874022738794473897e+00 1.577959624134846628e+01 3.945853911300247319e+01
1.496800806343767443e+00 1.631230353648992093e+01 3.891821660298963081e+01
-1.081941567465035270e+01 1.865636444901223712e+01 3.218871618175370486e+01
-1.064833932956066853e+01 1.890886441733892909e+01 3.227103086122421871e+01
-9.247624400944989276e+00 1.951368126595175667e+01 3.397437916718313033e+01
-2.613363119234667131e+00 1.783532979226754378e+01 3.770953576758925863e+01
-2.776222255480355727e+00 1.804093698452284400e+01 3.763228294750634717e+01
-2.898633407592211775e+00 1.846460355759158745e+01 3.761532082833950597e+01
-1.989278451690811300e+00 1.771072895155802840e+01 3.780180931320030169e+01
-2.315008462468953532e+00 1.812189823633594088e+01 3.764729075461399788e+01
3.854140797404341789e+00 1.494941252881116078e+01 4.011982382185464502e+01
3.243010869560714937e+00 1.513738094978610960e+01 3.998675364100873963e+01
3.324812029200401753e+00 1.544391209439129042e+01 3.965917376652463133e+01
-9.327529515134079574e+00 1.968842003993330536e+01 3.341766939150189586e+01
-9.605341459125819270e+00 1.965710930479882990e+01 3.310619590988203242e+01
-1.122339451798866428e+01 1.811648374023340935e+01 3.179505271420972434e+01
-1.137308274754261106e+01 1.782876346220820452e+01 3.162758123719070014e+01
-1.161516336701695806e+01 1.735561065779554824e+01 3.158837621446539856e+01
-1.016484424447636137e+01 1.941540592435067225e+01 3.261769152216042045e+01
-9.193032399997958848e+00 1.974793938902431378e+01 3.367899757307931452e+01
-4.065877324677378724e+00 1.914999183838586205e+01 3.755063767386049989e+01
-7.410428233395853770e-01 1.746152283147355533e+01 3.798635810701412652e+01
-1.609530100543830944e+00 1.789450553307844416e+01 3.777820191657507110e+01
2.652085110117370637e-02 1.704364989054111135e+01 3.833414355098542359e+01
5.073631076818815311e-01 1.721230106412775385e+01 3.817091610857480077e+01
1.079390110138143122e+00 1.689384535353294581e+01 3.842769543631003870e+01
1.651444147585109157e+00 1.657539729092576408e+01 3.868442588379984670e+01
2.147387248681344563e+00 1.612482779225307539e+01 3.905844775222026755e+01
2.797576673750362009e+00 1.593747953395165240e+01 3.919858272778347441e+01
-9.813279131449050396e+00 1.973717829691988612e+01 3.273314164588197173e+01
-9.219344381344354744e+00 2.006155118841796181e+01 3.304165991313502815e+01
-1.108967980407117260e+01 1.848402332592062081e+01 3.142888990526945747e+01
-1.092398220827803179e+01 1.879099263467829317e+01 3.166176228796920000e+01
-1.125533979548077390e+01 1.817664232120861101e+01 3.119581142909649074e+01
-1.142045193094439526e+01 1.786980798132204384e+01 3.096329546597126026e+01
-1.085745502629791837e+01 1.878996449084972653e+01 3.109416318802198731e+01
-1.101598676914427344e+01 1.850544094042984966e+01 3.091968822080793444e+01
-1.033920757561502946e+01 1.957816072749991676e+01 3.206495428405184356e+01
-1.053446265252495273e+01 1.931589350050810339e+01 3.193056497878237820e+01
-1.072954696559622967e+01 1.905328123927565187e+01 3.179605149963552080e+01
-9.058328141637286279e+00 1.971269923654665135e+01 3.415493583191689453e+01
-3.482256430589178997e+00 1.880730229017258637e+01 3.758312142272244216e+01
-9.039856399597785419e-01 1.766711206389673094e+01 3.790910828087507412e+01
2.224519984645260795e+00 1.625641298155416692e+01 3.894154607233901544e+01
-1.168924359012133429e-01 1.733692106956893397e+01 3.807863057123351069e+01
1.237246948740025276e+00 1.702906759416999094e+01 3.827931705865160694e+01
-9.428027372115028726e+00 2.014157370648632650e+01 3.266864325540507252e+01
-1.107284273542083675e+01 1.832884180352062842e+01 3.046118291085773677e+01
-2.692324901059771403e+00 1.859317607975390274e+01 3.755396132586781022e+01
-3.069642113027476693e+00 1.906438950702718671e+01 3.746018637229337145e+01
-3.446959774717693215e+00 1.953553381452582016e+01 3.736579048576862050e+01
-1.600765139508255830e+00 1.801099677661585829e+01 3.769866080236651840e+01
-1.983679195372911597e-01 1.743971430883724238e+01 3.804001092282783247e+01
3.470138005095546152e+00 1.569778481380432211e+01 3.929601022287677381e+01
1.967089322786094163e+00 1.684585098047907081e+01 3.838770601889660838e+01
-8.949380168013437498e+00 2.018120773851669014e+01 3.356400107375785780e+01
-9.636261192605148906e+00 2.022154884989326007e+01 3.229540807724438167e+01
-9.988199690219246918e+00 1.989990085135268316e+01 3.218017576597323881e+01
-1.079089546214551909e+01 1.878884737993873344e+01 3.052628551117138045e+01
-1.057455313584343237e+01 1.923278873240866460e+01 3.118264927309317969e+01
-1.001168445139181173e+01 1.997591792768919916e+01 3.166006048754362467e+01
-1.028208510080900240e+01 1.962602585105662101e+01 3.138446672556205641e+01
-1.022487912860801984e+01 1.967365877750340886e+01 3.070381449049955336e+01
-1.063187965664605095e+01 1.906260510734495028e+01 3.071480541313360746e+01
-2.358059389227808111e+00 1.893601880352487754e+01 3.751574327519477947e+01
-1.792084220882066425e+00 1.822923855927356485e+01 3.765609701128209252e+01
-8.865124700813994396e-01 1.790008648048029727e+01 3.775002761256507711e+01
3.250855533052025681e+00 1.605719197567351841e+01 3.903662151987929008e+01
2.696957098762339022e+00 1.666263201597477561e+01 3.849609474075448645e+01
3.703996612922458187e+00 1.617678289951468784e+01 3.887469140330981787e+01
5.420272637218911393e-01 1.767823426016656896e+01 3.785275165392270935e+01
-1.722485470587351852e-01 1.778916618411181716e+01 3.780139116366896701e+01
1.238980256770481292e+00 1.733440941920321876e+01 3.806318739601568524e+01
-9.214759687219162387e+00 2.046969318868818277e+01 3.237774824817610408e+01
-9.006222366151483527e+00 2.038945394753120866e+01 3.275116741757380368e+01
-1.072437809604887704e+01 1.878761940327134639e+01 2.995876403339454797e+01
-1.086797449870063481e+01 1.843493730078519022e+01 2.962432174418465181e+01
-9.308033196775751250e+00 2.054792506572768929e+01 3.199900791968091696e+01
-1.039143110908345236e+01 1.937858092886303041e+01 3.045562383343082402e+01
-1.055797565374046876e+01 1.908315279397594821e+01 3.020720190819543305e+01
-9.954619207648020662e+00 2.002347721500249378e+01 3.097954647637801884e+01
-1.813607935322538722e+00 1.863625790954232642e+01 3.759039191354437293e+01
-2.902510037047383307e+00 1.923577903234838971e+01 3.744089002031711289e+01
-1.269155350598420551e+00 1.833649424093299274e+01 3.766487087486536467e+01
2.699175476061097534e+00 1.706970326027789753e+01 3.820792757859716460e+01
3.426875943479307907e+00 1.647940939639736868e+01 3.860448248493310786e+01
1.256312847434023272e+00 1.756729124791493390e+01 3.790410782595829176e+01
1.970611789792597435e+00 1.745633389108977696e+01 3.795546067826860082e+01
2.668334170877910416e-02 1.798443140640352667e+01 3.778116581973743848e+01
-8.635063191237279057e+00 2.064069975687333169e+01 3.305366039008480783e+01
-9.660203125517650591e+00 2.029740187359479719e+01 3.177527282504572526e+01
-1.053583374625029911e+01 1.873732560967926730e+01 2.936890503095763449e+01
-8.792642190534353475e+00 2.071771269522951897e+01 3.246000415484208190e+01
-1.022962053489455592e+01 1.937883010476869927e+01 3.001628775448454434e+01
-1.006342824312919504e+01 1.964969543458990486e+01 3.020807372810423885e+01
-9.683927554041057206e+00 2.037303674986215185e+01 3.125514040493319712e+01
-9.718267305308659232e+00 2.001790405561676067e+01 3.035816634369297162e+01
-1.023257077410407412e+01 1.919487050066926059e+01 2.958752262973068170e+01
-9.901842951327935793e+00 1.962562526755557712e+01 2.971190856955734105e+01
-2.493411895080152263e+00 1.958077775400039044e+01 3.716134840293834429e+01
-2.901707840562186558e+00 1.999567014816286914e+01 3.699512537354921449e+01
-6.212463971094466242e-01 1.816046295969700708e+01 3.772302818299404947e+01
3.427893589124463958e+00 1.668299225892829796e+01 3.846039320612604939e+01
6.746361076097751042e-01 1.780839902255400276e+01 3.783928388768419637e+01
1.322611948373316082e+00 1.763236650825308516e+01 3.789738219091228899e+01
-8.886510544221886576e+00 2.079582457091733616e+01 3.208112345202231097e+01
-9.447657144232225690e+00 2.036756107503980218e+01 3.063435253023944327e+01
-1.020429738879803239e+01 1.898158857674290445e+01 2.905326489992875594e+01
-9.740448191745665341e+00 1.960147780709380427e+01 2.921631581473443262e+01
-9.879763015584771324e+00 1.928001475348673921e+01 2.887387882360896185e+01
-2.085314779045421840e+00 1.916604351687185570e+01 3.732954587315282424e+01
-1.677245744853153697e+00 1.875129834127771389e+01 3.749735114491566179e+01
-2.320770625676850329e+00 1.969596533319944598e+01 3.709627024541958207e+01
-5.834516432936798225e-01 1.825322495450895843e+01 3.767300091292850794e+01
-5.780566735279901724e-01 1.879689716059939286e+01 3.740583589897519801e+01
-1.159165987295186273e+00 1.909669217062994662e+01 3.730282251346498157e+01
3.251502783080217451e+00 1.721944899139901608e+01 3.801839530183233506e+01
4.156806167704482746e+00 1.629619022559035102e+01 3.871286594672270809e+01
3.892472401085448119e+00 1.710090856822478855e+01 3.804987447695816627e+01
2.611022494918370906e+00 1.733789931715237387e+01 3.798693011282710330e+01
2.490914485647935273e+00 1.755520645366110699e+01 3.787757924978264157e+01
2.159884866626094801e+00 1.791983661211241241e+01 3.770544378743283431e+01
1.474022703241936849e+00 1.800323088745635047e+01 3.769734539178024590e+01
7.879716731079168257e-01 1.808661617555932111e+01 3.768923633541035656e+01
1.022580800464464312e-01 1.816993382653029343e+01 3.768112231738494700e+01
-1.068276936260675569e+01 1.841449409230507328e+01 2.910274413286916229e+01
-9.332224236349254909e+00 2.062333692417521291e+01 3.147891233520556753e+01
-8.979912521342038545e+00 2.087364881194141120e+01 3.170272243398186518e+01
-9.726730039325858002e+00 1.985813717872736461e+01 2.991984388072018319e+01
-1.034732029981829449e+01 1.868693361868326974e+01 2.877914697297129365e+01
-9.447001323836106579e+00 1.952110739830187214e+01 2.868359295095466166e+01
-9.564150130569032626e+00 1.985478995929044999e+01 2.948139637026548598e+01
-9.093455247506168959e+00 1.991595491188939704e+01 2.893761161214547784e+01
-1.739812526307213947e+00 1.939624727011008076e+01 3.719969340972536287e+01
-1.059813760459042298e+00 1.922272812117093821e+01 3.716456784506024746e+01
1.063486783827330417e-01 1.862308436962811697e+01 3.745850476361881221e+01
1.156875342009220931e-01 1.873639970081191919e+01 3.738655505691128411e+01
7.905924035674660733e-01 1.844930668766471626e+01 3.751112195541606553e+01
-8.149858805779931714e+00 2.106160181956098398e+01 3.265520626164360607e+01
-8.573079141954551119e+00 2.103813788386759143e+01 3.188885291198951677e+01
-8.819715096299573176e+00 2.092932425297026100e+01 3.121186303481309920e+01
-9.171827196052277031e+00 2.067907372762320861e+01 3.098783950459757008e+01
-9.210785070794315743e+00 2.036153999152126204e+01 3.001207676771178967e+01
-9.387597224118708894e+00 2.010814657544683826e+01 2.974665182228589799e+01
-8.955706448504129114e+00 2.031934470970053752e+01 2.956090458853147140e+01
-8.599291892923650593e+00 2.066280472571642690e+01 2.979079171367321521e+01
-8.935136385634976364e+00 2.067308125062434598e+01 3.036612627015752963e+01
-1.001917252371337419e+01 1.895812574159219821e+01 2.853102663175396714e+01
-9.003452034243059288e+00 1.970575701833041293e+01 2.842969286743938895e+01
-8.583708623902493784e+00 1.995287098437789552e+01 2.831105299194092595e+01
-8.700776205149054476e+00 2.028202730692621358e+01 2.910996291197878705e+01
-2.022792203522301158e+00 2.007377264618267532e+01 3.668253590750548909e+01
-5.192791445758939695e-01 1.925968018493961509e+01 3.700076823243950486e+01
3.011598555528032239e+00 1.765402598536158862e+01 3.779964162918921744e+01
3.532809649628519288e+00 1.775279119992093513e+01 3.772162607486946229e+01
2.845957059410866297e+00 1.783638180958406139e+01 3.771353516191404509e+01
2.162168830133481823e+00 1.810094639479112644e+01 3.761648101582017745e+01
1.476114623564370065e+00 1.827519704617299823e+01 3.756379979177634709e+01
-3.050346104206186001e-03 1.918110433111246493e+01 3.701533866227499203e+01
-8.165718978303846853e+00 2.120264713079870589e+01 3.207493614114092395e+01
-8.505277133825906333e+00 2.112722985777771356e+01 3.151453003534302155e+01
-8.540077745340822091e+00 2.050155992088330947e+01 2.935421439289607193e+01
-9.586307882057013785e+00 1.919951968132075493e+01 2.834069604564161438e+01
-9.153291188550504387e+00 1.944223432290419495e+01 2.815032992610590767e+01
-8.445594221617383823e+00 2.024468086895741692e+01 2.865853989807348512e+01
-1.540931148455508604e+00 1.964794963416768425e+01 3.692330302265013842e+01
-2.504280868115595027e+00 2.049921571569279521e+01 3.644575709301048505e+01
-1.141797721207496785e+00 1.998114539230402542e+01 3.654366861724682281e+01
4.103962702474444058e+00 1.750076104890331408e+01 3.782739455756199476e+01
4.533777988108827373e+00 1.698230326589109040e+01 3.808136139570768108e+01
2.847538345652608438e+00 1.792686223625625175e+01 3.766907360715338626e+01
2.195938705537213931e+00 1.855471940060444780e+01 3.732866733603042064e+01
1.502145122380108333e+00 1.861536567542896847e+01 3.734798616161506857e+01
7.410409363577789010e-01 1.902878000108920276e+01 3.706999066771685847e+01
8.088262185122347958e-01 1.867591372936093919e+01 3.736727973180878593e+01
-8.344976978212924834e+00 2.118254615222704729e+01 3.102373285424364013e+01
-8.659130132353144660e+00 2.098467240153063074e+01 3.072024475943314314e+01
-8.323264545334646769e+00 2.097528112711163573e+01 3.014449297025372942e+01
-8.140492225787834712e+00 2.072746613999122545e+01 2.926585980820108190e+01
-7.987833446142739824e+00 2.096884673246588804e+01 2.956951094903189059e+01
-8.721627484717771495e+00 1.966135211196235133e+01 2.796391438015342246e+01
-8.074855852623388230e+00 2.018797356315899094e+01 2.818973143444218010e+01
-7.540605011522117707e+00 2.142793416858252442e+01 3.238167196003453085e+01
-8.098584501692025484e+00 2.129146941772726009e+01 3.170079569861070823e+01
-8.031204794664489555e+00 2.137997269058189431e+01 3.132652078425987341e+01
-1.822878377585563481e+00 2.024012054004457539e+01 3.649384201747465539e+01
-1.698864594717274246e+00 2.057582364990342327e+01 3.603631539293353825e+01
-4.604697701855683944e-01 1.972207417406052343e+01 3.659560336282340387e+01
4.674411948829202856e+00 1.724903033394886265e+01 3.793300163550019732e+01
2.890495887793032903e+00 1.849393921076747915e+01 3.730931422650039764e+01
1.570876247089097344e+00 1.914348930586257680e+01 3.688528458289850676e+01
2.175527259790561441e-01 1.952896267262594066e+01 3.669235100637401104e+01
8.943845601966233794e-01 1.933618235332253477e+01 3.678886975236050461e+01
1.563088949126429039e+00 1.965265675602886120e+01 3.640245869853582406e+01
8.892174854324909061e-01 1.967589242123547422e+01 3.646678876929242108e+01
-8.292971020630144352e+00 2.048624760818031376e+01 2.896241603949164301e+01
-7.755451015616687371e+00 2.140076238029736544e+01 3.196077025522970771e+01
-7.688301170593432765e+00 2.148925336084694138e+01 3.158664761121020348e+01
-7.503770146674960451e+00 2.160226067146873064e+01 3.122743724499916951e+01
-7.731775942804326007e+00 2.125234789102224653e+01 2.998299184090923220e+01
-8.859480423629833012e+00 1.936985251831638166e+01 2.761680249405877063e+01
-8.212925951822658277e+00 1.989630741547330928e+01 2.784241220334967792e+01
-9.292654080567547936e+00 1.911950183083614974e+01 2.780735521483040529e+01
-7.753449727145171444e+00 2.145702114954009687e+01 3.086125100406328059e+01
-8.067048188330971925e+00 2.125888280247544415e+01 3.055813647337720340e+01
-2.318556229502079624e+00 2.100292187216510698e+01 3.575925871917648635e+01
-1.079777777572800801e+00 2.014906311735774125e+01 3.631412519957570595e+01
4.185030927762521280e+00 1.768331761473293184e+01 3.768711933181282348e+01
2.147952746413764602e-01 1.969902075016979026e+01 3.653116037556207374e+01
2.247334908384286400e+00 1.895079621286692273e+01 3.698164095014615071e+01
-5.514041497965523897e-01 2.010504950956299908e+01 3.621983520017061409e+01
-7.791664696513652011e+00 2.069617224234630370e+01 2.885549407870218985e+01
-7.944333924068634367e+00 2.045481455971719953e+01 2.855198209535009468e+01
-7.638914760155214978e+00 2.093753047654339383e+01 2.915900898531735663e+01
-7.573664438123898002e+00 2.039800940846471633e+01 2.808300376672092824e+01
-7.443275473921191931e+00 2.066484982337501108e+01 2.844545721697265606e+01
-7.290318264978385976e+00 2.090625526132050993e+01 2.874885203782483956e+01
-6.848616972333300801e+00 2.173584738820265017e+01 3.223826045177889910e+01
-7.345258800847516589e+00 2.159848513148366678e+01 3.184655510105664433e+01
-6.906524108251306693e+00 2.176309727683234740e+01 3.180584309781674435e+01
-7.160455953391386963e+00 2.171163793936451825e+01 3.148745971275949529e+01
-7.276008233193724806e+00 2.125286313595198351e+01 2.944593015702813332e+01
-8.350611818979933432e+00 1.960481499922430970e+01 2.749505444344428895e+01
-7.704135726819181684e+00 2.013128969580823835e+01 2.772088703001909948e+01
-7.475721556496637277e+00 2.153565988666482056e+01 3.039619362444049244e+01
-6.422013798891009762e-01 2.048725150191947364e+01 3.584448988835895733e+01
1.658268705468838450e-02 2.026138820699031129e+01 3.598745124722973543e+01
3.584772859253283261e+00 1.843310403282190180e+01 3.728995474323701131e+01
3.905557995962582574e+00 1.806280328380205802e+01 3.749605856654822134e+01
4.837593081580176424e+00 1.761378855486405826e+01 3.765257803732248476e+01
6.947357348907060581e-01 2.008893396076813076e+01 3.607375238879775026e+01
2.153599137495471272e+00 1.930569913534984394e+01 3.665650673676599069e+01
2.924782332633957704e+00 1.875781070790320015e+01 3.707808685128372872e+01
2.626576707609733941e+00 1.924387980202151383e+01 3.665454412734143119e+01
-7.019975638215200320e+00 2.153619424734700871e+01 2.985914307096821929e+01
-7.072403395340579380e+00 2.060806333454641504e+01 2.797624831975339887e+01
-6.941881785074815348e+00 2.087501151621752271e+01 2.833884778147670147e+01
-6.753133139733698442e+00 2.120603842177714071e+01 2.883083949448129246e+01
-6.564461977733984988e+00 2.153674709755794225e+01 2.932235837025567804e+01
-6.585421086404076085e+00 2.195718879325305650e+01 3.067854122580848752e+01
-7.225850305727485434e+00 2.168099907783655667e+01 3.076186319942614489e+01
-6.975359623839613832e+00 2.182657943175467707e+01 3.112810758682748968e+01
-6.415738501531543569e+00 2.204291274037626636e+01 3.110029059836960386e+01
-6.721905977785485042e+00 2.187788091965021664e+01 3.144688111995888846e+01
-6.468573183214655131e+00 2.192911650532181156e+01 3.176512483028350076e+01
-6.162559067219171460e+00 2.209411663545692761e+01 3.141878899934579650e+01
-6.009048517659929090e+00 2.207091898271113450e+01 3.179524599641527161e+01
-6.104287267326903965e+00 2.198896420841930777e+01 3.222811763627481696e+01
-6.835134890185076806e+00 2.181193896490990625e+01 3.031272460362747978e+01
-6.195730802744036758e+00 2.208770629165181987e+01 3.022933303345109479e+01
-8.983868175971245762e+00 1.904215522278771999e+01 2.721786602427928869e+01
-7.841933698815925169e+00 1.983967607740116890e+01 2.737334691319397351e+01
-1.525187730186963853e+00 2.093604588152557611e+01 3.561552008432234118e+01
4.278081933475506915e+00 1.837225437322397070e+01 3.727060906220079772e+01
3.279486129959440888e+00 1.916440440773292764e+01 3.664616783868749650e+01
1.117761860986864697e+00 2.031756035546423433e+01 3.578645782603299352e+01
2.236518044252094661e+00 1.962927716470848694e+01 3.633815982782594034e+01
3.601658953748640979e+00 1.856497453283600763e+01 3.717440373307556456e+01
1.734915568879682901e+00 2.013363038123473103e+01 3.589224383033624832e+01
-7.202765999619712645e+00 2.034135919885406096e+01 2.761397336029990512e+01
-6.386039004519071582e+00 2.105572210612448814e+01 2.829163157125868366e+01
-6.515516582991736527e+00 2.077843848931818016e+01 2.791656824200106968e+01
-6.183662856445089950e+00 2.128722848519843325e+01 2.858666190484390413e+01
-6.134543157468129948e+00 2.149679367628019833e+01 2.894727590104047721e+01
-5.959729246860185903e+00 2.095918952964759185e+01 2.786937284518784708e+01
-6.035206931456431612e+00 2.172220498014482004e+01 2.929545033796050646e+01
-6.380073057526327140e+00 2.181231625759681592e+01 2.977600308954679065e+01
-5.841165847378293030e+00 2.192008706788499595e+01 2.957066357605476270e+01
-6.645962491603690125e+00 2.051166743658237479e+01 2.755417702345972231e+01
-6.219763247811260776e+00 2.041517079954753555e+01 2.713195531086041967e+01
-6.776368860804244498e+00 2.024489952910796120e+01 2.719178107593176108e+01
-6.375044618376100480e+00 2.008681516362811337e+01 2.673278067596147523e+01
-7.333121533848723672e+00 2.007458871397854239e+01 2.725160062225821633e+01
-6.931623337044482192e+00 1.991659551158933894e+01 2.679271118357830872e+01
-6.026134838510364133e+00 2.217341850570196371e+01 3.065085231884542694e+01
-5.702817248133303707e+00 2.223602288001254124e+01 3.144878192125236893e+01
-5.856378629483502074e+00 2.225914698287557414e+01 3.107240559477690667e+01
-5.549002012527718186e+00 2.221288456367338071e+01 3.182532758420622088e+01
-8.489654553110378643e+00 1.926531595274105158e+01 2.709969276271139194e+01
-1.829605264802527165e+00 2.126404384340727205e+01 3.516163730419505384e+01
-2.378589584707529792e+00 2.146176908169099917e+01 3.500627062012807045e+01
-1.166314996571222451e-01 2.068540832371245841e+01 3.557585797104165692e+01
5.002748352625623340e-01 2.050157709315051235e+01 3.568054680516286226e+01
-5.331959859451774975e+00 2.216993761452124545e+01 3.235314796980806307e+01
4.911152428029286199e+00 1.816512481665057877e+01 3.731939992523415839e+01
4.047614825278061268e+00 1.877554099679965915e+01 3.691706210234820418e+01
-6.089292757157348746e+00 2.068192865082359333e+01 2.749436007280376160e+01
-5.704689474179430952e+00 2.145687046625331362e+01 2.857221047877902009e+01
-5.274897164504599445e+00 2.141698438252320713e+01 2.819715009079579460e+01
-5.830147657181306009e+00 2.123645206896990345e+01 2.824437792522815727e+01
-5.404243467672980472e+00 2.113996560418355486e+01 2.782235324695027856e+01
-5.680672641922749122e+00 2.167081736185952323e+01 2.895190849140124811e+01
-5.126110724495172022e+00 2.175495690968870832e+01 2.871934793759109894e+01
-5.506115075213596555e+00 2.190761070480976258e+01 2.926851238520508502e+01
-5.789709794353225192e+00 2.208943362770281382e+01 2.990018324410661776e+01
-5.818407500872151417e+00 2.025706385019858402e+01 2.667281769537066793e+01
-7.472143944861427300e+00 1.973544877535968212e+01 2.685664156328730456e+01
-5.487826532272499946e+00 2.232550891424481776e+01 3.023419433529457834e+01
-7.980943729019615240e+00 1.950036539945081060e+01 2.697818082112141980e+01
-7.329716450512374637e-01 2.086906155461046453e+01 3.547199604973225462e+01
-1.793689932209182825e+00 2.161028887608723892e+01 3.472403020334745349e+01
-1.943069528731383500e+00 2.180304346058922960e+01 3.435150885791251341e+01
-5.062695217013422067e+00 2.231695385168782764e+01 3.192732777752899409e+01
-5.095669823875983440e+00 2.241554116705309951e+01 3.150015117116642571e+01
4.903860867669447288e+00 1.835619551131609128e+01 3.721078724971471985e+01
2.910900359178964170e+00 1.960565977078858779e+01 3.627375854892125062e+01
9.554034463334885041e-01 2.065237902152663807e+01 3.543937575718004496e+01
2.351236294968903184e+00 1.994993467177519264e+01 3.599782255188482338e+01
3.817078253740074256e+00 1.917870441103661250e+01 3.656329578483890685e+01
3.586432419363448698e+00 1.958173272749829152e+01 3.620923540665911133e+01
1.511355771385544111e+00 2.052411489185198334e+01 3.549466143991809730e+01
-5.533610223638926406e+00 2.086286351223160196e+01 2.744743038415176883e+01
-5.663100626475977784e+00 2.058546816615949027e+01 2.707209892267083617e+01
-5.064228971126728318e+00 2.071271711027368312e+01 2.706689050310007616e+01
-4.934999588297044326e+00 2.098990372307078900e+01 2.744203222074144577e+01
-5.232259968551260521e+00 2.037916215206602644e+01 2.664801717490867716e+01
-4.805753214248363214e+00 2.126709385113446515e+01 2.781716272045952110e+01
-4.686837158515785084e+00 2.154785041120673483e+01 2.821664839676929404e+01
-4.336322736228898300e+00 2.111715534648094206e+01 2.743688748834422952e+01
-4.217449201475449883e+00 2.139789092018704153e+01 2.783639490689688145e+01
-4.504686620972568001e+00 2.177595837713708704e+01 2.854096476078620626e+01
-4.487999101411904057e+00 2.199845300076727739e+01 2.891275339087426488e+01
-4.977272845814713520e+00 2.209293819131849546e+01 2.924154873617890971e+01
-4.098723247308578621e+00 2.167873986874952763e+01 2.823611298808745218e+01
-4.633429543666256478e+00 2.050650951232556096e+01 2.664288240837012722e+01
-5.383261652585281887e+00 2.209117845652540169e+01 2.957068438665864818e+01
-4.560062194060562568e+00 2.226178150869782613e+01 3.261939809354268505e+01
-4.103259974120035736e+00 2.237409352028313947e+01 3.250413801673015968e+01
-4.575894826218628531e+00 2.242112978655622513e+01 3.202936166347440405e+01
-3.825746120301422248e+00 2.224593489129671653e+01 3.303132032241326499e+01
-4.111207305302625237e+00 2.245377784545452826e+01 3.220909005095888489e+01
-3.646268010749873500e+00 2.248644465430311357e+01 3.238884107449266736e+01
-3.282299757627341830e+00 2.233565539491276652e+01 3.298079033097904045e+01
-3.178477423219008280e+00 2.210679907335762451e+01 3.358727949112309830e+01
-4.609360105154261866e+00 2.251962710670743917e+01 3.160210877560121290e+01
-3.988376027601906237e+00 2.261149974532344231e+01 3.175358110823684044e+01
-5.317918472600714708e+00 2.241129335200567141e+01 3.065551292625000102e+01
-1.280963609223082500e+00 2.106643818813651947e+01 3.531690779533764868e+01
-2.677323830545253802e+00 2.183892423676558892e+01 3.426120638227786941e+01
-1.208791831934361571e+00 2.176716387023153132e+01 3.444181200767309292e+01
-5.093031100901083963e-02 2.091524711675559089e+01 3.531064976392783450e+01
-9.708928730212622593e-01 2.131400919758101509e+01 3.495690007284284917e+01
-3.094052696566334526e-01 2.126983747901870814e+01 3.491462286416607697e+01
6.322700336764874862e-01 2.096486111524252038e+01 3.514903608764878840e+01
-5.249045587209119290e+00 2.243872318781356512e+01 3.112394229647300392e+01
-2.526301673603089437e+00 2.216491684395938577e+01 3.361014015022342960e+01
4.609810083798356217e+00 1.864963212777592005e+01 3.696869949288507229e+01
4.453097685734496380e+00 1.899213282468032915e+01 3.666353546399211893e+01
2.123953381213194991e+00 2.037657553853117776e+01 3.556296346721289581e+01
4.223083900523359802e+00 1.939491534347049040e+01 3.630974021675309160e+01
-4.465278436853847843e+00 2.084000054336648233e+01 2.706165844611327387e+01
-3.999063122863367514e+00 2.190406317818051818e+01 2.858414565895170512e+01
-3.747939420898799057e+00 2.124793396622177610e+01 2.745595868937954265e+01
-3.866720693977695245e+00 2.096722402396170892e+01 2.705640499102936403e+01
-4.018173386709062100e+00 2.211682072466595272e+01 2.898347938172126348e+01
-3.415828960308880280e+00 2.213175812813533483e+01 2.882114268306456140e+01
-3.510215336249994600e+00 2.180973152339405630e+01 2.825554991715030084e+01
-4.878632017655929687e+00 2.232804306475139811e+01 2.974006519115610558e+01
-3.523660756955383722e+00 2.264414165295470838e+01 3.193333788268249762e+01
-3.192416782094937844e+00 2.245590316223782068e+01 3.265837735569215283e+01
-2.896885507376262936e+00 2.266139316341969234e+01 3.219417283911422345e+01
-2.738823447071710326e+00 2.242537908283807724e+01 3.293026047660963940e+01
-2.443286616679998691e+00 2.263082938369341690e+01 3.246524658575177824e+01
-4.642688123208727369e+00 2.261801433809657169e+01 3.117529473257806316e+01
-4.021849350061875050e+00 2.270991418933340711e+01 3.132665262655809357e+01
-4.779857581852695603e+00 2.256333936527006045e+01 3.023894330018706000e+01
-1.541299653491732258e+00 2.199507043549584751e+01 3.403747568126946277e+01
-5.678721068234732217e-01 2.162809263920864922e+01 3.451860191720367510e+01
-2.275700021937235196e+00 2.203095367333731147e+01 3.394715816647607198e+01
-6.666273950662046088e-01 2.191166793047457872e+01 3.417056608093363224e+01
2.968376622721170754e+00 1.976597969507289321e+01 3.610347929940756018e+01
5.275858816718018929e+00 1.871916463795998808e+01 3.682302581733047475e+01
4.184950610397372373e+00 1.958596354261741723e+01 3.604781779333954717e+01
1.912370033274473080e+00 2.068917577721220269e+01 3.525433836632294060e+01
-4.425267389625985537e+00 2.221334109298367920e+01 2.929020242938490171e+01
-3.629131630389887953e+00 2.152870589399853785e+01 2.785558182740238564e+01
-2.880773073612862056e+00 2.190868538715099945e+01 2.834969790148063140e+01
-3.321311404081832119e+00 2.245415503925349654e+01 2.938734895386077994e+01
-2.754543461977978946e+00 2.233820171262262022e+01 2.910407262760490354e+01
-3.873353784001847266e+00 2.233373028206947097e+01 2.933879904325365118e+01
-2.727729222055427893e+00 2.212215100964141357e+01 2.871264405459020708e+01
-3.401008431475151195e+00 2.280181648588002119e+01 3.147790055170802859e+01
-2.774342766664214199e+00 2.281905944207671411e+01 3.173879788015260317e+01
-4.711316168156926665e+00 2.259067264074739256e+01 3.070713156613617656e+01
-4.028553828653029356e+00 2.270542264585377978e+01 3.035927008633202107e+01
-4.293820283841557561e+00 2.252693526143227842e+01 2.995517195157761492e+01
-2.306311071219072861e+00 2.232420220394904931e+01 3.328168108901612499e+01
1.315873613027241928e+00 2.101817536290234045e+01 3.498733358109313940e+01
-1.110062995565537225e+00 2.221566916762959210e+01 3.363124092926423714e+01
2.791822219982554198e+00 2.032615654629141488e+01 3.551709619581698973e+01
1.997902716897352438e+00 2.107137420258928984e+01 3.482600807566974055e+01
2.394514621335623872e+00 2.069908596154218827e+01 3.517081970666325930e+01
3.189105848396264875e+00 1.995326122093870680e+01 3.586320917234858285e+01
3.692196995235805357e+00 1.987862662585710893e+01 3.582305442777958859e+01
-3.098995182607973131e+00 2.134496537875745759e+01 2.751361249059360858e+01
-2.979929530174214136e+00 2.162566679439117223e+01 2.791312608676674500e+01
-3.218057121570345291e+00 2.106428009984404781e+01 2.711409845022097542e+01
