-4.818039913429177368e+00 3.831697365052662452e+00 4.582534599609375192e+01
-6.044453243979000412e+00 -3.408197079808062413e-01 4.475602593106646765e+01
1.968810428598200435e+00 4.005638150095464312e+00 4.859298392013720047e+01
1.272591919649041170e+00 4.325163655478413638e+00 4.822338794388407734e+01
5.762502702600453830e-01 4.644696154022269319e+00 4.785474893554177811e+01
4.700716663159031583e+00 3.423640861672966995e+00 4.986793594227096094e+01
6.618594507001860805e+00 2.709154418969605072e+00 5.103159831289153203e+01
7.003280179663981642e+00 2.161063302876776060e+00 5.109623337431431622e+01
-5.839742646560538653e+00 2.975191109618005036e+00 4.526547448184141587e+01
-5.329200161665722746e+00 3.403214724909266131e+00 4.554526021381370526e+01
-6.350353124999999821e+00 2.547110490519373105e+00 4.498565148828124904e+01
-6.475398975008897828e+00 1.889162121263492811e+00 4.479497201492486624e+01
-6.725370151128195140e+00 5.736518925644419342e-01 4.441379399642917747e+01
-3.606181937261262682e+00 5.177535731365123794e+00 4.600659736887629947e+01
-3.074780866821094083e+00 5.301945371617700076e+00 4.617728122435231342e+01
-1.212155754230050397e-01 4.964696814708586814e+00 4.748665916962758615e+01
5.378807722169883121e+00 3.336804614714022232e+00 5.017337205814434498e+01
3.221934461850577414e+00 4.018911252406410561e+00 4.913123732329781745e+01
2.451305143908010464e+00 4.293878869487243399e+00 4.873563925792863216e+01
6.230801839389891406e+00 3.405360755730282740e+00 5.088714189398474730e+01
7.854300769699893436e+00 2.369998108524057123e+00 5.172486158977373094e+01
8.333762981755620913e+00 1.914590822236903245e+00 5.173969016788817754e+01
-6.600389441026219828e+00 1.231415053026586381e+00 4.460437522217996076e+01
-8.185164277812772005e-01 5.284573332559883596e+00 4.711951125172877397e+01
-2.339398519984201119e+00 5.643360758394942778e+00 4.640800099331563899e+01
-4.392982975840893367e+00 4.991712271580883709e+00 4.574875805260796113e+01
-5.046602265123404152e+00 4.605656419450272487e+00 4.557512256539754247e+01
4.340665194475056277e-01 5.182150303040513606e+00 4.767664968286818095e+01
1.211092775438282976e+00 5.118719876908845556e+00 4.802259213381380221e+01
4.516130215363702405e+00 4.054748764637257530e+00 4.968286107485624825e+01
3.776685714842328068e+00 4.352201261513786612e+00 4.931448615753753728e+01
-5.491363763766676342e+00 4.324417362566446599e+00 4.536950632947985440e+01
-6.850517968750000186e+00 -8.505965820844518799e-02 4.422295808203124778e+01
-1.516744560673171538e+00 5.822003828597858366e+00 4.671113797226296072e+01
1.695883554905610602e+00 4.547529715612082413e+00 4.835536234496122177e+01
-1.622177023275833130e-01 5.493806612146789448e+00 4.735450802946780868e+01
5.214475912328704332e+00 3.897745103488586604e+00 5.000899734122086215e+01
3.006414085569980355e+00 4.627907432304155577e+00 4.890928222779783141e+01
7.473010477397234119e+00 2.918152274133135826e+00 5.166144909856812006e+01
7.091240553791883450e+00 3.466717099393930912e+00 5.159778680089790015e+01
-6.129547920491257962e+00 3.788543534479530628e+00 4.501984015111650450e+01
-6.965208799495773206e+00 2.735680485074883705e+00 4.448251221402891531e+01
-6.640065168400328233e+00 3.360333245902995536e+00 4.474008557429034028e+01
-7.250425768232258150e+00 1.917661479998056695e+00 4.413421789883523161e+01
-7.097481174641651513e+00 1.151772522936669763e+00 4.416815411710375372e+01
-2.213529280846572966e+00 6.358460066116712106e+00 4.630403267618081742e+01
-4.314131288872038006e+00 5.763389773920814640e+00 4.560577509111164574e+01
-3.721615060206078685e+00 5.794490443119456380e+00 4.582087014661713198e+01
2.236012929591284504e+00 4.902855467452561733e+00 4.850837833886479444e+01
5.782792954953951181e+00 3.799576705709224900e+00 5.057345692903631829e+01
4.331374514158828681e+00 4.685831818546552618e+00 4.949770549692549082e+01
-7.242449315730245196e+00 5.925662913969590440e-01 4.397294391422909143e+01
-9.279680597267557784e-01 5.918085280345378507e+00 4.690815062895570975e+01
-3.252423641596129400e+00 6.012035814027442804e+00 4.594756864637569294e+01
-5.275076632048150138e+00 5.379110707762999155e+00 4.532499618832169830e+01
4.936735787541683962e-01 5.703011371412501695e+00 4.758948265293985003e+01
-2.717936497745737645e-01 6.127150507122179235e+00 4.714329340372313482e+01
3.560982994129107571e+00 4.961608994476610413e+00 4.909085031266521071e+01
5.050191101401185101e+00 4.458772660173822899e+00 4.984459922515929264e+01
6.842748103253091685e+00 4.089187305570622044e+00 5.148460204272967644e+01
-5.653205557013992077e+00 5.006919931202689078e+00 4.517113611253539318e+01
-7.603386601032308789e+00 1.190309306071261619e-01 4.366206661652545762e+01
-1.625314701306313836e+00 6.454877700890131464e+00 4.650078988133677171e+01
-2.795474606471528123e+00 6.276932261611411157e+00 4.607971043078364914e+01
-4.859108501310605455e+00 5.665364821400103779e+00 4.541847056533105587e+01
1.149422011562982737e+00 5.912296436639456587e+00 4.782455598856667933e+01
2.020574585069730311e+00 5.512182096007856025e+00 4.828335425181634832e+01
5.600069865365705724e+00 4.284686230718829592e+00 5.039145124094744688e+01
2.790874730881773846e+00 5.236910602575120421e+00 4.868449424352482424e+01
-6.929892121576893160e+00 4.173577259868620715e+00 4.449442226039883508e+01
-6.546905681700727619e+00 4.494948190333581728e+00 4.470428075141189339e+01
-7.579987214817461627e+00 2.924221870529304379e+00 4.397943619975637830e+01
-7.254963012874744877e+00 3.549006862338938806e+00 4.423691022319248844e+01
-7.634018838339042823e+00 1.269512717816135616e+00 4.372316055526581380e+01
-2.126589256018603269e+00 7.023502561206542261e+00 4.615952679066319320e+01
-4.184987381532423001e+00 6.453982782268850471e+00 4.549547317557494353e+01
3.835806260067748386e-01 6.336437542917038535e+00 4.737818293634907008e+01
-1.037384063144752622e+00 6.551312921451773796e+00 4.669759854198417770e+01
6.187884774900317630e+00 4.256110948610521305e+00 5.097242453105048554e+01
4.885942628150894862e+00 5.019880522647308219e+00 4.967833105003153804e+01
4.115610738513334255e+00 5.295495077590373079e+00 4.927172185707200214e+01
-6.163919428969404812e+00 4.816319745805162533e+00 4.491413891585919060e+01
-7.885315296415610575e+00 2.498515968018305333e+00 4.366367962151993964e+01
-8.025451202748733692e+00 1.946158905084461876e+00 4.347346477343180027e+01
-2.910237977948166410e+00 6.895090237791390742e+00 4.589732560468230815e+01
-3.430040987660716301e+00 6.722252823784288012e+00 4.571871333887022359e+01
-5.022147043965880187e+00 6.344157273430819366e+00 4.520502258396429340e+01
-6.104596449674427383e+00 5.656349691119349821e+00 4.481521859227704141e+01
1.805047213410091000e+00 6.121702418502700027e+00 4.805977021879117217e+01
-3.815759416627949041e-01 6.760259356955986121e+00 4.693274178515439132e+01
2.734462004012898073e-01 6.970002831654330322e+00 4.716750059407324613e+01
3.345266899048203513e+00 5.571027809071912529e+00 4.886630741249278742e+01
-7.869857247726937288e+00 3.737667901115692803e+00 4.373373782271104204e+01
-8.240313538850612574e+00 1.219953034171109785e+00 4.325574830936387372e+01
-5.503423853989883874e+00 6.151892511778534356e+00 4.506244987210797603e+01
-1.146723018367498348e+00 7.184066501960217899e+00 4.648775432481833292e+01
1.039579400810680676e+00 6.545705740034239994e+00 4.761354460528474419e+01
5.737926581461535669e+00 4.871499222220466052e+00 5.052681163430804645e+01
2.575567391731352629e+00 5.846251196556174534e+00 4.846182675362989301e+01
-7.544809279482665332e+00 4.362173212252800525e+00 4.399123119978716545e+01
-6.836476970402995512e+00 5.308138120072288579e+00 4.445877057992244374e+01
-8.195039802742188684e+00 3.112840967476679488e+00 4.347613580954962487e+01
-8.417325218211484383e+00 2.623492454496000992e+00 4.322348729321641514e+01
-2.039754950452460136e+00 7.688722673037467814e+00 4.601555701212279104e+01
-2.823503463557194060e+00 7.560625207878945098e+00 4.575300536585628208e+01
-5.023222954122059214e+00 7.094066143536677416e+00 4.503178827112277105e+01
-4.315827218847858582e+00 7.263606641059563884e+00 4.526066015483279159e+01
1.783476980301978987e+00 6.831941021137692971e+00 4.780318046303217017e+01
-4.913911051276043662e-01 7.393530777358131800e+00 4.672267371211199816e+01
6.595198736650921489e+00 4.712738012125073261e+00 5.137104252920161684e+01
4.822311187230103435e+00 5.644810379032293213e+00 4.945162209337533454e+01
5.423381148800161533e+00 5.382593085907306119e+00 5.012386232439882150e+01
3.298099622655517482e+00 6.039617115400116809e+00 4.869914572364981353e+01
-7.219819687890680626e+00 4.986800614344574889e+00 4.424867366473336716e+01
-8.680878202638030672e+00 1.981762105906764937e+00 4.297472490031640291e+01
-3.607600068003245841e+00 7.432594196889735549e+00 4.549053695214108473e+01
-6.324665683251939008e+00 6.551716631793804702e+00 4.454139183624041465e+01
2.528167857783782502e+00 6.314949726223708204e+00 4.829541387807581998e+01
9.189412130900429521e-01 7.373938992169478013e+00 4.727776060927686785e+01
1.529534847593280456e-01 7.524960770024955004e+00 4.692736893285024991e+01
4.036721958883354944e+00 6.076508777961325158e+00 4.899180648771478985e+01
-8.484551610923183773e+00 3.926269353182428645e+00 4.323072879130273094e+01
-8.159725987987672013e+00 4.550745603749771995e+00 4.348804049666470917e+01
-9.072892368464358981e+00 2.659437623719372645e+00 4.272466291353281065e+01
-5.731596602762486725e+00 6.925622656250000730e+00 4.480355857777702511e+01
-1.256078244965256552e+00 7.816946813834650065e+00 4.627831602680544165e+01
-6.917145612776120167e+00 6.178130444583351810e+00 4.427697166577856791e+01
-5.070063959745870763e-01 7.925388669763144378e+00 4.653166316046443285e+01
6.548557280527703028e+00 5.401363257516965000e+00 5.119037958554093137e+01
-7.834606874102251872e+00 5.176851077468075601e+00 4.374558470622849171e+01
-7.509777499872344997e+00 5.804448006368216895e+00 4.400289925965016380e+01
-8.809514062499999909e+00 3.301275222980062818e+00 4.297330866796875171e+01
-8.887403855534431685e+00 1.240686325338016260e+00 4.276229663613182908e+01
-2.490858488003266924e+00 8.175762304371104960e+00 4.560896322739147735e+01
-3.190776209047001544e+00 8.102678137009654336e+00 4.535534636467459535e+01
-5.076466845310730669e+00 8.015674357431898045e+00 4.456613700166278136e+01
-5.404060231664675307e+00 7.470668370668024139e+00 4.468437195257603634e+01
2.506434857657858117e+00 7.024624571584744182e+00 4.804154519082010921e+01
2.424975983019697079e-01 8.033927338885074931e+00 4.678527966103330016e+01
3.250924947498904594e+00 6.508206321254798254e+00 4.853303885716294275e+01
4.758685465336055742e+00 6.269757959410457104e+00 4.922818999561673081e+01
5.961745881678741199e+00 5.736004366860260717e+00 5.056670505618271250e+01
5.323463956477279879e+00 5.933016042670918644e+00 4.988036820812722993e+01
-9.403791554170821243e+00 3.455874394455819676e+00 4.252947587812395369e+01
-9.336301877166599539e+00 2.017352424783008136e+00 4.247836121490600192e+01
-4.014908744221467707e+00 8.268605753771373301e+00 4.491083454844015677e+01
-5.970738757988991452e+00 7.673699543079339769e+00 4.415444216047849579e+01
-6.534638766333388915e+00 7.767200279492228354e+00 4.363225217695121927e+01
-6.859708162858091818e+00 7.112904883493934349e+00 4.376202014818077402e+01
-1.805766704810576329e+00 8.631461479858671737e+00 4.568203749220234755e+01
1.761872173124248375e+00 7.541069215572743012e+00 4.755050914371674509e+01
-8.562433845324654014e-01 8.440062666575609995e+00 4.614267550063294010e+01
-1.703492317301903702e-01 8.484137974660141523e+00 4.640115937282308778e+01
3.973842792018867698e+00 6.701642901045295808e+00 4.877027879985309511e+01
-8.819148350732072927e+00 4.640302145733715911e+00 4.305304889840957827e+01
-9.176511450365996581e+00 3.953269207672150287e+00 4.276995617375545322e+01
-8.461799840546454732e+00 5.329878974047257856e+00 4.333611729895091713e+01
-4.748514197459623887e+00 8.561274646447385450e+00 4.444847110496934306e+01
-7.184708411177152421e+00 6.458746375054658984e+00 4.388482278199501252e+01
-5.589789574661539362e+00 8.052392700274749515e+00 4.418003528169526817e+01
9.916533106527198882e-01 8.142458809925768648e+00 4.703892872115548585e+01
6.502445301482175033e+00 6.089632707937674638e+00 5.100965664643421604e+01
3.234533233281482012e+00 7.040502948208870571e+00 4.834247865663586907e+01
-8.137113040845644463e+00 5.957826360790360098e+00 4.359335903650866584e+01
-9.693054488181056527e+00 2.749682558435014634e+00 4.226122872959209786e+01
-3.384976429007231946e+00 8.716235137879197126e+00 4.497709137390656764e+01
-2.773505041428585560e+00 8.775254504940836142e+00 4.522041216855579648e+01
-7.963455715177576444e+00 6.581125283977826257e+00 4.365031639153632881e+01
-7.638222584002790860e+00 7.235482558301217004e+00 4.353226357149605974e+01
-6.209656250000000988e+00 8.421325390625000296e+00 4.350589606168493617e+01
-1.138816903646859391e+00 9.031493452213664952e+00 4.575441678064727569e+01
3.923461559206710692e-01 8.620806750155786347e+00 4.656518399142952092e+01
-4.566047938342681078e-01 9.061293031756143534e+00 4.600735909076892938e+01
5.596605293579727913e+00 6.497670379632796589e+00 5.000724472198812265e+01
4.695055830716579059e+00 6.894797096844761164e+00 4.900666274738588157e+01
-9.696564919922680659e+00 4.045647422893162926e+00 4.237669488434417531e+01
-9.996757880241098349e+00 3.610462368226221130e+00 4.209174752155698229e+01
-9.955714990741048709e+00 2.107080353076294266e+00 4.201993125401214968e+01
-5.017062373901657324e+00 8.877877463871126196e+00 4.405574876083039726e+01
-4.421066674457211576e+00 9.106037382856410289e+00 4.433151129211754693e+01
-8.763875358260197146e+00 6.111064734629638728e+00 4.318419297248627942e+01
-8.456696591068796565e+00 6.604920288246210802e+00 4.333651838943055168e+01
-7.312988779225189084e+00 7.889840723980944936e+00 4.341101725128706335e+01
-2.356457335513060247e+00 9.447482812500000549e+00 4.508585693069555589e+01
1.740174266747467779e+00 8.250958339880092751e+00 4.729815052558446808e+01
2.479547721617386014e+00 7.911756685323810601e+00 4.772549927760304200e+01
-1.589199977229126093e+00 9.525182173897691840e+00 4.534802872591202316e+01
3.956618584623184276e+00 7.233862798095202606e+00 4.857943324101636051e+01
-9.153748049236735795e+00 5.358004510419748456e+00 4.287536726955851663e+01
-9.543620826439756399e+00 4.605039716534260030e+00 4.256654155577744802e+01
-3.734065647005890831e+00 9.219778045864151395e+00 4.458267584798915095e+01
-5.613448445475496484e+00 8.649566783754327304e+00 4.378037570989040717e+01
-6.987869220561549355e+00 8.544036262684221228e+00 4.328094615662760702e+01
1.141657114385878691e+00 8.729123585954461362e+00 4.682033711463956394e+01
3.218094786521918937e+00 7.572853130898248075e+00 4.815240600208783661e+01
5.391735218622653036e+00 7.110439693539953865e+00 4.950703653114955216e+01
6.597118188314095910e+00 6.567250756973589176e+00 5.084216761200416812e+01
-1.039162892681498107e+01 2.907583049074852877e+00 4.174628272099893422e+01
-9.910731003184753973e+00 5.260893287353158421e+00 4.236953098855090616e+01
-3.045422377186624452e+00 9.333570829335545938e+00 4.483407892397312366e+01
-5.066102519537061255e+00 9.333856353575118447e+00 4.341184854169313212e+01
-3.734109760339074047e+00 9.532540675283300402e+00 4.427570196411210190e+01
-8.417007859176907303e+00 7.357587669433097943e+00 4.329783140162395938e+01
-9.390538642437331163e+00 6.264279379608947096e+00 4.277509151882210858e+01
-9.002026272604272350e+00 7.016994923510467608e+00 4.295689509678692275e+01
-5.637967578461029916e+00 8.877521708093555119e+00 4.345855574255111975e+01
-1.726436979545031392e+00 9.842230016508841217e+00 4.504133309680567976e+01
-8.225770769895245360e-01 9.602877911120561549e+00 4.561020299783071863e+01
5.421938173937261851e-01 9.206503693196555815e+00 4.634533346184982605e+01
4.806619303729410042e+00 7.453450920552787906e+00 4.878075469106732953e+01
-1.017078787506396509e+01 4.444381000784086488e+00 4.206617814871294314e+01
-9.730316456567067007e+00 5.827380564860263235e+00 4.252373674340172727e+01
-4.494972673051545797e+00 9.789608295690518602e+00 4.336568384383793529e+01
-3.885655594364383791e+00 9.904797493096285876e+00 4.380244916890256945e+01
-9.681790157045398360e+00 7.027844749451752193e+00 4.253537835070402906e+01
-8.091636202758824226e+00 8.012180797856018444e+00 4.317974142022571016e+01
-6.728141923262821678e+00 9.218072685010415768e+00 4.317050379712046038e+01
-2.015064418996503903e+00 1.013045064092214176e+01 4.459738205154988577e+01
-2.359359688355241236e+00 1.038606732818353962e+01 4.416475466810366157e+01
-3.046512457245764249e+00 9.959442262789151457e+00 4.422010315177019635e+01
2.122247217789184681e+00 8.789903635409725524e+00 4.712966325468575235e+01
2.563433312417114252e+00 8.330546612561590791e+00 4.755699876076443644e+01
-1.096718709358357469e+00 1.023679384324295860e+01 4.499694087027565814e+01
1.278207564631308468e+00 9.252811823975184424e+00 4.657469387019320095e+01
-5.705799423980193602e-02 9.680682846020234322e+00 4.587226607989444460e+01
6.055592886978054423e+00 6.892482941423105913e+00 5.019954595713912937e+01
5.503415356503460920e+00 7.668315788233154073e+00 4.928136458162300926e+01
4.082187439954750197e+00 7.861743761094297511e+00 4.832613718574952344e+01
-1.058816177607250530e+01 3.764785155685238305e+00 4.165769023184080311e+01
-1.058765492753562931e+01 5.227718546180726733e+00 4.184638971383584050e+01
-3.922531800847663508e+00 1.024640430272375724e+01 4.331979507810320484e+01
-1.001705756544968828e+01 6.417458071098811168e+00 4.237586087009664482e+01
-8.870992425198997111e+00 8.134788222547641112e+00 4.294923320368655340e+01
-7.766267501014685770e+00 8.666776534517746100e+00 4.306119410352133059e+01
-7.355810723571927667e+00 9.201135552216916480e+00 4.302330107052248565e+01
-5.965870196254080327e+00 9.826315222937235916e+00 4.311110712927511912e+01
6.791183509391998108e-01 9.727396462542742483e+00 4.610008255930028298e+01
3.385424750940575489e+00 8.410049227016152429e+00 4.781528983055012816e+01
-1.027721692483366667e+01 5.915727664003798125e+00 4.217331239517810104e+01
-5.207798431035531195e+00 1.008023934042638103e+01 4.315872848595940070e+01
-3.350941619340880973e+00 1.070252012260313101e+01 4.327716784212749701e+01
-9.431168315950689163e+00 7.662789248328124359e+00 4.264081542910726341e+01
-1.672135004136903191e+00 1.081273858031743451e+01 4.410957483767870002e+01
1.832985440510060515e+00 9.340267518121304846e+00 4.672016669549923051e+01
-4.664633406884036715e-01 1.063170062965905949e+01 4.495260562707590424e+01
5.383544269582532515e-02 1.035386068307247598e+01 4.538997788591277782e+01
5.090783958053086700e-01 1.005340407264022673e+01 4.581864656555747928e+01
1.414762333956690155e+00 9.774015686982101769e+00 4.632926478615527799e+01
6.089336511130997387e+00 7.316527260241755926e+00 5.000701907922629630e+01
6.691849811471389131e+00 7.044536931575299477e+00 5.067279147274628315e+01
4.917997981069870406e+00 8.011337484132198483e+00 4.855589969234432601e+01
-1.086987765933623784e+01 4.603158942549438137e+00 4.154836823123596901e+01
-4.086463182616356882e+00 1.072066526304778478e+01 4.315169873349504570e+01
-4.821785335154070928e+00 1.073880299513897718e+01 4.302613509138947023e+01
-2.791432083430912758e+00 1.073925500353684725e+01 4.355255939329500592e+01
-9.984807196449354549e+00 7.741204047560356294e+00 4.229230916073736068e+01
-1.031446603637446557e+01 7.155629827458457548e+00 4.213397668110383876e+01
-8.546052735515566212e+00 8.789735789368789298e+00 4.283654304511710365e+01
-2.231863136482865162e+00 1.077599123955982385e+01 4.383098363975302192e+01
2.938185624763001158e+00 8.979734310246826112e+00 4.732245323996588127e+01
1.075213048716587183e+00 1.042629495566904296e+01 4.576510229081458903e+01
4.207717290909120500e+00 8.489626630328102053e+00 4.807357112280319456e+01
-1.117974447289008921e+01 3.919113413357035558e+00 4.121992031886954067e+01
-1.092554598102586816e+01 5.945438300387916541e+00 4.167757343033358097e+01
-1.120764367125980598e+01 5.320757293976895674e+00 4.137886782246535233e+01
-3.892984129597363729e+00 1.122952603274375249e+01 4.298075087045654641e+01
-1.064328245066778855e+01 6.570684767520025282e+00 4.197575008757014814e+01
-9.655270992993580492e+00 8.326559019978162723e+00 4.245052449997581334e+01
-9.325341671648907038e+00 8.912616114598286288e+00 4.260887510135500378e+01
-8.025641654595297325e+00 9.422681792709846960e+00 4.281065245127812346e+01
-5.557738149048872422e+00 1.075695459620838612e+01 4.290039259429661200e+01
-1.061278555813751634e+00 1.088403248099678144e+01 4.437593932928729856e+01
2.503923630155195035e+00 9.328590285947159444e+00 4.696156803287031067e+01
2.150703686308163221e+00 9.820598741506655571e+00 4.656164837167027315e+01
6.199927319325350794e+00 7.874104145045881076e+00 4.978051445399376007e+01
5.614425739948496030e+00 8.225827980501325243e+00 4.905613089767306434e+01
3.590874440806539614e+00 8.892757199236264398e+00 4.761377727592441289e+01
-1.149013082025620491e+01 4.695404838638244094e+00 4.107896878234977578e+01
-2.734696508173306562e+00 1.108102374505129006e+01 4.323673160781697788e+01
-2.118483255186512704e+00 1.145950515734844721e+01 4.319635724822997958e+01
-9.340658630298759313e-01 1.117697437043254283e+01 4.405239315779243725e+01
1.636505357382627424e-01 1.102652869223588361e+01 4.490835914640990012e+01
-4.482428318455000116e-01 1.095530600559440160e+01 4.464223965488874057e+01
8.450848143645051103e-01 1.107495700722316556e+01 4.515812339583867185e+01
1.896226819565425936e+00 1.030875623981382283e+01 4.613595744431547985e+01
6.786680587216296523e+00 7.521822661901780727e+00 5.050557947140023174e+01
5.029336258313580110e+00 8.569197414252503364e+00 4.833159423870083060e+01
4.314829427204749379e+00 9.001864278360734772e+00 4.781877253308137199e+01
3.600062653242387611e+00 9.434735136499066144e+00 4.730602311989758846e+01
-1.152378593642065496e+01 6.101899125665886103e+00 4.123893029770455598e+01
-4.434879987480693231e+00 1.175638657696184630e+01 4.268263750875405549e+01
-3.106019106311694422e+00 1.160510143427237040e+01 4.297036763069806398e+01
-1.074447831888242000e+01 7.943593326132200261e+00 4.185943628030992869e+01
-1.107300696673789275e+01 7.357817122732959625e+00 4.170091007966816221e+01
-8.805218206719747087e+00 9.545555126835735038e+00 4.258758883746205726e+01
-7.246465700534134413e+00 1.001457321791457744e+01 4.284802049388828493e+01
-1.502329663758250611e+00 1.183794724307406021e+01 4.315602929493456941e+01
-9.708660830805875275e-01 1.170388638421114358e+01 4.358844611301871907e+01
1.641286562655270620e+00 1.079917142701831878e+01 4.571162999929003945e+01
6.418241255025016301e+00 8.336673462004482005e+00 4.957607650921927700e+01
3.690881725298402749e+00 9.885830957268442631e+00 4.701682217075609316e+01
-1.189332617165722361e+01 5.499515783803821556e+00 4.087444558435505115e+01
-1.177285049897233016e+01 4.073794215201655078e+00 4.077795465980634049e+01
-1.124134158633604308e+01 6.726816951827207625e+00 4.153842606107672708e+01
-5.165396500544350289e+00 1.141427315916252994e+01 4.270101887065810331e+01
-3.741955136189200282e+00 1.184041394761517019e+01 4.276939787180876351e+01
-8.285017457876847402e+00 1.017858848664074678e+01 4.255813834661002204e+01
-1.954538339118895018e-01 1.154147849696416905e+01 4.399528362254426384e+01
2.885588229194016918e+00 9.867068497037774222e+00 4.679363798716576639e+01
8.423976513104795005e-01 1.135216101179379500e+01 4.485972231295733081e+01
1.526978206199919530e+00 1.112347480194754645e+01 4.540833010405055603e+01
2.546830972315634600e+00 1.051801450537752380e+01 4.622635776606919933e+01
5.832616763503021495e+00 8.688379431626181315e+00 4.885195150418056897e+01
5.388283682282457576e+00 9.026629802570184324e+00 4.811604990034277307e+01
4.496311107497932724e+00 9.904109602585423389e+00 4.724004215995874034e+01
4.942406681007160074e+00 9.465239429236564916e+00 4.767803943220067708e+01
-1.223800718258527098e+01 4.889970303602346746e+00 4.052704236894430068e+01
-4.977235678330216295e+00 1.228369425552496885e+01 4.238278314050669593e+01
-3.407174463729860214e+00 1.238757093447281399e+01 4.261393981187942614e+01
-2.622396655247441810e+00 1.243949330179919244e+01 4.272945542021825815e+01
-4.192102954901142375e+00 1.233563959983908731e+01 4.249837391953860788e+01
-1.837577437428534965e+00 1.249141717371740867e+01 4.284492505139654384e+01
-8.857578536450444462e-01 1.221665156516839268e+01 4.311569550995464084e+01
7.227971839087585781e-01 1.164854840586963647e+01 4.439469084222389483e+01
5.431015555973639497e-01 1.190595467191865886e+01 4.393827616311268258e+01
2.207131085477485932e+00 1.117193003674765528e+01 4.565893415344158512e+01
7.113737104187568328e+00 8.215412431532344684e+00 5.019817426047993081e+01
-1.053489147391377223e+00 1.254329346165038039e+01 4.296021443489254921e+01
-2.694958984374999922e-01 1.259516289062499972e+01 4.307540215040991427e+01
5.059098610145754682e-01 1.243281107038056099e+01 4.347972671710469683e+01
1.520776582479344885e+00 1.167763912914166013e+01 4.481117091613791814e+01
3.537866784934220021e+00 1.030277917376704266e+01 4.665786597949488623e+01
5.746670349185233562e+00 9.483444619854028090e+00 4.790108812212883294e+01
5.300850870369631096e+00 9.922440008834351843e+00 4.746303940795650078e+01
-2.695795617297994884e+00 1.324227460099685594e+01 4.228299604644523413e+01
-3.456450783740827593e+00 1.292267510132297303e+01 4.231608836647483685e+01
-4.217136907823179293e+00 1.260306131385961592e+01 4.234934661253685562e+01
1.281601562499999902e+00 1.227040351562500042e+01 4.388346420941125814e+01
4.825633483202946827e-01 1.299451192841638836e+01 4.300139643004575873e+01
1.235113234596098009e+00 1.339412378886201616e+01 4.292744102875212064e+01
-1.379803216446148895e+00 1.323949438791810351e+01 4.252612057610543417e+01
2.866807084609185985e+00 1.117155263863119963e+01 4.584098005674323417e+01
2.199033878216623439e+00 1.200308051038128987e+01 4.476268379410773690e+01
2.080231496329598695e+00 1.229972274575262681e+01 4.429855976315253940e+01
4.190035194028610022e+00 1.073845072219537400e+01 4.652224197924749660e+01
-4.667514144183264158e+00 1.317520191055374745e+01 4.205400841335975315e+01
-1.935250390624999817e+00 1.356183046874999931e+01 4.225004041447659375e+01
2.056853658935895723e-01 1.340601197699952429e+01 4.272056841445969866e+01
-8.242232479826778757e-01 1.291708129204375943e+01 4.280143590653922558e+01
2.818006077782688745e+00 1.146840247814288993e+01 4.560045775939183699e+01
2.543314794348547458e+00 1.175078279703741480e+01 4.518613145424896516e+01
2.002877240048635432e+00 1.263638195341954074e+01 4.381295004550290884e+01
3.525978590762907317e+00 1.117168447679605059e+01 4.602291738396417031e+01
-5.460041644570238439e+00 1.288451726804896325e+01 4.207148151508376088e+01
-4.180767946509189592e+00 1.382397642461605436e+01 4.184843407030816564e+01
1.767833695385325088e+00 1.291133586006058387e+01 4.351575822862765364e+01
6.808347213312344604e-01 1.421680619478406804e+01 4.236567410574620141e+01
2.878369257413912585e+00 1.232906718749999975e+01 4.471416486387953171e+01
2.726100757599490443e+00 1.300302516002168751e+01 4.374235664658292677e+01
5.475004652267591254e+00 1.055969266117421057e+01 4.703692482372861150e+01
4.184203488302724594e+00 1.117322141091247900e+01 4.620464660865797413e+01
4.842868603736205202e+00 1.117461712256761075e+01 4.638657411146778031e+01
-4.928706824910322304e+00 1.391129222034166091e+01 4.171460979166620575e+01
-3.432662434922754802e+00 1.373664218606374376e+01 4.198227351819702591e+01
-3.892519673985828099e-01 1.429490786584985962e+01 4.213038457276471860e+01
-1.162159712126153766e+00 1.392841205715723696e+01 4.219020605389481204e+01
3.427858389674715234e+00 1.176440873260952280e+01 4.554211657040235650e+01
4.745187009342489937e+00 1.176325703099781173e+01 4.590620386664632235e+01
4.037182994512408918e+00 1.206018585636370055e+01 4.548386408958205607e+01
5.545350777326703451e+00 1.151318167201441511e+01 4.624245053910458125e+01
4.646777759896696836e+00 1.235613046380355762e+01 4.542561259798924311e+01
-2.683752009223299151e+00 1.364921195982788937e+01 4.211622126723325010e+01
1.987431946262430138e+00 1.379361312609579571e+01 4.285359169349064956e+01
2.253857811679697676e+00 1.355199051999169413e+01 4.314806704093894041e+01
3.837403006448193432e-01 1.466144327191643271e+01 4.207052930907423161e+01
1.947827257399324052e+00 1.461080882435446959e+01 4.239537466096486185e+01
-1.456048553398008316e+00 1.441144318062241680e+01 4.192006651738772405e+01
5.561192836370435266e+00 1.115935579796914823e+01 4.654522044451069718e+01
4.057999049296281413e+00 1.234710629297900475e+01 4.518834521061923937e+01
3.468811293631700821e+00 1.233809038712506023e+01 4.495125685103393920e+01
-2.486567137787156323e+00 1.402606030429402573e+01 4.195625627610534281e+01
-3.038151688648520921e+00 1.449051357682690622e+01 4.166191266241457924e+01
-3.589992031247224435e+00 1.495518535530273319e+01 4.136704896916023699e+01
-4.298338808698338731e+00 1.473806339832509416e+01 4.138666800572795523e+01
1.156002343749999994e+00 1.502763242187499948e+01 4.201068277030140763e+01
3.448577610921196968e+00 1.336933771805833970e+01 4.367186850504290163e+01
4.219612164934092746e+00 1.292113035762279516e+01 4.458580711908149397e+01
3.549453260103559771e+00 1.262528288379696662e+01 4.464982547367421262e+01
3.525249791294735591e+00 1.303268422965608941e+01 4.415741430205689255e+01
-9.769077498060280140e-01 1.526094357202403806e+01 4.159032154209151599e+01
2.740539062499999901e+00 1.419351835937500006e+01 4.277973600158306766e+01
1.993034081900044052e+00 1.531317953878775207e+01 4.196109519337522897e+01
-2.265073378885276600e+00 1.477943518581064275e+01 4.163510571254010273e+01
5.338259943125321649e-02 1.574930178297832306e+01 4.151115983938030496e+01
6.046574027329300050e-01 1.538849064460531935e+01 4.176109874044743009e+01
3.453809631769841015e+00 1.396472635813668717e+01 4.319052518235381655e+01
-2.816910858449782840e+00 1.524395005243265011e+01 4.134054775552081651e+01
1.723233854738669857e+00 1.571720497153811458e+01 4.172804702322433457e+01
1.181020100797666839e+00 1.660356889300506822e+01 4.121194901401019450e+01
3.420217252087666693e-01 1.635699704037557467e+01 4.123640380309478104e+01
8.481065827653296196e+00 2.483743457497139318e+00 5.145660540077912515e+01
8.363179936828663230e+00 2.861678712875935116e+00 5.135295660728649381e+01
7.855230184469062849e+00 3.592931239060769499e+00 5.126790620844471391e+01
7.518571770476133231e+00 3.878608282442890243e+00 5.129382925880400279e+01
8.196356537567881517e+00 3.269613834805340957e+00 5.126241392253383822e+01
9.107825795064783847e+00 2.597488901969713382e+00 5.118834520658489851e+01
7.946188782094431247e+00 4.290635390020481665e+00 5.098973045447040420e+01
8.872059263052831213e+00 3.353359347573829030e+00 5.098099028787583364e+01
9.303326965504417956e+00 3.032296297660427076e+00 5.095059168109894898e+01
8.618206773394057052e+00 3.719005842175300280e+00 5.093838338122280618e+01
7.330564508923736788e+00 4.846654634806192519e+00 5.104121723142807809e+01
9.380937881432645398e+00 3.845039166849345769e+00 5.060896162819043553e+01
8.065871962840713394e+00 4.980545511158310568e+00 5.071145351969535398e+01
8.373907285512126819e+00 4.702634505829914602e+00 5.068560917598800586e+01
9.871146350221467358e+00 3.335007923701790222e+00 5.063050672783104744e+01
9.093233712987577988e+00 4.479734983124440184e+00 5.049537058386514587e+01
7.099875515441481433e+00 5.501744223189355409e+00 5.094304921138454745e+01
7.651217658629637874e+00 5.602124365206705647e+00 5.069571870160910265e+01
1.000244776281722281e+01 4.016525770498597936e+00 5.031434282506359779e+01
8.801584640420617944e+00 5.114489490891290124e+00 5.038155227981619788e+01
8.226143222277809031e+00 5.358319273024761742e+00 5.053866354417056783e+01
7.076513861876778222e+00 5.845966936050861484e+00 5.085276136038566364e+01
9.871809344518151619e+00 4.209334880763354825e+00 5.029147620613231595e+01
1.053933584398035528e+01 3.706194153938734637e+00 5.024026919566063754e+01
8.810646845687916340e+00 5.609197726981460796e+00 5.024270698347019959e+01
8.139888166044377371e+00 5.893915908331031517e+00 5.042586009761005528e+01
9.560355397040872560e+00 5.252595891055561239e+00 5.004135819752440995e+01
9.963067931223491769e+00 4.913113253392716651e+00 5.000770064555202055e+01
1.062395515800747958e+01 4.188011162819517352e+00 5.001972366645762236e+01
7.277966307124760448e+00 6.259512895670364507e+00 5.066015518828793773e+01
1.036268022898194019e+01 4.573629301689014603e+00 4.997396169611708672e+01
8.820194618421858479e+00 6.104272569487728006e+00 5.010335397199158791e+01
1.142543016672289369e+01 3.763713198427740547e+00 4.989377020857095602e+01
1.031903314042598119e+01 5.390653650515065287e+00 4.970127919935802652e+01
1.085356953459828055e+01 4.937936888091595478e+00 4.965640458741758323e+01
1.124580318056235129e+01 4.359591223434843066e+00 4.972494097194934426e+01
7.372496959112099901e+00 6.737050937728588984e+00 5.048915389393955166e+01
8.054059667321848082e+00 6.429512620221720098e+00 5.030584665020608526e+01
9.570419036158428483e+00 5.809411072170731494e+00 4.988502674671975967e+01
8.830081605580687665e+00 6.599492722358951013e+00 4.995264872302827541e+01
9.581175971405523129e+00 6.366226143152969641e+00 4.971980254487119311e+01
1.195789789158152416e+01 4.233449391232436909e+00 4.951435870610090717e+01
7.467163314983028322e+00 7.214587967158397674e+00 5.032107904926155584e+01
1.033217025502546704e+01 6.133136734700907589e+00 4.948740194719918151e+01
1.107792494217755497e+01 5.528709700854091302e+00 4.936119947586458068e+01
1.142498518189259826e+01 4.796093837244684188e+00 4.949656653115477667e+01
1.186800340238485063e+01 4.531267885038439580e+00 4.942998967453477377e+01
8.148549546181811820e+00 6.907020186752354185e+00 5.013665217335531565e+01
1.134447975489223914e+01 5.302259876222034762e+00 4.933880196440880184e+01
1.205057112421892640e+01 3.438234749380663757e+00 4.982485141113145488e+01
8.034042926587574129e+00 7.375690120210594891e+00 5.005508712563845819e+01
7.438225430530905236e+00 7.658267914759036898e+00 5.021321889465325228e+01
9.018100551405657583e+00 7.088940854642088674e+00 4.974584753055333408e+01
9.481033213910642132e+00 6.661728018475372437e+00 4.967622444359498246e+01
1.249003957443573221e+01 4.702897997360664384e+00 4.913511468559104856e+01
1.227022163969132507e+01 4.070312099228457825e+00 4.948023549281703026e+01
1.013157462439136758e+01 6.723917696475920636e+00 4.940026173879167004e+01
1.108394195323150555e+01 5.900044404747217364e+00 4.925539815827815460e+01
1.183572875592732032e+01 5.666833710968956161e+00 4.902094710007966682e+01
1.216303143807464160e+01 5.184663601083020268e+00 4.907813521067718909e+01
8.553863698994828013e+00 7.441828005817684222e+00 4.983330993765763139e+01
8.089793612846211346e+00 7.794714226892462960e+00 4.992111626904844002e+01
9.668727470346059505e+00 7.151133630634320504e+00 4.947025562833604084e+01
1.280754698320141216e+01 3.448606470592391560e+00 4.957099360157714329e+01
9.206236003518011302e+00 7.578348219633974203e+00 4.954086372153310691e+01
1.304795989065587847e+01 4.500930413297968613e+00 4.903855150569329169e+01
1.320664617780525063e+01 3.874048032326741442e+00 4.925637571773548018e+01
8.742267039605474466e+00 7.931347644659052953e+00 4.962884882361335315e+01
1.256998056136307085e+01 5.800768695446449463e+00 4.868786091750493483e+01
1.300646364922704556e+01 5.158460866696925606e+00 4.876702386399893641e+01
1.360540469829365406e+01 4.299127640198096678e+00 4.894196033464686479e+01
1.345670654758851192e+01 3.691218301753099951e+00 4.925428714276328179e+01
1.374969138169296379e+01 4.889031634444858554e+00 4.863863571940677133e+01
1.352235395231682347e+01 5.613554202236571200e+00 4.839924787868226730e+01
1.330406283293148562e+01 5.934672133075219236e+00 4.835331648174098973e+01
1.380751439517009693e+01 3.710008283137678831e+00 4.912335686264840007e+01
1.418508712528090676e+01 4.398661878932937697e+00 4.868638713004411045e+01
1.403816772733408591e+01 6.068578507677501399e+00 4.801983655076755753e+01
1.400958534619115348e+01 3.120904701041841811e+00 4.930436278961244767e+01
1.452248427493987215e+01 5.021638770733084733e+00 4.829799927407420768e+01
1.389394148508892535e+01 5.478832294135636438e+00 4.833514041801513628e+01
1.428033989722131913e+01 5.545109019472025835e+00 4.816484857058718916e+01
-1.589204509512690500e+01 -4.734070029726725970e+00 2.875232470230618631e+01
-1.559551745446251836e+01 -5.061309663794156144e+00 2.786404472907561214e+01
-1.520706078971607766e+01 -5.462793937277125700e+00 2.883142107469802795e+01
-1.627389857012106944e+01 -4.334257660091592079e+00 2.778491614873892246e+01
-1.606698657570145272e+01 -4.212148862536289506e+00 2.948712743803143255e+01
-1.657916974491509876e+01 -4.007213231773493867e+00 2.867331669921874848e+01
-1.490735708640859158e+01 -5.789645273088138921e+00 2.794327886935486305e+01
-1.675034348298202502e+01 -3.485696520662838527e+00 2.962988973917993718e+01
-1.618934117762690761e+01 -3.683725256200486964e+00 3.061370577645521607e+01
-1.555868238301640893e+01 -4.417989807348607023e+00 3.030216981560030831e+01
-1.527926601445511956e+01 -5.010085019252395355e+00 2.967100338883916066e+01
-1.429694541846166267e+01 -6.401331841426431524e+00 2.797782911171827891e+01
-1.467727959287259942e+01 -5.999677149312377722e+00 2.700987767398021688e+01
-1.452523381513925216e+01 -6.190484019162257212e+00 2.891044192735998308e+01
-1.692504594892895398e+01 -2.964119106719015573e+00 3.059712350518331547e+01
-1.453155004401765815e+01 -5.850308979519942554e+00 2.966511591737993569e+01
-1.362093525652757009e+01 -6.739462033363133209e+00 2.900971199093663344e+01
-1.560756884096867658e+01 -4.087051077262455756e+00 3.109232233349112562e+01
-1.501167845513062105e+01 -4.952498253493877733e+00 3.048040327854969433e+01
-1.742077049491842189e+01 -2.145380920126493951e+00 3.046275743227759136e+01
-1.710183596675906514e+01 -2.442462649261194940e+00 3.155855528169999857e+01
-1.356288842813410511e+01 -6.867549551901134031e+00 2.781809138670598003e+01
-1.396770510684312860e+01 -6.349332019941280159e+00 2.952322617682268557e+01
-1.453825115144383240e+01 -5.510084588857453447e+00 3.041986655752309687e+01
-1.505421401823402050e+01 -4.624206657262976528e+00 3.111916025723700585e+01
-1.582655346608402169e+01 -3.635445689076898468e+00 3.175062577998593838e+01
-1.646431348837271358e+01 -3.038413481031146279e+00 3.165490147100557650e+01
-1.747477574010492773e+01 -1.738108413655612861e+00 3.139184362022649211e+01
-1.282743103935663953e+01 -7.332726252106151144e+00 2.765835189557286000e+01
-1.311664437272614236e+01 -7.098358836325934895e+00 2.836926674391760983e+01
-1.341327288570200693e+01 -6.508193956581399320e+00 3.013612516017239784e+01
-1.286105319085748633e+01 -6.667011945457388400e+00 3.074890944246384095e+01
-1.363219317758473004e+01 -5.938421554414171410e+00 3.103889139060597557e+01
-1.401196884270106935e+01 -6.029170278304918362e+00 3.016817279954171127e+01
-1.269325058492882441e+01 -7.004668433791594317e+00 3.003135934422130049e+01
-1.231669167249921593e+01 -7.585804562108211080e+00 2.843380493113290441e+01
-1.271539883025661943e+01 -7.289170292412383567e+00 2.910912365715268990e+01
-1.454525955492508160e+01 -5.169758935319420878e+00 3.117493160964789922e+01
-1.518909108761147841e+01 -4.233101256499726794e+00 3.184548634220361052e+01
-1.576449414572321039e+01 -3.195810786717381724e+00 3.248383773488527027e+01
-1.455251957308237820e+01 -4.829331012368299980e+00 3.193917737854409822e+01
-1.691850434400144465e+01 -1.895820379100251696e+00 3.220850633917564920e+01
-1.640184710733780449e+01 -2.599138998687030799e+00 3.238651162693521712e+01
-1.621946123352354974e+01 -2.052073295591855029e+00 3.303619280946599446e+01
-1.181028233695384344e+01 -7.838607744058124993e+00 2.920848402576501357e+01
-1.220595152179606124e+01 -7.755058947643024503e+00 2.762600072113848881e+01
-1.170935970627202671e+01 -8.017477061328985855e+00 2.828268644144939969e+01
-1.385111367476376110e+01 -5.368630063002645336e+00 3.194331866769780248e+01
-1.177238167467286090e+01 -7.269862907572927746e+00 3.105340958572314491e+01
-1.291196360332813065e+01 -6.340063327816602090e+00 3.139858185387858924e+01
-1.315223402025981692e+01 -5.907464601638050539e+00 3.195336342879488001e+01
-1.178851273265421007e+01 -7.554256501892325559e+00 3.013088025771156353e+01
-1.512794789064759371e+01 -3.792914074385999257e+00 3.258008450961261815e+01
-1.449142303849491498e+01 -4.390642987866633540e+00 3.267612843172473447e+01
-1.729145879979502709e+01 -1.190560585587814524e+00 3.204184529182577990e+01
-1.673603233369324172e+01 -1.348368595767299727e+00 3.285824980904824599e+01
-1.710889030701044433e+01 -6.429193353024751367e-01 3.269131383100196331e+01
-1.570254773101505563e+01 -2.755800418596063839e+00 3.321456912792111638e+01
-1.101332529501835644e+01 -8.360903918790615563e+00 2.933309686443586273e+01
-1.125724139327246753e+01 -8.026986946267800960e+00 2.979858550433881348e+01
-1.230936142337287187e+01 -6.826084720895199354e+00 3.136272594398407421e+01
-1.506631336626330686e+01 -3.352763745757123104e+00 3.331172193413126337e+01
-1.404897869360078566e+01 -4.992709552117156058e+00 3.265576122141835924e+01
-1.655449098098270255e+01 -8.009656727907066287e-01 3.350688734283522052e+01
-1.692746840198834946e+01 -9.464160845261414268e-02 3.333968973262884106e+01
-1.107914049006135748e+01 -8.453799725637876961e+00 2.814566112786407714e+01
-1.343945507808483875e+01 -5.478521014870205263e+00 3.260745381429290290e+01
-1.245521479600002301e+01 -6.446005552141630623e+00 3.196506418134287841e+01
-1.552120547163552722e+01 -2.208469100785492856e+00 3.386362849894207727e+01
-1.500473449688938032e+01 -2.912203489213252450e+00 3.404174604599512577e+01
-1.443037566032625030e+01 -3.950237206186185013e+00 3.340852311000524111e+01
-1.603785377409157320e+01 -1.504617668283595666e+00 3.368533766462756063e+01
-1.637326904501466984e+01 -2.521241215640941391e-01 3.415612436492946102e+01
-1.056090800314332512e+01 -8.732498951944162258e+00 2.875803763897603815e+01
-1.096261728400733659e+01 -8.632365621421058677e+00 2.722053009357714259e+01
-1.044709681033090476e+01 -8.890119357203477790e+00 2.800863906718948115e+01
-1.031086743399464289e+01 -9.078274351960391897e+00 2.726285756891326173e+01
-9.767591828049454250e+00 -9.394711238326591385e+00 2.773736775176679004e+01
-9.932230709123624379e+00 -9.147520203678039863e+00 2.879572007734590500e+01
-1.403002852141117707e+01 -4.584799208211278732e+00 3.326902663371783575e+01
-1.354499591737607567e+01 -5.156253094225218270e+00 3.337225603560223419e+01
-1.175849647228705308e+01 -6.985207430348427060e+00 3.197677929687500153e+01
-1.022087210719525707e+01 -8.882861956891932920e+00 2.945762935146265349e+01
-1.070759724657612644e+01 -8.215355967632563150e+00 3.038867204200324323e+01
-1.089559699011049076e+01 -7.824812766543405296e+00 3.120583626710759262e+01
-1.436935809620812599e+01 -3.509495697053795826e+00 3.413883845504954451e+01
-1.585653797093395134e+01 -9.568538558613723932e-01 3.433434766115647108e+01
-1.534046042155059020e+01 -1.660685278422608269e+00 3.451228954436411556e+01
-1.673886737571809746e+01 5.026036543379065469e-01 3.392780345651917173e+01
-9.275187795512712441e+00 -9.772873431635291652e+00 2.744109626796999635e+01
-9.322792549596554679e+00 -9.650024634857080841e+00 2.815573819010936418e+01
-9.370308701056753620e+00 -9.527330872937737283e+00 2.886921769722388120e+01
-1.274762216561981276e+01 -5.882771760579278642e+00 3.302365543761840883e+01
-1.108499378301036131e+01 -7.434267963358376363e+00 3.202299584846236513e+01
-1.008941044450730473e+01 -8.674869280456398712e+00 3.031693710615817494e+01
-1.015946495315271214e+01 -8.403857629651213301e+00 3.097918391377415759e+01
-1.482440240250321928e+01 -2.364497635998678682e+00 3.469017681029820466e+01
-1.364279761283706627e+01 -4.437151803467495270e+00 3.420389149173227850e+01
-1.517196500491463773e+01 -1.119364211356945304e+00 3.511810613834932582e+01
-1.568822681666187435e+01 -4.147843492102147867e-01 3.493987125079242873e+01
-1.620675027170976534e+01 3.645167730364695657e-01 3.474157163592565922e+01
-9.417780753332181121e+00 -9.404688606865565959e+00 2.958213007812500095e+01
-8.824520626308364868e+00 -9.951384430949905990e+00 2.796585153957744652e+01
-8.534656727528261655e+00 -1.000707172223443209e+01 2.874114897881058539e+01
-1.182725577025351882e+01 -6.650564451537376520e+00 3.285426099847772008e+01
-9.289103882249678534e+00 -9.196953659938897019e+00 3.044179043911760019e+01
-9.174625617644183606e+00 -8.989250251359925059e+00 3.130124579703197440e+01
-1.019550623399730327e+01 -8.190480416470693470e+00 3.157110105562558644e+01
-1.430836637869127337e+01 -3.068308476820613695e+00 3.486800741838578688e+01
-1.465547467892324285e+01 -1.823666702123325711e+00 3.529673668414764620e+01
-1.657253775713221344e+01 1.119044535454130740e+00 3.451298706191153798e+01
-1.604068843228291996e+01 9.784838141426510649e-01 3.532650333941392518e+01
-8.562623319863051918e+00 -9.865596927200092736e+00 2.967365094991440344e+01
-8.850536498951072417e+00 -9.575306591846317161e+00 3.020823675452086476e+01
-8.751719797029171133e+00 -1.007424957610201766e+01 2.735409236803426225e+01
-8.276661035716724513e+00 -1.025267965940083670e+01 2.797946987370891136e+01
-1.304190230531908057e+01 -5.319535160564297094e+00 3.408714351808237097e+01
-1.121585052390065584e+01 -7.149559660491416224e+00 3.266704899972302201e+01
-1.189631061706161042e+01 -6.315898437098026896e+00 3.374276267769481308e+01
-9.611420363968562697e+00 -8.592727432372418761e+00 3.157087232317735115e+01
-1.041139308590758006e+01 -7.883421879834449975e+00 3.206922830568629479e+01
-8.354342256354975405e+00 -9.448264775558557815e+00 3.156721596387756534e+01
-1.374056472824935327e+01 -3.714297321620684045e+00 3.503132977813930182e+01
-1.552225762130511910e+01 2.020351116037453487e-01 3.552501106849492629e+01
-1.500394262509162679e+01 -5.767230252866236695e-01 3.572330197381751304e+01
-7.801796919772375993e+00 -1.043102771691428288e+01 2.860457608263707030e+01
-7.706224277764262887e+00 -1.032713531305615895e+01 2.976862883734851906e+01
-7.806262544833055372e+00 -1.058622786667977067e+01 2.770364570251635428e+01
-1.244073353283110883e+01 -5.798535554548834625e+00 3.404400378487034118e+01
-1.302759204887656708e+01 -4.900118044764966818e+00 3.470638748755089864e+01
-1.063312543369509555e+01 -7.552932643237799226e+00 3.265807206695357223e+01
-1.131706499596511506e+01 -6.834965919393898304e+00 3.341105452751794047e+01
-1.067392805493155805e+01 -7.313712821693101773e+00 3.335648318794453360e+01
-8.273996835123195837e+00 -9.746032358914396454e+00 3.083874478115676254e+01
-9.064980049095302306e+00 -8.781301195182443564e+00 3.216164791108490562e+01
-1.317220523698861889e+01 -4.360603392223336705e+00 3.519394132333614778e+01
-1.413960326201119067e+01 -2.527790897253807678e+00 3.547461231551416461e+01
-1.368686669742381135e+01 -3.206740534818989019e+00 3.547857379685920165e+01
-1.448735739151003976e+01 -1.281666155197177304e+00 3.590227884848066253e+01
-1.535658394845223107e+01 8.138659163472317104e-01 3.611001052527664257e+01
-7.703753415817287120e+00 -1.012197206988409448e+01 3.061937854851050744e+01
-6.916814447218397888e+00 -1.112035875758852121e+01 2.773269458396448783e+01
