1.313528534283303983e+01 -1.119651323204942628e+01 3.972589518070172687e+01
1.666948489944590150e+01 -7.842497911107833453e+00 3.273497674966959181e+01
1.630256203707444840e+01 -8.945080017691346086e+00 3.308875803525989312e+01
1.335571938340672737e+01 -5.856954022312524266e+00 4.643153236106765291e+01
1.296074459948927426e+01 -6.842235804578327141e+00 4.601132623568160795e+01
1.435861902528299439e+01 -3.622932730678499524e+00 4.708706611812507248e+01
1.488859072212473045e+01 -3.477050012689683722e+00 4.703665858478505157e+01
1.564128826690598650e+01 -2.703899646078152141e+00 4.708151384429930886e+01
1.396528339102352945e+01 -4.169154826961058546e+00 4.693941884059066894e+01
1.287377969420528423e+01 -1.046302764641199978e+01 4.179595474133282096e+01
1.277719545816451152e+01 -9.677987685117477312e+00 4.334584976538623380e+01
1.297075228097144262e+01 -1.106394947242823079e+01 4.018931387643821296e+01
1.294016258169225786e+01 -8.101504903258195611e+00 4.530542881876274208e+01
1.492156949213595496e+01 -1.088011421780305454e+01 3.478466259765625068e+01
1.676846854221581040e+01 -6.374281114880859356e+00 3.254397319463789273e+01
1.349295367481850150e+01 -1.164165567798626100e+01 3.767301366799703288e+01
1.306424759611668129e+01 -1.150337385294761461e+01 3.881681512934100198e+01
1.347980445015105389e+01 -1.162797987319218151e+01 3.834180560822896666e+01
1.272048611929191431e+01 -8.620327648089933348e+00 4.490688794923782012e+01
1.633393227194452990e+01 -8.684043894803636476e+00 3.291384290532912615e+01
1.288583291136004050e+01 -6.452814111002870945e+00 4.617493813900100008e+01
1.511128823152991352e+01 -2.849819563453470206e+00 4.713201097132236583e+01
1.357271945170371374e+01 -4.714645864005378328e+00 4.679195383822120391e+01
1.272266816685385926e+01 -1.026844117529917533e+01 4.227435752149426662e+01
1.255432977698665198e+01 -1.056190122968959599e+01 4.146402807019629222e+01
1.251947823073197874e+01 -1.077367104857460411e+01 4.089855429009340071e+01
1.267669771012935698e+01 -9.493269891837915253e+00 4.370161961328765443e+01
1.261841888628246622e+01 -9.268499156482317147e+00 4.399244368572679065e+01
1.264564498756618960e+01 -1.092744513934433215e+01 4.059815952487990387e+01
1.447144441513154867e+01 -1.128615573821358531e+01 3.576985979409444383e+01
1.461400732744546183e+01 -1.108968760745565518e+01 3.522658156755417025e+01
1.667668503076960462e+01 -7.463831092482919871e+00 3.260977422749937205e+01
1.543563957914729556e+01 -9.841107102075520530e+00 3.326929118592970269e+01
1.512731583098103272e+01 -1.056491536794636055e+01 3.429740152017848942e+01
1.678273814151325283e+01 -5.503751818291510389e+00 3.243964513503390634e+01
1.675215091662152389e+01 -4.701363985081551178e+00 3.231379573137962780e+01
1.382272035298933588e+01 -1.167341154414306281e+01 3.682228942574616326e+01
1.247140594280730852e+01 -8.379736040376194239e+00 4.506598654676311355e+01
1.317761360535026860e+01 -5.260230375800482250e+00 4.664446151961831077e+01
1.238703632960453760e+01 -7.227174825149862869e+00 4.580401486951274137e+01
1.458128665234098875e+01 -2.995741288727047369e+00 4.718244758123874050e+01
1.250003413123867979e+01 -7.590076667321830506e+00 4.565912592105208745e+01
1.257137089121340168e+01 -1.009254938840487270e+01 4.252083654193820905e+01
1.211233858998959079e+01 -9.881891475541966230e+00 4.290555723156898438e+01
1.402495348413885878e+01 -1.143827907651810172e+01 3.600857926031866896e+01
1.553943021937444691e+01 -9.590120875862988115e+00 3.312409492992733817e+01
1.512759178017987516e+01 -1.032677918034047515e+01 3.379934893387339656e+01
1.646247385916089456e+01 -6.832048712443157257e+00 3.225566773161709477e+01
1.246423839414195101e+01 -1.109219923980502287e+01 3.985920689534637518e+01
1.266526213260408440e+01 -1.124830095486187886e+01 3.931699656953649935e+01
1.301776049608070807e+01 -1.161452838348451344e+01 3.794554275279765676e+01
1.240136510642866163e+01 -7.973753724434136991e+00 4.536530897421233988e+01
1.624848565062541184e+01 -7.786995174836216727e+00 3.215559882347323395e+01
1.609146690360003262e+01 -8.319854001964493762e+00 3.234007713314224475e+01
1.593449529234506912e+01 -8.852560369522420203e+00 3.252434501826697755e+01
1.223702243290137659e+01 -6.452260782183477872e+00 4.613104845844050317e+01
1.264684601925214835e+01 -5.657606490580019631e+00 4.645852777944289613e+01
1.382669228702277664e+01 -3.676265472807907830e+00 4.711975140107061577e+01
1.343355253145599448e+01 -4.222114303718329964e+00 4.697218607204573715e+01
1.533384416009435824e+01 -2.222423057094179644e+00 4.722738850806567967e+01
1.211786801113528433e+01 -1.025464693658442172e+01 4.217528350632039036e+01
1.210690775591291057e+01 -9.509573066079427761e+00 4.363484191586122307e+01
1.204910718923405710e+01 -1.067785492426856742e+01 4.104542527838688670e+01
1.422988090056229105e+01 -1.103377581847834676e+01 3.469709645767395756e+01
1.550330643318726942e+01 -9.267286873820685500e+00 3.261640274816173957e+01
1.462409530907022770e+01 -1.074411745689302577e+01 3.425101612067977896e+01
1.637744065528511328e+01 -5.898944961647220708e+00 3.201490656552842751e+01
1.637048617967553810e+01 -6.334200992783027395e+00 3.206730206910385306e+01
1.644770609578117515e+01 -5.273571379494407907e+00 3.202577981070619728e+01
1.695296742998108641e+01 -4.000093002406906351e+00 3.250654955070572782e+01
1.308865626134704385e+01 -1.162988135406620316e+01 3.732627821900295118e+01
1.201441988595407651e+01 -1.088965470831656646e+01 4.047985367508317012e+01
1.239438399193780960e+01 -1.142761981647275782e+01 3.865801714940272404e+01
1.200255643151287899e+01 -8.658719669170425348e+00 4.482657785494630787e+01
1.615647860272403946e+01 -7.289819805765122673e+00 3.196736131425364036e+01
1.413003858847771177e+01 -3.120214480233388876e+00 4.724196336468615698e+01
1.480398950711691874e+01 -2.368381791850258988e+00 4.727783533851373221e+01
1.208376316165991149e+01 -1.046621341364898150e+01 4.161050290409636432e+01
1.205477379758221623e+01 -9.084577238883236205e+00 4.423019424160768409e+01
1.392942709654079181e+01 -1.130454431100526591e+01 3.535392456259860694e+01
1.441867862530272859e+01 -1.086900953707461248e+01 3.437893957255038657e+01
1.507212726326140384e+01 -9.682003486716602936e+00 3.270816904296874839e+01
1.466186166730871143e+01 -1.032972972884954643e+01 3.341556196611791307e+01
1.315947126504310916e+01 -1.164523005423788504e+01 3.670696676617785670e+01
1.332625172329147922e+01 -1.166383774060759393e+01 3.644786866300682249e+01
1.357845660196414883e+01 -1.159039903417214035e+01 3.624729482190173968e+01
1.214028733992387998e+01 -1.147646844415862688e+01 3.802434323911722203e+01
1.190659902129765690e+01 -8.135050131172615551e+00 4.521169866594336639e+01
1.297137171469768191e+01 -4.521939982096624178e+00 4.691461580745859550e+01
1.259129367263240695e+01 -5.252343119888552181e+00 4.662862407102136331e+01
1.181069517409911995e+01 -7.612450391914394210e+00 4.559662189756657824e+01
1.211778998441282518e+01 -6.054695966141817820e+00 4.627281657713761831e+01
1.329459146226754029e+01 -3.729616189934969128e+00 4.715241847113029650e+01
1.435264869688114686e+01 -2.492801864824368163e+00 4.733740895625231815e+01
1.502658785663715690e+01 -1.741263861711076277e+00 4.737316184318175516e+01
1.562351943606813620e+01 -1.457299032931456573e+00 4.725955866683734996e+01
1.145376608910348359e+01 -9.955785531628208673e+00 4.254159900017612017e+01
1.164681196462738200e+01 -9.618454049684309837e+00 4.326819712229931980e+01
1.158066939562357689e+01 -1.054669018353174614e+01 4.118162233940104500e+01
1.432634520827833313e+01 -1.060799344128438371e+01 3.371687555790087742e+01
1.606432198395477329e+01 -6.791846929749811856e+00 3.177877057766722402e+01
1.633150953786165260e+01 -4.695272527777594185e+00 3.182601474498853378e+01
1.654770640253375191e+01 -4.043407371805636252e+00 3.203939992767787714e+01
1.181945010619418213e+01 -1.119788746690833037e+01 3.915906558036754603e+01
1.191695669157990167e+01 -1.104380941508133596e+01 3.981932546363675129e+01
1.219477348586436527e+01 -1.130008242952857778e+01 3.890809988535686870e+01
1.255582278452741107e+01 -1.160107529179655117e+01 3.754937233438992905e+01
1.576695117320223716e+01 -7.881372985410340704e+00 3.170708326665162247e+01
1.588050602284091006e+01 -7.665914986632584416e+00 3.171055692853567010e+01
1.553151592800485403e+01 -8.680543472674544958e+00 3.198382359818550924e+01
1.549125186717183666e+01 -8.874492703983715813e+00 3.213310706752874779e+01
1.169979281880373989e+01 -7.032306723466618337e+00 4.584205424317011079e+01
1.200628355970983741e+01 -5.244461872691459803e+00 4.661276506929779373e+01
1.434977531989015986e+01 -1.928123055109797201e+00 4.746246815405637420e+01
1.161368675211181589e+01 -1.033509488843313662e+01 4.174654436034364835e+01
1.136285694005476010e+01 -9.450320495742429827e+00 4.351683098926136495e+01
1.153988682495084639e+01 -1.020454622383104315e+01 4.208165752124646986e+01
1.110963032650441917e+01 -1.041552379486475388e+01 4.131780569065187336e+01
1.333420915404154528e+01 -1.150738940590452941e+01 3.567236136323603546e+01
1.391551924975151522e+01 -1.085789762751168119e+01 3.397299823636444671e+01
1.353798023030833519e+01 -1.118748416017798242e+01 3.460963285351146368e+01
1.402840899265995489e+01 -1.047178375945852125e+01 3.318240284263534079e+01
1.578834418329730127e+01 -7.168312406874597364e+00 3.152202949295577739e+01
1.597220321039865887e+01 -6.294090302281944993e+00 3.159021900973106867e+01
1.249633677412372634e+01 -1.161705315511261816e+01 3.659162815440976146e+01
1.282985494834437112e+01 -1.165426250450221879e+01 3.607350159876311579e+01
1.155177615593557050e+01 -1.092707127361748043e+01 4.007125251977152658e+01
1.172425923400517789e+01 -1.135186179236393045e+01 3.849918738003812990e+01
1.126801986052342563e+01 -8.599977251580000370e+00 4.470644475929287864e+01
1.237338240177485105e+01 -4.796178492187789466e+00 4.679268347997390265e+01
1.158891923965225779e+01 -6.452492333934864099e+00 4.608719255331475040e+01
1.276252829947989476e+01 -3.782963753128710582e+00 4.718506014113260250e+01
1.231499338509796360e+01 -4.267976965527259914e+00 4.698879641274032792e+01
1.359805605708760368e+01 -3.173542243572297750e+00 4.727464853531871114e+01
1.390130946842331205e+01 -2.617220554448405068e+00 4.739694820459752833e+01
1.523915631648369029e+01 -9.908807008153706075e-01 4.741877810442537822e+01
1.146952659126911378e+01 -8.827103137426052015e+00 4.443982783115903601e+01
1.096177713767756501e+01 -1.015440178606195865e+01 4.198794979809479599e+01
1.126148419931394074e+01 -1.062348912629798647e+01 4.084284079198101836e+01
1.514619638054708517e+01 -9.221363159702985257e+00 3.222489472970735136e+01
1.440152910002277231e+01 -1.000873396544955440e+01 3.267816551380233392e+01
1.338770511929405060e+01 -1.132292034008804826e+01 3.493821474763498003e+01
1.419624238866981791e+01 -1.033267901053273619e+01 3.303186640978201183e+01
1.141210886407290381e+01 -1.083143658781954066e+01 4.036787172418548408e+01
1.209388635781430388e+01 -1.158761881744024080e+01 3.715320208085732645e+01
1.130811871542705305e+01 -7.829284011325203352e+00 4.531404323667829459e+01
1.111038651307853797e+01 -7.540162248914742626e+00 4.549889163233402201e+01
1.150507270048938402e+01 -5.844421929383426750e+00 4.634187462350563180e+01
1.306607068452882636e+01 -3.226870160215274730e+00 4.730730642092809290e+01
1.367290927123096367e+01 -2.114996354683960966e+00 4.755169805817272533e+01
1.471138407337984155e+01 -1.237630506994472190e+00 4.753387931939167288e+01
1.096253310431064953e+01 -6.766742519516104615e+00 4.582613176058568172e+01
1.118665701926645539e+01 -9.727335524861945970e+00 4.290143864931424389e+01
1.072597294042561877e+01 -9.836330406685034333e+00 4.253421666172931737e+01
1.473379198928419598e+01 -9.502113180762876254e+00 3.217354212379751033e+01
1.312896197337222404e+01 -1.109404808414741694e+01 3.404484107628164224e+01
1.558076935166388921e+01 -6.515983506358335120e+00 3.117458664196880846e+01
1.128086680655448681e+01 -1.113016649379981615e+01 3.912036625112644117e+01
1.108880650973864945e+01 -1.096450979940908965e+01 3.966236662211073849e+01
1.080781617318887733e+01 -1.077317662657559261e+01 4.025579172664728134e+01
1.153978607686861046e+01 -1.142147684957327236e+01 3.778645355832833985e+01
1.183318351492130027e+01 -1.158887554056688529e+01 3.647625711534063697e+01
1.080592679399781098e+01 -8.046021302371505257e+00 4.503158589174762483e+01
1.551236444247831692e+01 -7.544781198430556834e+00 3.126528601660819362e+01
1.504813393391887466e+01 -8.896417154411114581e+00 3.174196733613483090e+01
1.186558211878572955e+01 -4.752158767416049479e+00 4.679287710135998424e+01
1.336975043953431985e+01 -2.670476364333727926e+00 4.742960938610089983e+01
1.403455026492735946e+01 -1.424497226188731425e+00 4.762314524060662535e+01
1.092900652874662981e+01 -6.358483981593182399e+00 4.601290705121997604e+01
1.093719505726630992e+01 -8.995202697033395367e+00 4.405349957215412360e+01
1.041231449502247841e+01 -1.027073025247760008e+01 4.144042028237116426e+01
1.060574935297885624e+01 -1.049592035706129423e+01 4.088915815020423850e+01
1.256498984958734511e+01 -1.151701306066206776e+01 3.521434124835941759e+01
1.459721923953772382e+01 -9.670373889804757539e+00 3.229820109596662547e+01
1.341236543550850868e+01 -1.084678546966400781e+01 3.356706200868941181e+01
1.284555855403050728e+01 -1.134130880545219178e+01 3.452217920546397067e+01
1.373059394735964744e+01 -1.033562820594576870e+01 3.264814732901005101e+01
1.546130188881579137e+01 -7.028332047408150984e+00 3.112110076478102982e+01
1.233345842321916841e+01 -1.164468516224263084e+01 3.569913507625383176e+01
1.121509594832608059e+01 -1.135302872767645965e+01 3.806750480834742234e+01
1.512874861659516412e+01 -8.508617538695316895e+00 3.144347751168836069e+01
1.142108848399286636e+01 -5.236588872589731380e+00 4.659689081946881117e+01
1.261587239019131346e+01 -3.259446913653146982e+00 4.735555929544110398e+01
1.198145618897969733e+01 -3.729179264224426582e+00 4.719837045565326150e+01
1.179390796522332607e+01 -4.232138063584899079e+00 4.699765524717766851e+01
1.492393432355937044e+01 -4.872515900087266427e-01 4.757952820657727244e+01
1.061769073695322874e+01 -9.390947179763934116e+00 4.339859345050123807e+01
1.053500404278208968e+01 -8.541300521118554201e+00 4.458651455470440794e+01
1.038332286907295376e+01 -1.010421182674774521e+01 4.189415230841049009e+01
1.057412055134124174e+01 -9.605847305600498487e+00 4.295092843983643860e+01
1.308995041768777590e+01 -1.142437297250040729e+01 3.509741500297208461e+01
1.349591284788825263e+01 -1.059452892261367651e+01 3.305796092274736253e+01
1.110069588699648691e+01 -1.129247957641927869e+01 3.838092980821456024e+01
1.062550808682786396e+01 -1.100197087553685371e+01 3.925319458203578904e+01
1.078135889405732328e+01 -1.114244649426328415e+01 3.878959761744711443e+01
1.135498813657128103e+01 -1.149108852408560821e+01 3.707368401442717243e+01
1.163194709598102428e+01 -1.157415930550861383e+01 3.675703028873682854e+01
1.081905204379688890e+01 -5.547422729275337083e+00 4.635266357451425989e+01
1.299772364463181873e+01 -2.163832508761664997e+00 4.762411787234841398e+01
1.345349977508946537e+01 -1.581719460945019140e+00 4.771957648094772253e+01
1.246906622846250379e+01 -2.735508755175051210e+00 4.752620297682314998e+01
1.439616686895883113e+01 -7.340026731640825197e-01 4.769457849309189612e+01
1.033588339557319458e+01 -7.080925559154546356e+00 4.556479980365372029e+01
1.026913402691226018e+01 -6.263856111412700933e+00 4.593859797124163435e+01
1.030375427186895010e+01 -8.264106245552921948e+00 4.474908896306229167e+01
1.026593008953599551e+01 -9.945164005483350778e+00 4.216747736877589858e+01
1.400548990936982818e+01 -9.979471659578946330e+00 3.230498787021053175e+01
1.412199934624583619e+01 -9.658736343766920029e+00 3.188840379672156189e+01
1.439549305197614615e+01 -9.322241884433584147e+00 3.163892901091697496e+01
1.290937990588340689e+01 -1.083567565467374294e+01 3.316125956149110721e+01
1.261009342881199125e+01 -1.120930633648338315e+01 3.397921006825909984e+01
1.056198615882984093e+01 -1.086323642849836091e+01 3.976262512183245690e+01
1.010186807216116200e+01 -1.057631658073039915e+01 4.046046148557024935e+01
1.013413438580784032e+01 -1.039509140405259657e+01 4.098017654945315513e+01
1.070616484126315093e+01 -1.135419416624017863e+01 3.763582001856185144e+01
1.150358009668781278e+01 -1.159790252992345572e+01 3.584289985300096504e+01
1.460495142312060679e+01 -8.918345578392976591e+00 3.135076273556565596e+01
1.134615090783742986e+01 -4.716366818990864296e+00 4.680170640019625239e+01
1.211297091563199402e+01 -3.144571980602609784e+00 4.739038921521503056e+01
1.381517958789036271e+01 -8.910847846725192811e-01 4.779105877992495266e+01
1.040978995822395525e+01 -7.467830301486454658e+00 4.540107905436038038e+01
1.040468344356770913e+01 -9.163316989199405072e+00 4.366699194519716087e+01
9.805545623110939246e+00 -1.005407067284505374e+01 4.180044507699938094e+01
9.871858049162325344e+00 -9.331500001534520194e+00 4.328022730296678589e+01
9.838699098472304172e+00 -9.692787875828296151e+00 4.254037735226083328e+01
1.183705861757740863e+01 -1.163510576327091606e+01 3.532476497714421981e+01
1.230632596553230940e+01 -1.130964706259922181e+01 3.408735266059719748e+01
1.312151214148548206e+01 -1.049496797500359335e+01 3.254878036888616322e+01
1.117000837664807555e+01 -1.156069743636382441e+01 3.636085920618443623e+01
1.020239883113281110e+01 -1.071491106548111638e+01 4.014369155425778501e+01
1.047922632629576256e+01 -1.123309449104506541e+01 3.826264535436684611e+01
1.016227064264898949e+01 -1.103942365312253138e+01 3.884408003751399008e+01
1.082907457029471132e+01 -5.135970732804890027e+00 4.655575598202840837e+01
1.021335347699061558e+01 -5.858832615279312428e+00 4.610824558718363875e+01
1.127137709339574201e+01 -4.196296645129829805e+00 4.700650243412986384e+01
1.277812967930074706e+01 -1.630623497179263026e+00 4.779198319999616729e+01
1.232253688598103025e+01 -2.212668550435791026e+00 4.769649448232584632e+01
1.194889788810747788e+01 -2.699744539801353316e+00 4.753504848388070769e+01
1.027127189001679852e+01 -7.842154433021941706e+00 4.507447061614183781e+01
9.836639296828060708e+00 -8.907065866775935703e+00 4.387331772151392073e+01
9.801417441149762766e+00 -8.482535627891403252e+00 4.446646743751992403e+01
9.736312364141294751e+00 -1.025503072292923790e+01 4.121068300813176677e+01
1.194115934764301024e+01 -1.152921424877142975e+01 3.486483603562737699e+01
1.347242068464480091e+01 -1.015761577252328074e+01 3.215064703087148956e+01
1.364747599643226117e+01 -9.647115585252615588e+00 3.147920483615250120e+01
1.237466534920815775e+01 -1.107732156030359683e+01 3.343648100496302789e+01
1.222081212628395086e+01 -1.140760622435481864e+01 3.444198727138982008e+01
1.323129170876820382e+01 -1.028807189920407161e+01 3.220854587652080880e+01
1.010475129089146584e+01 -1.084758212279324319e+01 3.956645052412508790e+01
1.068505701436060917e+01 -1.145802745093449460e+01 3.678254584077353684e+01
1.120047174175103599e+01 -3.675394099721903896e+00 4.721164897545592964e+01
1.075427029574591664e+01 -4.615504347141332175e+00 4.676066777699868737e+01
1.157451826309003096e+01 -3.187711550589983567e+00 4.737330177583930890e+01
1.323397923876837190e+01 -1.048224449116096357e+00 4.788752121801884698e+01
9.708799945519150043e+00 -7.395446361782285649e+00 4.530318926892871900e+01
9.658698747128356743e+00 -6.782391963681255298e+00 4.558364106175122288e+01
9.755120400461418484e+00 -7.938229220653297169e+00 4.488471758180931204e+01
1.240678436221416980e+01 -1.082457524869734122e+01 3.275577452078671570e+01
9.597964659562514100e+00 -1.065671345961500016e+01 4.003171670736395527e+01
9.667107606237992812e+00 -1.045593873678182639e+01 4.062102450259954622e+01
9.857506799257224728e+00 -1.117369174871940984e+01 3.814431391518706960e+01
1.019864133382729854e+01 -1.135535771121093163e+01 3.720414011373823371e+01
1.134066009686865861e+01 -1.162552482216125860e+01 3.495039526875041958e+01
1.023735522654208552e+01 -5.035418133269422114e+00 4.651463275529607699e+01
9.608601512834969327e+00 -6.169170312500000364e+00 4.586418532527725489e+01
1.067937727938701187e+01 -4.095150169172447896e+00 4.696558021187146892e+01
1.164844675875880142e+01 -2.111672674665773908e+00 4.774576428249559967e+01
1.216895188059747746e+01 -1.660408985069176335e+00 4.787054749781836449e+01
9.296968230572069558e+00 -1.009213284879639083e+01 4.134774968036504816e+01
9.164440671354649126e+00 -9.699059307677071473e+00 4.214552561408599018e+01
9.395847831025928798e+00 -9.391503174262174625e+00 4.289060908217121693e+01
1.321415139014152373e+01 -9.979536972004719786e+00 3.165296263719118031e+01
1.159650229522331166e+01 -1.147385672031865056e+01 3.436187033926771051e+01
1.176686858783364720e+01 -1.127797063371290243e+01 3.365234555266719951e+01
1.251291524140309264e+01 -1.065418112604870515e+01 3.244949293002942881e+01
1.096451710473814778e+01 -1.157211676008708956e+01 3.582113044916689404e+01
9.626258315546365907e+00 -5.552165512382103429e+00 4.616886812910586002e+01
1.262450829258305340e+01 -1.077870886882102974e+00 4.796618586662168582e+01
9.265525641364181553e+00 -8.899367874982004878e+00 4.362663622749632708e+01
9.238943289309998974e+00 -8.581073977237679173e+00 4.407132006692896908e+01
9.226719977061712541e+00 -9.948269300738537879e+00 4.168339586104201544e+01
9.264863094079418104e+00 -1.027603477174404745e+01 4.082954105564397906e+01
9.292109553602152516e+00 -9.217636494283389936e+00 4.318195605442478779e+01
1.213935500788865873e+01 -1.094540226680153516e+01 3.289345445055307948e+01
1.273145233422532030e+01 -1.024046439746387449e+01 3.176847279200557850e+01
1.061817732834396999e+01 -1.154298470273861099e+01 3.592156741322590108e+01
1.054645301705408045e+01 -1.151023338876468571e+01 3.624794845729842052e+01
9.476930764702810706e+00 -1.080922118368526874e+01 3.936331437969562330e+01
9.698907543425578481e+00 -1.107688340360470391e+01 3.843485911232662744e+01
8.983791794722339574e+00 -1.037947194595486877e+01 4.035702098997715126e+01
9.690960951578864169e+00 -1.135652011104538595e+01 3.677246177437410779e+01
9.717429881510206258e+00 -1.123483292438665693e+01 3.761510795056444323e+01
1.075899077934440484e+01 -1.158353331960056565e+01 3.528136546979337140e+01
1.016294183846658861e+01 -4.514587774373530316e+00 4.671973504525409027e+01
1.112501048835990680e+01 -3.120265966973173821e+00 4.740617078825380304e+01
1.067600742580293627e+01 -3.547347377017063597e+00 4.720113757493066231e+01
1.104964252577587480e+01 -2.564957035563403043e+00 4.760076694990019774e+01
1.149460514524415267e+01 -1.559238254627053122e+00 4.791986962566411279e+01
1.201516061339508568e+01 -1.107511500492557310e+00 4.804480465451548099e+01
8.994642912396413337e+00 -7.210597247233916818e+00 4.522276959053202461e+01
8.927427298235008024e+00 -6.393102981493805181e+00 4.559666126921290186e+01
9.220084293321907154e+00 -8.339494585380602842e+00 4.438479424217229763e+01
8.787922297567902774e+00 -1.013022106031900549e+01 4.089462762493226933e+01
1.190402656111701774e+01 -1.081347068567005465e+01 3.235015810546875059e+01
1.156593383465898306e+01 -1.102989457030455256e+01 3.278443824183472799e+01
9.355986809961873263e+00 -1.096176613092669783e+01 3.869468376993149406e+01
9.013668040397883274e+00 -1.055366141674505975e+01 3.990762124676680145e+01
1.015667455466812363e+01 -3.966993930895698739e+00 4.695511772933968331e+01
9.644184060993532981e+00 -4.934856602288004268e+00 4.647349502726440562e+01
8.969649664434177438e+00 -5.988112733394221898e+00 4.581495727400673701e+01
9.150442069506745213e+00 -7.523054550561314890e+00 4.501231176564742498e+01
9.100505405842216788e+00 -7.930214062477452863e+00 4.467084304240751891e+01
8.677298883120609929e+00 -8.679419978304590444e+00 4.367674150379202302e+01
8.648524226221679712e+00 -9.842572042653854325e+00 4.156646274209626313e+01
8.919503747630983526e+00 -9.451522871726025343e+00 4.250070807114881433e+01
8.712817519119516518e+00 -9.103851594075488052e+00 4.308375243929282306e+01
1.110001638599387341e+01 -1.139321425032923862e+01 3.374969444687180697e+01
1.122783767321771187e+01 -1.124631844214593990e+01 3.321768686492453071e+01
1.097218627291891835e+01 -1.154010768183795399e+01 3.428176137519258049e+01
9.922672974433801585e+00 -1.145976916331012063e+01 3.613501870622719281e+01
9.141164479665304654e+00 -1.066594532830590403e+01 3.961868113128117130e+01
9.235289346349745188e+00 -1.111430724731396680e+01 3.802601184292390002e+01
1.060129709275133258e+01 -2.992152665589026039e+00 4.739571054151620189e+01
9.639716917976386412e+00 -4.386234029590233341e+00 4.670930144017871299e+01
8.993255759567615470e+00 -5.165820594214102890e+00 4.622123528957634875e+01
1.097435337481979367e+01 -2.010676476922243161e+00 4.779501036416236559e+01
8.638668802074661812e+00 -8.196421730928966198e+00 4.430310305768301049e+01
8.443703269189567706e+00 -9.511454624657778467e+00 4.211124644551539120e+01
8.093209906332779369e+00 -9.914206529796322442e+00 4.099179910110417069e+01
8.278801038201066831e+00 -1.016830763629838863e+01 4.044143165608368662e+01
1.084426250545547710e+01 -1.161594257896544491e+01 3.457602563308008570e+01
1.006634238874283049e+01 -1.152527028137927623e+01 3.548227289646047922e+01
8.684326210825640047e+00 -1.067517624598406023e+01 3.920560194982864743e+01
8.429332680235338771e+00 -1.045058896445033092e+01 3.978349674032750727e+01
9.049145649293315330e+00 -1.119582097593463565e+01 3.732041320314805688e+01
1.015073847206287461e+01 -3.419401786536065746e+00 4.719062421191406287e+01
9.054814306506473898e+00 -4.714014335080427109e+00 4.643785457286790574e+01
1.141042000944969992e+01 -9.819912881169239327e-01 4.810905130846732902e+01
1.052613681481517283e+01 -2.437254117548827370e+00 4.759017469013893731e+01
8.592507438629473526e+00 -7.651965364601445607e+00 4.472163784727134583e+01
8.331094430947825202e+00 -5.807165248884502695e+00 4.576574912323785327e+01
8.070568765501485942e+00 -9.736912931192771126e+00 4.144956461288830241e+01
7.968244753713022099e+00 -9.571329122973089909e+00 4.172205948501603956e+01
1.068811905436043297e+01 -1.121462515833950846e+01 3.278248195761585748e+01
1.069558812419503013e+01 -1.136947328072644758e+01 3.342359132792904575e+01
1.055343648687114388e+01 -1.159494745943561078e+01 3.474154318486446869e+01
9.183219423558151462e+00 -1.135768132373300077e+01 3.634078273008782389e+01
1.034786390925112265e+01 -1.160635918621907869e+01 3.420165466252609576e+01
8.750307383150619955e+00 -1.088183507553650209e+01 3.849052087995504934e+01
9.633894717483137526e+00 -3.838838008866556795e+00 4.694464728611759341e+01
1.007760924958191673e+01 -2.864041526265488358e+00 4.738523982681822844e+01
8.246197223019441580e+00 -6.617113878457525189e+00 4.532907085633939914e+01
1.088982655290541857e+01 -1.433523938960578947e+00 4.798416726870271987e+01
8.280436838493841378e+00 -7.025728507373614207e+00 4.514233378517503326e+01
8.115265686322041816e+00 -8.777798853495529130e+00 4.328188327838685012e+01
8.086441126693618031e+00 -8.415631849969459566e+00 4.375167026673248927e+01
8.105899789578593584e+00 -9.255764208575364194e+00 4.243509400708713031e+01
8.862307643002411695e+00 -1.127733536642699086e+01 3.661475488297084269e+01
9.298756125884590773e+00 -1.140930543682871168e+01 3.602206941724014655e+01
8.227479309877939073e+00 -1.068440491831871064e+01 3.879251118951400201e+01
8.036281941201441015e+00 -1.051596931597260109e+01 3.922595401897130074e+01
9.931274237777191871e+00 -1.155695763072195703e+01 3.462238836634640649e+01
8.741376048152609712e+00 -1.110081266722510662e+01 3.760336694923533685e+01
8.640319923750865883e+00 -1.101379334582636460e+01 3.790769123198810320e+01
9.051353689632684052e+00 -4.165918848600816737e+00 4.667342582444116061e+01
8.342986522444656217e+00 -5.397447047675227871e+00 4.596905817724771737e+01
8.491355226382610866e+00 -4.944165584684516723e+00 4.620590208716431135e+01
1.030077257367349652e+01 -1.772396578419359381e+00 4.782377037326046576e+01
8.072995725799559708e+00 -7.366747873954199832e+00 4.478922451671845550e+01
8.133375451329312611e+00 -8.990029256287410675e+00 4.298551349950419365e+01
7.492515963864170736e+00 -9.631228088261140741e+00 4.133264420972427899e+01
7.809354098151330525e+00 -1.001907394848802113e+01 4.051579872210250244e+01
7.769476262083940377e+00 -1.020640363620947433e+01 3.998804922202331369e+01
1.016332914524244835e+01 -1.149262654502399350e+01 3.362955913171817457e+01
8.292210792252511453e+00 -1.083769994319530738e+01 3.827520489007967086e+01
9.094785651093497236e+00 -1.143319854220864507e+01 3.547610296293824916e+01
9.514508821697186036e+00 -1.150755466831872731e+01 3.504297812115397903e+01
9.627978080765030811e+00 -3.291295238098354670e+00 4.718009070322555942e+01
1.004407052049615423e+01 -2.352196697309301143e+00 4.757803747986198317e+01
8.465109803989133042e+00 -4.492992473022613176e+00 4.640217819840840718e+01
1.080525436596732014e+01 -8.563813047452744076e-01 4.817332759710441792e+01
8.034511075993243878e+00 -7.781012611878828089e+00 4.443092054524982615e+01
7.628904445970254855e+00 -6.233638881661366149e+00 4.538904599342280477e+01
8.057617074788121059e+00 -8.053428997222182417e+00 4.422145744994374894e+01
7.415311891088424368e+00 -9.835543215382383408e+00 4.073379019102387133e+01
7.512846430546487042e+00 -9.379456195446651989e+00 4.185099354585366171e+01
7.845129590497504246e+00 -1.034753184705075668e+01 3.965938581265305629e+01
7.514508037424587172e+00 -8.393406055604904381e+00 4.351311021003861867e+01
9.978782251611537646e+00 -1.137888740252203235e+01 3.305742887087735937e+01
8.675453002395073554e+00 -1.135884145917062504e+01 3.590910796205196220e+01
9.725729288110761317e+00 -1.156836905712356334e+01 3.408253917988474768e+01
9.860461298662256624e+00 -1.156995987889247957e+01 3.381731527462767417e+01
7.770360817081993332e+00 -1.069363909674322777e+01 3.837916477320889186e+01
7.681794575759870902e+00 -1.051856505107475037e+01 3.892146845066066874e+01
8.247386695773727183e+00 -1.108731473690058955e+01 3.718061714199045298e+01
9.046279269019661839e+00 -3.617990877012654760e+00 4.690899737160075489e+01
9.628153214250323444e+00 -2.705248795926651795e+00 4.740432067305528108e+01
7.691843648870318795e+00 -5.626017416106996905e+00 4.571647916745152429e+01
7.566017874345846828e+00 -6.840799766820475192e+00 4.506186559038393824e+01
1.021611224286318809e+01 -1.195000801353602649e+00 4.801299477912642999e+01
9.627219488430821315e+00 -2.119405610410005636e+00 4.762848723430915499e+01
7.553490013009914961e+00 -8.876110865180184106e+00 4.288719594669704094e+01
7.533163836532930091e+00 -9.127841407233548310e+00 4.236899268182581579e+01
7.475486897036389244e+00 -7.910164694416512710e+00 4.413965320289810279e+01
8.215752112787708228e+00 -1.121632506042488053e+01 3.633338553338066390e+01
8.045643618951894283e+00 -1.091326043496383491e+01 3.778933994819537645e+01
7.260802539695811575e+00 -1.024444716733574090e+01 3.953523979014569534e+01
8.962669467188435490e+00 -1.148983714525532918e+01 3.460369014407973509e+01
9.133217718728490198e+00 -3.053794839264309946e+00 4.717312976400044278e+01
8.461671904885486484e+00 -3.944919457423031073e+00 4.663778955783298841e+01
7.783898190248490501e+00 -4.949969715209220134e+00 4.604167467805778813e+01
9.130547754247158920e+00 -2.467953845441264171e+00 4.739735174510807525e+01
7.520753901818940435e+00 -7.375552958676412807e+00 4.460076212801218531e+01
6.968906143426598199e+00 -9.621778232173804568e+00 4.088292687507867385e+01
7.338039456626073154e+00 -1.004003893998243058e+01 4.013439251288986753e+01
7.753109957814671382e+00 -1.107380678954343267e+01 3.675759924380025012e+01
8.469897508305606948e+00 -1.138273405175368502e+01 3.536316603695050986e+01
7.875924341786713079e+00 -4.272141114433989806e+00 4.636652264691116443e+01
1.022882644832810328e+01 -5.927719787964098597e-01 4.823082294720741459e+01
9.626483662791283535e+00 -1.533868567262302474e+00 4.785254616853671195e+01
9.131805541226468037e+00 -1.882066699239585139e+00 4.762158726841601464e+01
7.040905553098886216e+00 -5.675103734442260794e+00 4.551171284557015895e+01
6.877952206651090528e+00 -9.450123646113716802e+00 4.122317973579004047e+01
7.029258016082174265e+00 -9.133952238466880758e+00 4.197053216545781140e+01
6.931229451462267654e+00 -9.811406785406582287e+00 4.035788578389335157e+01
7.049534325652453859e+00 -8.882287396595661022e+00 4.248859508943345986e+01
6.905623360621977902e+00 -8.303548607239335411e+00 4.330455258451831924e+01
6.942815613749311332e+00 -7.937866615141393467e+00 4.381475677385919454e+01
9.373034761825779881e+00 -1.153355802050701762e+01 3.343294990849319959e+01
9.103556353803904599e+00 -1.153037910253469533e+01 3.396341003019410465e+01
8.075768631307255419e+00 -1.127749975660824511e+01 3.580401914748850345e+01
7.125847339862930951e+00 -1.040041199498029201e+01 3.887401180516439325e+01
7.313390495524721757e+00 -1.070286816460188106e+01 3.796595165217422618e+01
8.266859553008696793e+00 -1.140662475844581003e+01 3.481718890824476631e+01
7.450819880582741028e+00 -1.081267380544332823e+01 3.767091818142219495e+01
7.304442384152565637e+00 -1.089295656742375584e+01 3.715507009720887766e+01
8.551624710675325147e+00 -3.380592452296503403e+00 4.690203704884799407e+01
8.638711890985963038e+00 -2.816458472915313482e+00 4.716616807348465557e+01
7.141036510485395894e+00 -5.364649540516857940e+00 4.569143130402417086e+01
6.947118140454625390e+00 -6.586468531305884611e+00 4.502079328257922697e+01
9.639490684726329306e+00 -9.318258297125684431e-01 4.807031174642128946e+01
7.014790002877265174e+00 -6.859906134764106156e+00 4.483413039846300308e+01
6.868429099164977458e+00 -8.669202267863434841e+00 4.279434686771287488e+01
6.911702234164131653e+00 -7.263330528541735553e+00 4.445980649669161267e+01
6.808613003663243290e+00 -7.666547374207431709e+00 4.408548415902106399e+01
8.138658153203703449e+00 -1.133641131441959615e+01 3.548266045960147608e+01
7.258950310436948605e+00 -1.106030134148719135e+01 3.633465865840649656e+01
6.991041323952903674e+00 -1.055621214678418340e+01 3.821345949415766086e+01
6.803491810993619993e+00 -1.022275256413704625e+01 3.913254882840176663e+01
8.410828376323697952e+00 -1.147211907361545435e+01 3.416439445200149549e+01
8.636032288998874762e+00 -2.230657869100293400e+00 4.739037822047792758e+01
7.965883472539680987e+00 -3.707344816256713305e+00 4.663090001785052863e+01
7.279151450375540122e+00 -4.350186265583866785e+00 4.617890639144929565e+01
6.902564975413019610e+00 -6.115986507734794131e+00 4.524854275532154446e+01
9.033821455965023617e+00 -1.152585349369332546e+00 4.788431809462817768e+01
6.629188204978250454e+00 -9.147589662594350912e+00 4.163661698572890657e+01
6.263465576177829952e+00 -9.269041143289550533e+00 4.111371881107905324e+01
6.636506408242225596e+00 -9.891956023989992630e+00 3.988244340475304739e+01
6.664143269608708842e+00 -1.007926218260260143e+01 3.942254930705342986e+01
6.445445043222268744e+00 -9.612327087753612886e+00 4.043333712901932842e+01
6.410541316756465768e+00 -7.965522796095557467e+00 4.349009900921751637e+01
6.183285207842619258e+00 -8.462264337971445727e+00 4.270148241825719992e+01
8.885605877513491180e+00 -1.149715567671257865e+01 3.304857819007465736e+01
8.063039794316265940e+00 -1.143051343669421804e+01 3.427117072320481128e+01
8.693384117602489525e+00 -1.696540070151650648e+00 4.760781635259319700e+01
8.056135843833519772e+00 -3.143195270038378286e+00 4.689507144636845482e+01
7.120090541947178941e+00 -4.844304494099457514e+00 4.591851712950172981e+01
9.652424664473047144e+00 -3.291741241807333296e-01 4.828830672535353585e+01
6.590641164554317477e+00 -5.103479939765663609e+00 4.566639920824398757e+01
6.545672764576828229e+00 -8.888447897096819261e+00 4.209006637648248272e+01
5.877435336765975293e+00 -7.993201455973748537e+00 4.316493344920905173e+01
6.142756177690309016e+00 -7.423301160587678638e+00 4.403139137363642419e+01
6.463505226227502121e+00 -6.879128336809545274e+00 4.460636905171111977e+01
7.475994760072179446e+00 -1.119615214505253498e+01 3.569890883210142363e+01
7.601835608435195013e+00 -1.131398044019477567e+01 3.505621257605066887e+01
6.856170085227506483e+00 -1.071210184467405568e+01 3.755250733117366480e+01
6.346623320970530280e+00 -1.020107744319680698e+01 3.873024919110339681e+01
8.481321891939650470e+00 -1.149238935663744954e+01 3.384426034504246417e+01
6.660797304496434812e+00 -1.081916510858424552e+01 3.686449338815270949e+01
8.144392516398234250e+00 -2.579227405913701698e+00 4.715920483680236686e+01
8.241443194909116698e+00 -1.976053850616563246e+00 4.741168503942786572e+01
7.250384849698269463e+00 -3.915681374283050520e+00 4.635480690047139518e+01
6.327369072968936692e+00 -6.332060032759451396e+00 4.497966254558011912e+01
6.389693465068774891e+00 -5.724212946378075983e+00 4.530685377339752051e+01
9.046626431802636148e+00 -5.501795688951183205e-01 4.810217103090599267e+01
6.042072458157836223e+00 -8.894591868233144183e+00 4.169174627770095753e+01
5.923954254906074191e+00 -7.672779161953285687e+00 4.359625370685558465e+01
6.022779332808230635e+00 -8.648432039694839091e+00 4.219036945560066698e+01
6.764532681807031267e+00 -1.104678740713893603e+01 3.591148438577627644e+01
6.386086973930132693e+00 -1.042587859310745202e+01 3.802029449107783421e+01
7.858984087367351101e+00 -1.145439989298207273e+01 3.372509726321840162e+01
7.654090076255107178e+00 -2.214004796055195179e+00 4.717194463045758823e+01
8.340934096228712846e+00 -1.373731586399115079e+00 4.766382616202067624e+01
7.340396508184634961e+00 -3.351171151955316674e+00 4.661908268177924697e+01
6.682874176386341958e+00 -4.429263871348972259e+00 4.599142408388967596e+01
5.701257663428551226e+00 -9.296264984639122986e+00 4.053886878903787050e+01
5.648787780486469678e+00 -9.087898639711015747e+00 4.100422095433076208e+01
6.067191469491531208e+00 -9.913992887472566906e+00 3.930979760137343959e+01
5.921774666977473345e+00 -9.602868614671413283e+00 3.998356827334841057e+01
5.498016115619464017e+00 -8.255284811719704408e+00 4.260859718534278784e+01
5.912313888884057178e+00 -6.898242728813021252e+00 4.437864502493771823e+01
8.128661162375372840e+00 -1.145757742213789143e+01 3.319476245044909035e+01
6.465437135007275238e+00 -1.092624716620715297e+01 3.617631350568056803e+01
6.874066632711694602e+00 -1.111474845111803589e+01 3.559371418855509006e+01
7.459764655606448969e+00 -1.137297557810148874e+01 3.417749118287338916e+01
7.751622257549772854e+00 -1.611213171417165579e+00 4.742439032838437640e+01
7.430647894444284418e+00 -2.786885059540066489e+00 4.688335830446717978e+01
6.625073999482157916e+00 -3.559356187049435682e+00 4.634309149961820395e+01
8.440864704631891868e+00 -7.711259032071368091e-01 4.791609689660022298e+01
5.538414244652988039e+00 -8.900727616661997743e+00 4.129337868979110482e+01
5.344138321990360652e+00 -7.650109428073880835e+00 4.330946907367731313e+01
5.464497865886685624e+00 -8.614609637215540516e+00 4.183354221005649265e+01
5.475900451734186269e+00 -7.179685460251668871e+00 4.397721586691921658e+01
6.372266834256778978e+00 -1.067862857910522933e+01 3.713979617601882666e+01
5.889410830373666528e+00 -1.017938547627808177e+01 3.832764616715974881e+01
6.271917028802446836e+00 -1.056267587035783606e+01 3.744466295823119850e+01
7.065003586768551003e+00 -1.129154901411727252e+01 3.462976938483653555e+01
7.164503760000495269e+00 -1.849329631730040280e+00 4.718466213480539295e+01
6.355813524407109227e+00 -4.032701236769631770e+00 4.607350935097765188e+01
5.889813862869070604e+00 -5.307770589942204076e+00 4.537182323936622907e+01
5.707637175752723557e+00 -6.077645082884844285e+00 4.493853099315179378e+01
6.715082189797261236e+00 -2.994730871287833551e+00 4.660741723248629853e+01
9.150652938244769885e+00 8.319928427278533434e-02 4.835078914672297401e+01
7.849971227405021956e+00 -1.008778698737330171e+00 4.767655306046970765e+01
5.034475900326050635e+00 -8.906861347431073384e+00 4.089478450774761598e+01
5.760885391576213266e+00 -9.982626231426127816e+00 3.878932709749165042e+01
5.345196404279779934e+00 -8.020819881437976306e+00 4.284029515623901574e+01
5.361015150846515809e+00 -6.917297403471381223e+00 4.415087205169427165e+01
5.534329825689408899e+00 -6.497592503186272239e+00 4.454470130445469067e+01
5.888222095152822355e+00 -1.064514458837240696e+01 3.672696686343388706e+01
6.670053140928852820e+00 -1.116241535855247591e+01 3.505913686263240692e+01
6.270265577228242293e+00 -1.103327829887973088e+01 3.548841955008322202e+01
7.256269231261486041e+00 -1.139686293885614532e+01 3.363139706136061591e+01
6.939762619743672367e+00 -2.421896060787032123e+00 4.689605938331725099e+01
7.261749229670151351e+00 -1.246373365625947915e+00 4.743709246575661354e+01
6.040204489570343505e+00 -4.842290244349015893e+00 4.564136391846458451e+01
5.739417793077487673e+00 -5.773256366849863319e+00 4.510228117051875074e+01
8.544818417143911660e+00 -1.377900618330327176e-01 4.816464823321130240e+01
5.413223963595298116e+00 -9.384683939323860358e+00 4.006109299487309272e+01
4.981372072578901466e+00 -9.132502626572792437e+00 4.029155437895380487e+01
5.398453807698041729e+00 -9.593413398474668341e+00 3.953410045520259075e+01
5.471069535538032547e+00 -9.748950744607052243e+00 3.919719746034032681e+01
4.886924090640376583e+00 -8.334629164539624213e+00 4.197533099089208264e+01
4.810844381764548316e+00 -7.307015474012755085e+00 4.345400522895239703e+01
4.948932367668928300e+00 -6.380161416392057916e+00 4.441009200300302950e+01
5.921791830463783768e+00 -1.078602593728565928e+01 3.615646885723916171e+01
5.944123591598517997e+00 -1.034627864370450823e+01 3.782698666297118706e+01
6.528136495650235460e+00 -1.126911584042663428e+01 3.420330621075542155e+01
6.086593799353376966e+00 -4.505149519303784267e+00 4.580392652966705924e+01
5.999594836829258426e+00 -3.202937814150864870e+00 4.633137032033899061e+01
7.921084249504644070e+00 -2.153493869824572027e-01 4.797328300884234409e+01
4.960732779988219932e+00 -8.620876551139460275e+00 4.143481714263413096e+01
4.813127364018790821e+00 -8.048416777381962817e+00 4.251575998544223012e+01
4.811986669094818758e+00 -7.677668911481594805e+00 4.298495509352401456e+01
4.809700492014182593e+00 -6.936306918324728343e+00 4.392309020837254252e+01
5.088244999158761495e+00 -5.823357742826035022e+00 4.489742014521462465e+01
5.490066401439142041e+00 -4.581244145291968550e+00 4.561633986656245554e+01
5.404477505022246220e+00 -1.061168078965830830e+01 3.631439571741011463e+01
5.687800211275338746e+00 -1.041327934703916114e+01 3.733683025021298363e+01
5.998747836176754333e+00 -1.109695775986345367e+01 3.477547938151118245e+01
5.272197911339198129e+00 -9.925120264884954580e+00 3.846248016649064283e+01
6.448906766382052957e+00 -2.056910610570698683e+00 4.690875700183592301e+01
6.674092249975673852e+00 -1.484253546636927767e+00 4.719739124256063434e+01
5.744760009668484990e+00 -3.894324516950379067e+00 4.597378568273804689e+01
5.289118486279826392e+00 -5.201931857068326615e+00 4.525680630301528140e+01
6.224173044625536555e+00 -2.629797289130932469e+00 4.662006537418789520e+01
8.648640013019143424e+00 4.957724828720239119e-01 4.841329786254791401e+01
4.928252124958210523e+00 -9.358212553809304168e+00 3.968813624805549267e+01
6.653211000052774438e+00 -1.133932606910911822e+01 3.353768380607314725e+01
5.755853342241519677e+00 -1.099460645629149980e+01 3.507223814255900862e+01
5.547518416597299051e+00 -1.075720995544547165e+01 3.584991800229314407e+01
5.432518718222616450e+00 -1.015770635354259710e+01 3.792533155954397728e+01
8.025165014830085042e+00 4.181716090608902370e-01 4.822190687890898886e+01
4.424538880384961459e+00 -8.672825156146210190e+00 4.087259555132634148e+01
4.533887320180198799e+00 -8.843675402492243265e+00 4.057568305467503222e+01
4.875123718275682805e+00 -9.583956060980927560e+00 3.908462358935672398e+01
4.247588545349747058e+00 -7.986126614713528582e+00 4.216939479287690773e+01
4.252081797320770740e+00 -8.308343730659684567e+00 4.149459084605449277e+01
4.237230810486695809e+00 -6.895142617893846193e+00 4.360923330247805296e+01
4.472636366865583746e+00 -5.772375990220469433e+00 4.466600557942478389e+01
4.249937269217386238e+00 -6.662647480206369544e+00 4.388656231812625208e+01
4.156238230275342893e+00 -7.318093877879237041e+00 4.302137168790635258e+01
4.547107367278378831e+00 -9.063913478163390991e+00 4.004848571194321494e+01
5.254078754209640323e+00 -1.043778122126502694e+01 3.677170707866391552e+01
5.690645240347645739e+00 -1.090273665276185433e+01 3.538542559995055115e+01
5.312674538244160694e+00 -3.189238552078440758e+00 4.613302331326259065e+01
5.537652126716221090e+00 -2.843307959804932672e+00 4.632622336322844347e+01
8.265712103914294673e+00 1.054411122512829646e+00 4.848482114053254577e+01
4.238956472362927386e+00 -7.784486919359324020e+00 4.248310644879461506e+01
4.267176996970281522e+00 -6.191615225395049826e+00 4.425479868002086903e+01
4.894236882282529955e+00 -4.545214966342732588e+00 4.544517690914280905e+01
4.930174701131557313e+00 -4.222201143953288494e+00 4.559663734088960751e+01
4.305745501972435108e+00 -9.372630581193849508e+00 3.906342244539497699e+01
4.169476991666387633e+00 -9.076554036313480012e+00 3.965997461870711760e+01
4.879850063292471951e+00 -1.040789613102725930e+01 3.646685075550988842e+01
5.103701218936028461e+00 -1.026388221321321303e+01 3.722899556543810462e+01
5.727725188146001400e+00 -1.116060645513280747e+01 3.406279980757903303e+01
4.920702559047288815e+00 -1.057821335403197693e+01 3.590180616951569448e+01
6.042573583756568389e+00 -1.553974198618962355e+00 4.697565572304878856e+01
4.443681909950269571e+00 -5.467912647306147456e+00 4.486321299248685079e+01
5.025583388857984168e+00 -3.678088398239811152e+00 4.584806099624468345e+01
5.726463725166905938e+00 -2.170765290997096475e+00 4.664191194717753319e+01
4.033209101778209238e+00 -8.780476760597844432e+00 4.025652573666614131e+01
4.756569580662080909e+00 -9.760605385320859639e+00 3.843068162973489166e+01
4.574174957346748727e+00 -4.976150428954911220e+00 4.513848188508602988e+01
5.110880969092798765e+00 -1.077213381312633089e+01 3.528237765714426644e+01
4.637898896752544076e+00 -9.937427373875980408e+00 3.777609492809576608e+01
4.975669679831255188e+00 -1.013602885225101780e+01 3.752305534275669885e+01
4.519151053788124983e+00 -1.011436608220685862e+01 3.712107286391044170e+01
3.814665030798541245e+00 -8.438811754287369737e+00 4.085040922858300405e+01
4.406572085396827099e+00 -9.528651081446907867e+00 3.870375348701120544e+01
3.681859223955135985e+00 -7.923803804649973692e+00 4.182291503498082363e+01
3.665608773332433845e+00 -7.520931874287477115e+00 4.245049910398095250e+01
3.690274657061948460e+00 -6.389039952842342274e+00 4.385003687664620742e+01
3.664156310049909049e+00 -6.853907735711829652e+00 4.329504149525512702e+01
3.856943420029654401e+00 -5.721291680895876475e+00 4.443455718500521812e+01
4.298841528723145622e+00 -4.509214298642915786e+00 4.527413475527183095e+01
5.075321282411811907e+00 -2.483382104217003228e+00 4.632107108526628991e+01
4.625924894431774348e+00 -3.176183059668109987e+00 4.593471508337955100e+01
3.662578136380605809e+00 -8.159722462697803991e+00 4.130976774403715268e+01
3.581165316658468267e+00 -7.165160266337361250e+00 4.284745329236724842e+01
3.800099816786356222e+00 -5.113008514725235543e+00 4.482905793783216808e+01
4.370407263544320742e+00 -3.863244265133637612e+00 4.557693776714154410e+01
