-4.243500000000000050e+00 1.708919900000000069e+01 4.172549800000000175e+01
-1.836091280350007793e+00 1.588096796582637182e+01 4.230699733603018586e+01
-2.898047678946589767e-01 1.499350067556331112e+01 4.227473546390667281e+01
2.970038802342698681e+00 1.230433054715495622e+01 4.228046823167724000e+01
1.757464080396706985e+00 1.406632838861218282e+01 4.213419589022451817e+01
2.889952237412444447e+00 1.298945812501353103e+01 4.218447315738888648e+01
-9.387308304020871574e+00 1.707649151242856433e+01 3.779982585522859040e+01
-8.765175036562016686e+00 1.757058858311171790e+01 3.862849299126729363e+01
-8.186747817750232414e+00 1.785125292338026171e+01 3.920390553195908012e+01
-2.933700389092568805e+00 1.718590096705025161e+01 4.223409998758840089e+01
-1.832749203957887651e+00 1.636230397128709768e+01 4.241318104461220884e+01
-7.371660124340602138e-01 1.567226908335318569e+01 4.250493304847915255e+01
1.481656725976935096e+00 1.434659798555402155e+01 4.219881527262894139e+01
3.167044805137057217e+00 1.273023302945475344e+01 4.223440541807085680e+01
-9.928765111182743297e+00 1.674254038927582400e+01 3.716346596485257692e+01
-9.080410427594912903e+00 1.749039400423463420e+01 3.818599401885963829e+01
-8.584899494112155693e+00 1.815859960948785812e+01 3.880950250112486799e+01
-7.533575852008181251e+00 1.801234119898621344e+01 3.982492251805933847e+01
-6.837678782521002141e+00 1.809022168611587489e+01 4.033217242817098480e+01
-6.465004145335162100e+00 1.796163373384738549e+01 4.063644444358027386e+01
-4.637357033927616889e+00 1.758402002948375653e+01 4.162453570339044973e+01
-5.454406713661335893e+00 1.784180083848356091e+01 4.125421528569239626e+01
-2.383089152810388356e+00 1.677400053925190804e+01 4.232366254112879034e+01
-3.457969921883981446e+00 1.765273077989616368e+01 4.211096104329152467e+01
-4.375326098664509722e+00 1.783772548365127975e+01 4.179495837085743659e+01
-1.282399999999999984e+00 1.595059999999999967e+01 4.250270100000000184e+01
9.104310114161557888e-01 1.490389552114875116e+01 4.247476477460906352e+01
3.004080582140500777e+00 1.374780522201566768e+01 4.223730143633677869e+01
-8.939697538288490009e+00 1.802502201511338598e+01 3.831722572689444917e+01
-7.754629439398198265e+00 1.814293128072401728e+01 3.959586385381474116e+01
-8.285771323730809712e+00 1.855230303004362469e+01 3.906975936278717398e+01
-5.031341446724748145e+00 1.807900046888976320e+01 4.152354064396509159e+01
3.531299391455873238e-01 1.511569944427360213e+01 4.250939859465419346e+01
-1.920839714275032750e-01 1.539402034601359404e+01 4.250716658581416851e+01
2.024999879401153002e+00 1.448029949514968884e+01 4.240549871329660192e+01
3.243723981585731497e+00 1.345341068748516022e+01 4.231841683874073112e+01
-9.649199973953972886e+00 1.775789786889280819e+01 3.733280243620998107e+01
-5.881250705300015369e+00 1.790109999194029555e+01 4.098591125658245460e+01
-9.294471013292287864e+00 1.789145248047898207e+01 3.782498305296559238e+01
-8.418382177640797437e+00 1.872769424334213184e+01 3.884703868420821493e+01
-7.279080348319439508e+00 1.848085264041049669e+01 4.005103020662163971e+01
-3.982915077456760322e+00 1.812016559024425533e+01 4.198766392265144987e+01
-3.312698618072787315e+00 1.792109314209458404e+01 4.220389502640561119e+01
-2.314972398827739308e+00 1.727671138961681407e+01 4.239651987079378159e+01
-1.489387106774672453e+00 1.665900571023313148e+01 4.253079823161620254e+01
-7.436022918565909912e-01 1.604288270006166073e+01 4.261916976309082372e+01
1.468249069649783189e+00 1.469189512470737924e+01 4.244009883232152447e+01
2.548988933536390000e+00 1.429277553618575602e+01 4.242112637185030621e+01
-1.001069653493940237e+01 1.753519171767942453e+01 3.690789747854870484e+01
-9.398375554728147563e+00 1.822924107811622463e+01 3.754985404904741841e+01
-1.033071128308115938e+01 1.691629519723390018e+01 3.661141805883379163e+01
-8.740482237744478411e+00 1.866579209573191633e+01 3.839704858829874468e+01
-9.147142049016537158e+00 1.870135028845013636e+01 3.776726045783823338e+01
-7.721098035350700606e+00 1.874156315712897580e+01 3.959303003794662601e+01
-6.651713884760080298e+00 1.882082193626414224e+01 4.058154845343837991e+01
-5.425500000000000433e+00 1.857420000000000115e+01 4.142250099999999691e+01
-3.026511596038431229e+00 1.822655196097811015e+01 4.230210253001924769e+01
-4.507300221380964977e+00 1.858710002543143958e+01 4.186449817434390042e+01
-4.966781268272331573e+00 1.858064414389082586e+01 4.164331596761863352e+01
9.935708305293109444e-01 1.522376920412965262e+01 4.264466012206914058e+01
3.597600096783618362e+00 1.391750046194777468e+01 4.245240018129971560e+01
3.073063555492470567e+00 1.410522040631364504e+01 4.243675629925991899e+01
3.797267649022801450e+00 1.293483205960142080e+01 4.241810143415793988e+01
-9.836106508469102394e+00 1.794710812790146193e+01 3.683407509294714544e+01
-1.037176047882551266e+01 1.731275013519061901e+01 3.648350125026252044e+01
-7.986617891026834393e+00 1.894604140276084792e+01 3.933003810568262537e+01
-7.024399999999999977e+00 1.894969899999999896e+01 4.027730199999999883e+01
-6.278899212798644491e+00 1.869190046216947465e+01 4.088589967661300051e+01
-5.852147036989012285e+00 1.863304284113311127e+01 4.115423334853253579e+01
-2.361473497602919913e+00 1.779703741175702802e+01 4.243049734785979155e+01
-1.696400257697751712e+00 1.736750025433282119e+01 4.255889895406565415e+01
-1.019656736924935192e+00 1.698773010646607418e+01 4.265664841616113989e+01
3.440048939830571695e-01 1.567164268018338724e+01 4.268084670579577278e+01
-2.045458263031237345e-01 1.613520923081860303e+01 4.273569430845256534e+01
2.149929059497329042e+00 1.495987767359834741e+01 4.266025383841071772e+01
2.574014424948105173e+00 1.456576886679169291e+01 4.252317171633699644e+01
3.774597891371636482e+00 1.343086526473827647e+01 4.245594519999374938e+01
-9.608852248714271127e+00 1.829960777408598460e+01 3.705410483048623149e+01
-1.002289847993387006e+01 1.813619877027833382e+01 3.633565521772348461e+01
-9.357859479133246339e+00 1.877084826164072595e+01 3.727158317604924775e+01
-8.251875355309719495e+00 1.929675089279434985e+01 3.888457288877444995e+01
-7.356255089252271340e+00 1.914480008794142663e+01 3.993348633146571558e+01
-3.691600000000000215e+00 1.865609900000000110e+01 4.217369800000000168e+01
-2.216283070225757434e+00 1.770326624118376202e+01 4.245852837122392032e+01
-5.087502812559201892e+00 1.907088587467153928e+01 4.172375078460667908e+01
-3.427528365566889779e-01 1.660786942144410006e+01 4.275442107364531807e+01
1.634611196270637556e+00 1.533193957497154791e+01 4.278004786599252895e+01
-9.786066109313262373e+00 1.838508410721706809e+01 3.664353013386056546e+01
-1.073299958948951449e+01 1.709020025290445943e+01 3.605889948251572008e+01
-8.896099809786932155e+00 1.917309937991273117e+01 3.798450150426084093e+01
-7.687599917051799459e+00 1.933960115281564285e+01 3.959019899212429294e+01
-8.490715541177140224e+00 1.951942943897953953e+01 3.845334035266788675e+01
-5.838839701360629242e+00 1.909863317931065652e+01 4.131135704773025452e+01
-3.097800124389483489e+00 1.875060212803664328e+01 4.230910106085104161e+01
-4.391077689991254474e+00 1.911540402235840119e+01 4.203679201185443048e+01
-2.163552230802177956e+00 1.782855231737885049e+01 4.247562963154707916e+01
9.815252486131471610e-01 1.596509159958780089e+01 4.287329667231789188e+01
3.123028760504426238e+00 1.465123771966715083e+01 4.264084441351425880e+01
4.084136224049201402e+00 1.372616664312755574e+01 4.256337133911924298e+01
-1.056462941040990700e+01 1.780228707922866960e+01 3.569905449557582244e+01
-9.106867140763780455e+00 1.924244471030818815e+01 3.748882093666821902e+01
-7.157209022168921742e+00 1.952996109686189996e+01 4.023273311592870982e+01
-6.546866780238099537e+00 1.924819293311474766e+01 4.081041710490131180e+01
-6.919547412292962996e+00 1.937665693795661426e+01 4.050604806549534231e+01
-2.630676081617275841e+00 1.828957662534675066e+01 4.239236532179546657e+01
-4.799082636995860796e+00 1.908093273229342302e+01 4.188214327647200719e+01
-1.142911146777510822e+00 1.748752709813818385e+01 4.261303918828610904e+01
-1.216768591162763258e+00 1.789352912407626661e+01 4.257761726502612731e+01
-1.844007621949483866e+00 1.817932425322797840e+01 4.248807919214776518e+01
-1.275145237242326091e-01 1.691810622524792151e+01 4.275968051042193707e+01
3.348800000000000665e-01 1.622759999999999891e+01 4.285229900000000214e+01
2.274999999999999911e+00 1.543999999999999950e+01 4.291529799999999994e+01
1.628096661181025917e+00 1.570261317323352301e+01 4.289429194705365944e+01
4.194786383000014496e+00 1.400823052766922316e+01 4.257305760094707381e+01
-9.568576549279022458e+00 1.884034818205369533e+01 3.677590535033920105e+01
-1.020963872318601595e+01 1.832524012360538634e+01 3.583737054982436376e+01
-9.920247596275091340e+00 1.861418445189773507e+01 3.622363477529191300e+01
-9.317578941728369202e+00 1.931177070528234907e+01 3.699327146497836338e+01
-8.640653782389824400e+00 1.963813538106584744e+01 3.807698183776065548e+01
-6.252600014024084274e+00 1.962359950318480628e+01 4.120009983245697782e+01
-5.666899547622688438e+00 1.955399916387844783e+01 4.158319869885613684e+01
-3.574253254594694784e+00 1.905903740559771364e+01 4.226107237881280554e+01
-2.470909379190039612e+00 1.846496629474827245e+01 4.239858910121031244e+01
-4.109610922148404732e+00 1.916624417973216765e+01 4.216934709810228554e+01
-5.091000000000000192e+00 1.957500100000000032e+01 4.189979900000000157e+01
-1.119545921961729196e+00 1.784923102950868312e+01 4.259149572583513788e+01
-1.598488348858244201e+00 1.825547125993326247e+01 4.248782425893951142e+01
-5.892300000000000315e-01 1.760759900000000044e+01 4.266719799999999907e+01
2.924785442425279491e+00 1.523393710436875281e+01 4.290235267246179518e+01
8.586806340865928977e-01 1.632659552476250653e+01 4.287501319313387427e+01
1.382115005011112174e+00 1.642552112411489418e+01 4.289771149067816225e+01
3.909848931689023033e+00 1.436965892734198214e+01 4.266431307343309953e+01
-7.488724469698261110e+00 1.972469893640894867e+01 3.988923888872776047e+01
-1.039629901029559811e+01 1.851420204395634883e+01 3.533929702153815100e+01
-8.807095572347945378e+00 1.981354114015158530e+01 3.760832095980000389e+01
-8.085399087053184886e+00 1.986569994132451100e+01 3.892210139936099011e+01
-3.526799999999999713e+00 1.929985049999999802e+01 4.234505099999999800e+01
-2.606899931863735365e+00 1.890280002787758917e+01 4.230860099351819770e+01
-3.281349939582162367e+00 1.937594979653111338e+01 4.234480098837239836e+01
-4.527300231185205526e+00 1.967600225938012315e+01 4.216499927761989142e+01
-2.102717793360338927e+00 1.857915025073046777e+01 4.239820853328286177e+01
-1.093953634863590763e+00 1.793159633739986347e+01 4.257749418854994161e+01
6.577208427242271505e-01 1.706613708426235121e+01 4.279376645235652177e+01
1.281718207390908582e+00 1.679517848136546121e+01 4.285710389692631139e+01
2.090095976034328729e+00 1.598235896265187428e+01 4.291784924540505841e+01
3.672648886175101879e+00 1.473680040283364967e+01 4.275864678093230253e+01
-7.644960251092699721e+00 1.993220197736490817e+01 3.958615128222745483e+01
-1.010700081322438493e+01 1.880313256338223482e+01 3.572538642921572460e+01
-1.059677931552714192e+01 1.813568299888628133e+01 3.483628637394188132e+01
-1.072963497834783020e+01 1.764067368270197633e+01 3.498751130717682400e+01
-9.817595669187967999e+00 1.909216928013974268e+01 3.611161737254242610e+01
-9.123282115641339729e+00 1.991710699765835813e+01 3.686512136555124641e+01
-9.528300205413014368e+00 1.938109907509156926e+01 3.649770020321652453e+01
-8.107484290060437360e+00 2.021685982956006100e+01 3.859227796487989082e+01
-8.385243687781919419e+00 2.010310575202273142e+01 3.816944897996153685e+01
-6.814599790447410932e+00 1.980400151427124911e+01 4.073500054202401799e+01
-7.289900214049644056e+00 2.010969942439106006e+01 4.018820142955311780e+01
-4.050784458344092620e+00 1.936752427229914275e+01 4.221303590000182737e+01
-2.033999999999999808e+00 1.913719899999999896e+01 4.225410099999999858e+01
-2.473133222524912966e+00 1.945769925246009180e+01 4.234006764497432584e+01
3.388409766798605727e-02 1.733702460547847934e+01 4.273044563087380254e+01
-7.687878187760293081e-01 1.831461506467184819e+01 4.247697935512337608e+01
-1.381636412026878480e+00 1.851072347946529106e+01 4.242083986324775680e+01
-1.994269809904711588e+00 1.870676270554973186e+01 4.236472016879400826e+01
9.407770800996859695e-01 1.745603632184614185e+01 4.269974093608789900e+01
2.885181759222309683e+00 1.550493139227384809e+01 4.291463201990881515e+01
4.222500195592582273e+00 1.482239959443148969e+01 4.287649887945312344e+01
2.455233863913018233e+00 1.630205781258424480e+01 4.291862470535839691e+01
1.905299999999999994e+00 1.652440100000000101e+01 4.292039900000000330e+01
-1.008843060738321284e+01 1.915001772334614216e+01 3.503492585184638841e+01
-9.873170040025565086e+00 1.923899248757295766e+01 3.559670830699819533e+01
-1.038843410734743422e+01 1.856349514929298650e+01 3.467283058126362505e+01
-1.079769094121728479e+01 1.775634977019307570e+01 3.433219006222689273e+01
-9.612056249615838155e+00 1.951628960899014587e+01 3.590920762013507073e+01
-7.843984854399232098e+00 2.019521643225893470e+01 3.925191576505176272e+01
-2.979150767718432569e+00 1.950075123319606973e+01 4.241030120974335915e+01
-6.550580365244668135e-02 1.776471117203530881e+01 4.262830898229779564e+01
-7.885117610682246259e-01 1.852991277567365458e+01 4.242165075598406077e+01
-1.553060419271701798e-01 1.811830391113399941e+01 4.253317688763516458e+01
-1.653643545710952178e-01 1.822607427984124229e+01 4.250547956500271596e+01
1.422978509071741726e+00 1.699027793841212386e+01 4.281005589608504636e+01
4.584699999999999886e-01 1.792190000000000083e+01 4.258940100000000228e+01
3.573939308012564986e+00 1.502807449723822231e+01 4.288941992749084875e+01
3.495222986409696198e+00 1.556984783008445739e+01 4.291396619320067174e+01
3.005168221938228967e+00 1.607971527625532815e+01 4.291685026558614169e+01
-7.602299999999999613e+00 2.052510099999999937e+01 3.958209999999999695e+01
-1.057537975981266420e+01 1.820808759485649375e+01 3.425244432077030154e+01
-9.297963960488990764e+00 2.006926002764742734e+01 3.616411504366760710e+01
-8.423804173471321377e+00 2.051086995860334738e+01 3.774746693229343464e+01
-8.718200047996459645e+00 2.045319865463619280e+01 3.723260120285856800e+01
-8.129599999999999937e+00 2.056850100000000126e+01 3.826200099999999793e+01
-7.894081208394476690e+00 2.044030411906099332e+01 3.894423067384871473e+01
-1.411255885316573533e+00 1.883355630162569483e+01 4.233787577197364271e+01
-3.955800516942272971e+00 1.984910075705311883e+01 4.238099967759937670e+01
-3.351400236742187566e+00 2.009870038231203893e+01 4.251200031654478551e+01
-2.912266300262438268e+00 1.977819939924748383e+01 4.242603426160443547e+01
-2.375700304162176479e+00 1.978605007757032652e+01 4.238500061651939177e+01
-2.635367489826898613e-01 1.873450843877187566e+01 4.231299882948602686e+01
1.057938710993395537e+00 1.771123511135241557e+01 4.262185332613075417e+01
1.657084497759269137e+00 1.750068392461089317e+01 4.265428809316046710e+01
2.938363738271853709e+00 1.675417683300910454e+01 4.280784352844250407e+01
2.421762046121516576e+00 1.663927385757006050e+01 4.286412873773000598e+01
2.256423623674668200e+00 1.729006254023667921e+01 4.268673412102584308e+01
-9.695945609951722943e+00 1.965169240797696659e+01 3.531978303150772547e+01
-9.483720776636653582e+00 1.996057135439252406e+01 3.561126181746053732e+01
-7.916044162228062397e+00 2.079220542706585206e+01 3.861412631161071118e+01
-1.443844793618958677e+00 1.900296920144770141e+01 4.227373368700818190e+01
-1.562950216698154593e+00 1.923899895316872488e+01 4.228849998417535261e+01
-1.633733315082268156e+00 1.970549932104880142e+01 4.238723266449965621e+01
-8.536907512584757107e-01 1.886873888814501399e+01 4.229336626542090016e+01
-1.091899917898691008e+00 1.934079923622477892e+01 4.232289901195894544e+01
4.105600114897898223e+00 1.563480015289986547e+01 4.291329995085767024e+01
3.555056121448058271e+00 1.585738982179870327e+01 4.291507626277955012e+01
3.779901240796577078e+00 1.625227631783426219e+01 4.283239963016787755e+01
-7.990100995831655339e+00 2.098754615016090241e+01 3.795869795845359818e+01
-8.284423241837458818e+00 2.092977773204093594e+01 3.744411617724924213e+01
-1.019683956010420900e+01 1.896399472618528748e+01 3.438745239666383213e+01
-1.038056795185150705e+01 1.861279194581194929e+01 3.400634089213230027e+01
-1.068540613142464579e+01 1.802004489412278332e+01 3.358403808545933344e+01
-8.892839281237593596e+00 2.060568472253225636e+01 3.653124205707410255e+01
-7.853463030806721257e+00 2.105293966384578397e+01 3.832843635069225741e+01
-2.717399432435777307e+00 2.043490086585151033e+01 4.251589918016940572e+01
3.266174944214967901e-01 1.860027584513469989e+01 4.233263201517289076e+01
-4.421835952142196824e-01 1.908855177608577947e+01 4.233514876525613602e+01
9.829847807188724085e-01 1.812694764633979716e+01 4.248059818669383247e+01
1.506999999999999895e+00 1.833180000000000121e+01 4.237189899999999909e+01
1.993628658448842295e+00 1.796630332249141304e+01 4.246677092972930723e+01
2.480170139770556670e+00 1.760087174996050052e+01 4.256162599467899810e+01
2.855719736105878148e+00 1.707945770130280749e+01 4.271917731659746664e+01
3.454600000000000115e+00 1.686899899999999874e+01 4.275159800000000132e+01
-8.491587046153219021e+00 2.100066000236171249e+01 3.693439974923978752e+01
-7.850699999999999790e+00 2.140630000000000166e+01 3.765560200000000179e+01
-9.977475722386941470e+00 1.941221337068405006e+01 3.426655740215363721e+01
-9.779899849800878897e+00 1.978720099673304489e+01 3.472989901814287350e+01
-1.017528114062151978e+01 1.903678925340431505e+01 3.380267167056478428e+01
-1.037269980331582353e+01 1.866210025474936884e+01 3.333969891275494746e+01
-9.689476482646229627e+00 1.978523421350569578e+01 3.413879816741659567e+01
-9.879298811051885565e+00 1.943764358311372931e+01 3.375231304749810590e+01
-9.067399024018895304e+00 2.075810218880898717e+01 3.583019940250909485e+01
-9.304837314012086580e+00 2.043455302779407390e+01 3.546352921992488660e+01
-9.542539274746509648e+00 2.011064454424461445e+01 3.509645152456069184e+01
-7.702400187762346029e+00 2.101600080331542486e+01 3.896639969040353435e+01
-2.175566518300090291e+00 2.007020080446174504e+01 4.245156618353894373e+01
2.075313414946384771e-01 1.883630674399294236e+01 4.234739864821010258e+01
2.967459892072100480e+00 1.723487962236072946e+01 4.265662642573355612e+01
9.167705116450814984e-01 1.846604729578258031e+01 4.235226397226271899e+01
2.190781094212625124e+00 1.812834777282795073e+01 4.237641967168554658e+01
-8.057738129249784720e+00 2.147727878887848973e+01 3.714600378703939043e+01
-9.940835364503035620e+00 1.922145991210300053e+01 3.314813272388371956e+01
-1.424400031401838795e+00 1.984779962962361211e+01 4.233213302379159160e+01
-1.756900166958528464e+00 2.035479925458037442e+01 4.234136700463667324e+01
-2.089399999999999924e+00 2.086179900000000131e+01 4.235060099999999750e+01
-4.082496562661425688e-01 1.922436586253152413e+01 4.230378233849575054e+01
8.572479681503755167e-01 1.858406024486676600e+01 4.235964849033797464e+01
4.069215826113806500e+00 1.659615051926327212e+01 4.271727680437069807e+01
2.874502330646973469e+00 1.792491415554346190e+01 4.238093976432523391e+01
-7.577200000000000379e+00 2.153760000000000119e+01 3.839490099999999728e+01
-8.264899993203542294e+00 2.154830000712723503e+01 3.663610099607578263e+01
-8.666163855870589572e+00 2.115318685651703134e+01 3.623313658540813975e+01
-9.599009482011160443e+00 1.978326648121396403e+01 3.354741208303659761e+01
-9.351733509158400182e+00 2.031359428140568824e+01 3.450288976652326056e+01
-8.687698283322630388e+00 2.122060259102561020e+01 3.559774844905843594e+01
-8.995608259709429788e+00 2.079889668684934279e+01 3.505319587298784256e+01
-8.923799999999999955e+00 2.083970100000000159e+01 3.427600100000000083e+01
-9.411712930218049777e+00 2.011009812100881788e+01 3.391172700146373842e+01
-1.062659939213689508e+00 2.023059859493537616e+01 4.235889996630576348e+01
-5.639100668384148252e-01 1.947010146761243377e+01 4.234504907536109641e+01
2.753997447870289439e-01 1.910793271013226047e+01 4.228466567380309726e+01
3.945244219387372908e+00 1.701761673829327037e+01 4.263249829310680639e+01
3.558224125416806771e+00 1.772147762313177921e+01 4.238546070459501180e+01
4.435680510535808807e+00 1.716617090986263605e+01 4.251344920531763449e+01
1.642700405465213453e+00 1.887506571797527855e+01 4.224643243935503278e+01
9.590497353270777126e-01 1.899149954507673144e+01 4.226554900740095633e+01
2.258515656617305467e+00 1.848700204979812511e+01 4.229004756602631687e+01
-7.826451570742015917e+00 2.184373213225044452e+01 3.690953020189485301e+01
-7.619644939475520573e+00 2.177231149437371016e+01 3.741950078885624009e+01
-9.508600196684179551e+00 1.978129974525062806e+01 3.295640208724505982e+01
-9.672663536387883454e+00 1.936652518494435071e+01 3.244071594610261400e+01
-7.911407448681251786e+00 2.191899655566625071e+01 3.643199756169612158e+01
-9.118588182979404877e+00 2.048716336721343367e+01 3.383646219789425658e+01
-9.313575398301340513e+00 2.013426506065702881e+01 3.339647304987121146e+01
-8.615821888032609621e+00 2.126150757831258531e+01 3.482078968584127665e+01
-5.492899665807923215e-01 1.991499876619378284e+01 4.236304946231945223e+01
-1.576029893941741866e+00 2.054620041409247122e+01 4.235474997880942993e+01
-3.591992206606414023e-02 1.959939861615749734e+01 4.236719876703661924e+01
3.648558435206744388e+00 1.819967237115389835e+01 4.227029886615643761e+01
4.241970004644853631e+00 1.751803702321796408e+01 4.238998066614355764e+01
2.326349598761432436e+00 1.875863323500203705e+01 4.222731567788635942e+01
3.009999999999999787e+00 1.864219999999999899e+01 4.220819900000000047e+01
1.182447521381007727e+00 1.921652015040910300e+01 4.230359902498437918e+01
-7.249200153186572848e+00 2.205040013159329604e+01 3.791159706923708228e+01
-8.286449440002046529e+00 2.161570042306996342e+01 3.600070085850563117e+01
-9.306788736299944631e+00 1.972865709891090447e+01 3.237035967756147414e+01
-7.388099999999999667e+00 2.213909900000000164e+01 3.718289899999999903e+01
-8.949383313047761135e+00 2.048379064660387883e+01 3.338088801876033074e+01
-8.756660382179932256e+00 2.080717269927164992e+01 3.374702024699983127e+01
-8.308000235284838553e+00 2.168309971340763553e+01 3.536529914404023600e+01
-8.381703156810235811e+00 2.124972120440667211e+01 3.411399160051426804e+01
-8.965425531714201313e+00 2.026172164147012467e+01 3.282259547244062503e+01
-8.589381672025819370e+00 2.077461712516728198e+01 3.321759866667872529e+01
-1.158576694799307027e+00 2.092649452764249673e+01 4.208763792566563922e+01
-1.533000477511222703e+00 2.136910083543140715e+01 4.199439992567042168e+01
5.732640096617125369e-01 1.940795946512100301e+01 4.233539890994099864e+01
4.287118489415354006e+00 1.775714394706242416e+01 4.233239875314927048e+01
1.791631796784316055e+00 1.902508006386183936e+01 4.227179901060805634e+01
2.400816000000000727e+00 1.883364000000000260e+01 4.223999899999999741e+01
-7.473154045640836074e+00 2.221434681449636273e+01 3.670514642309209563e+01
-8.073778402887034744e+00 2.167166411408922500e+01 3.465939107233491256e+01
-8.941571403571323629e+00 2.001792745826219999e+01 3.220207083248050850e+01
-8.422300265247359974e+00 2.074209976539660971e+01 3.268880106534148666e+01
-8.582382770610296419e+00 2.036943990079894107e+01 3.219206442926778067e+01
-7.843409220749130162e-01 2.048410967587183151e+01 4.218082917876316884e+01
-4.101369121815782171e-01 2.004176249479296246e+01 4.227401246979160732e+01
-9.841237058890954792e-01 2.105173626105306894e+01 4.202417584581039733e+01
6.230032587998324267e-01 1.951237789622032537e+01 4.230986479965598335e+01
6.623999772277195941e-01 2.009970101316713809e+01 4.211349899876461933e+01
1.133678860030792324e-01 2.041715629994884296e+01 4.208371437043594909e+01
4.215506633095721156e+00 1.837213347200651725e+01 4.208905362860163279e+01
4.925699999999999967e+00 1.731459999999999866e+01 4.239450099999999821e+01
4.818737227651146426e+00 1.823699362321718453e+01 4.202943372911189357e+01
3.612725867888799236e+00 1.850717414415029083e+01 4.214862886963837951e+01
3.532374754821105967e+00 1.875803903323564015e+01 4.212743108338506204e+01
3.259149729011339147e+00 1.916422843979215074e+01 4.208048876516760117e+01
2.600093664336166732e+00 1.925126924031136255e+01 4.213783430005621256e+01
1.940850933429041802e+00 1.933833384799060795e+01 4.219519619665538102e+01
1.281927636747612009e+00 1.942535695505548432e+01 4.225253007523578219e+01
-9.473625957428286171e+00 1.934843161644260690e+01 3.193606972752642292e+01
-7.933093905434587256e+00 2.198626399631733719e+01 3.579659949019038834e+01
-7.558099999999999596e+00 2.228949899999999928e+01 3.622800099999999901e+01
-8.397186326801975298e+00 2.105496432009963570e+01 3.356695637144028410e+01
-9.105023984499551304e+00 1.967602576048695084e+01 3.178445109886780529e+01
-8.135525460085821337e+00 2.066781643349882458e+01 3.214709658559934979e+01
-8.227987922826871525e+00 2.104794186562171276e+01 3.310953700801686495e+01
-7.758696486363927391e+00 2.113122614529074283e+01 3.258724587304234888e+01
-4.352295914080120953e-01 2.073435917375941528e+01 4.205395367934664108e+01
2.158035380198362052e-01 2.055570082221647965e+01 4.194851090604701227e+01
1.314371768054892087e+00 1.991494775102597359e+01 4.208889172745396223e+01
1.327487726293446801e+00 2.003259816156730011e+01 4.202069474563319318e+01
1.966186180886479118e+00 1.973023909276917465e+01 4.206429039394249259e+01
-6.755199996617533564e+00 2.252129905980647706e+01 3.754339974999479779e+01
-7.152144377389644703e+00 2.248582679365122061e+01 3.654936799535398251e+01
-7.397624076785015212e+00 2.233961025497653452e+01 3.564610091354765586e+01
-7.772698336201302460e+00 2.203628565073744383e+01 3.521437001870611994e+01
-7.839000000000000412e+00 2.166019999999999968e+01 3.395180100000000323e+01
-8.033554434870888272e+00 2.135397608296819527e+01 3.353053886478242873e+01
-7.590818619297047931e+00 2.161369738422838438e+01 3.346303870213207432e+01
-7.214756651539845578e+00 2.200405100610742082e+01 3.385208535304975896e+01
-7.537979471978070833e+00 2.202496399010286865e+01 3.450749737614125934e+01
-8.742666347561847573e+00 1.999631234022919912e+01 3.169470475679290189e+01
-7.682794577628989430e+00 2.089583696913792821e+01 3.200090818493304567e+01
-7.250240098434699298e+00 2.118660429943843582e+01 3.201094093850358746e+01
-7.342781773910178167e+00 2.156722156811346025e+01 3.297456035619727999e+01
-6.769233503978253630e-01 2.146722317547749626e+01 4.161870791469609543e+01
7.317767794363050360e-01 2.058989840164790408e+01 4.171626018218105258e+01
4.055125980552741538e+00 1.887396155064794812e+01 4.204660495804002807e+01
4.578399746621300892e+00 1.898999985225423970e+01 4.196569805063361969e+01
3.918402480624332718e+00 1.907716278400559773e+01 4.202312590204844867e+01
3.272746593285085659e+00 1.935999103449564274e+01 4.201497708048158586e+01
2.619214855074222470e+00 1.954518558319972854e+01 4.203964347776341270e+01
1.225739448387169750e+00 2.050446805263963057e+01 4.167507832778490950e+01
-6.746099514356402871e+00 2.268219920115033972e+01 3.687080034440352705e+01
-7.074994522605772218e+00 2.257593061652202948e+01 3.610071901701996211e+01
-7.168415025866792689e+00 2.181765455682480948e+01 3.332517291189638797e+01
-8.295584859718042381e+00 2.029489063045857478e+01 3.164981483033628962e+01
-7.848505776409330004e+00 2.059346936710335996e+01 3.160492910548078171e+01
-7.094500151135685329e+00 2.152069991137653204e+01 3.248560002312917305e+01
-2.302102737303437507e-01 2.101110786645993400e+01 4.178373644991167168e+01
-1.123299999999999965e+00 2.192299999999999827e+01 4.145380000000000109e+01
1.596056365327841453e-01 2.136102353069299298e+01 4.136400335195349243e+01
5.091422751188616758e+00 1.870016717369848180e+01 4.193687993108969891e+01
5.422272051870503873e+00 1.810178370657578739e+01 4.196978436237240828e+01
3.925622112061967428e+00 1.917498308843869381e+01 4.199033491444268407e+01
3.321770218289466836e+00 1.983138645983782311e+01 4.174242048565317731e+01
2.656655340260953846e+00 1.989849300464493354e+01 4.183522777496489198e+01
1.936648573295067566e+00 2.033993598213720944e+01 4.164822141620046381e+01
1.991988491765613656e+00 1.996555347803426272e+01 4.192797322445214547e+01
-6.914339257485096368e+00 2.262616384353860965e+01 3.551895909470684387e+01
-7.236900497729831017e+00 2.238979885515854207e+01 3.506330293162150724e+01
-6.913578657315532006e+00 2.236878476832932705e+01 3.440740148373852492e+01
-6.758628125580880663e+00 2.207210848077735932e+01 3.333014722687223497e+01
-6.590700091545972583e+00 2.234779894957388535e+01 3.375239901462344250e+01
-7.405824927781932132e+00 2.085284146234825187e+01 3.153675467530698384e+01
-6.739612397007821443e+00 2.145791398778878190e+01 3.198734400401801992e+01
-6.143000491271322083e+00 2.293199886201490401e+01 3.729849916470698190e+01
-6.669313660004072553e+00 2.277208343155246695e+01 3.642227948752243805e+01
-6.592499454866120878e+00 2.286200007579473947e+01 3.597359982159010627e+01
-4.816956981666444260e-01 2.164194565263155567e+01 4.140889085884384713e+01
-3.497436320965835455e-01 2.201108211372274326e+01 4.095473105092479216e+01
8.011399154146975343e-01 2.107999940234332215e+01 4.131909948432005564e+01
5.603771996266559086e+00 1.841071582071657886e+01 4.190809957305933864e+01
3.987609790663148246e+00 1.976420656294440903e+01 4.164951210998542308e+01
2.737368685175697536e+00 2.045840469346874357e+01 4.138117420626791443e+01
1.447414794720903508e+00 2.087252344795069803e+01 4.133981874538009293e+01
2.092554173418497143e+00 2.066541226417950483e+01 4.136050141828110327e+01
2.734424356110345844e+00 2.098584298237283008e+01 4.089101582124395406e+01
2.090626268226299267e+00 2.101719797043635296e+01 4.103357070773409276e+01
-6.926442773564716937e+00 2.179660306456410623e+01 3.290817786103809084e+01
-6.335359357978531669e+00 2.290352139943918175e+01 3.678149116305693411e+01
-6.258525220521686805e+00 2.299342942804267764e+01 3.633297946822802515e+01
-6.066327403291820630e+00 2.310358080252962054e+01 3.591195557527624516e+01
-6.317408791620529485e+00 2.267220826855296423e+01 3.431938972784148945e+01
-7.561400885800998672e+00 2.051910022945013878e+01 3.106260067323888308e+01
-6.895285321987944194e+00 2.112398545458449561e+01 3.151293389104066378e+01
-8.008592873736994022e+00 2.022048283332037144e+01 3.110756863537830341e+01
-6.318336965351074141e+00 2.292921595564540027e+01 3.542967495679432943e+01
-6.640188787184895247e+00 2.269330915857459985e+01 3.497459036666031551e+01
-9.256498556662684507e-01 2.247699940509983918e+01 4.077239930139678137e+01
2.255971837287196746e-01 2.154562276755607897e+01 4.113688304895054415e+01
5.189620239935921475e+00 1.889975848555128835e+01 4.182525844482815813e+01
1.446291026455014173e+00 2.104857952005705357e+01 4.117624416822692268e+01
3.382151064907912730e+00 2.025140793747425505e+01 4.140184557495402373e+01
7.242678130042750073e-01 2.148998303032889723e+01 4.096396371421381133e+01
-6.427795463491190020e+00 2.203083901093946295e+01 3.287238910503548794e+01
-6.595809018273254942e+00 2.175517677808847594e+01 3.245029429412656441e+01
-6.259779232123274362e+00 2.230650181894771578e+01 3.329448228029718138e+01
-6.241010555024510964e+00 2.169226282845706066e+01 3.195186732749347414e+01
-6.097385812105398983e+00 2.198952774010426836e+01 3.241500773975567995e+01
-5.929163845950019329e+00 2.226524168871060638e+01 3.283698567628199783e+01
-5.452099999999999724e+00 2.327809900000000098e+01 3.717860000000000298e+01
-5.924699999999999633e+00 2.312480000000000047e+01 3.669219999999999970e+01
-5.487958607047712434e+00 2.330376080137916261e+01 3.666892962546814516e+01
-5.732017919426844799e+00 2.323516109828937104e+01 3.627134884783264113e+01
-5.888113996550065288e+00 2.265513036326878193e+01 3.369793558129008204e+01
-7.050630126204392667e+00 2.079025684904725679e+01 3.103855767090960782e+01
-6.384745197194538591e+00 2.139513158526758474e+01 3.148911665374284041e+01
-6.044300073625342939e+00 2.299640118865643501e+01 3.488600394956840489e+01
6.474918381306606907e-01 2.189945308466883489e+01 4.060927276523918295e+01
1.271535253340750016e+00 2.165161727069317976e+01 4.067029228187808343e+01
4.653173134712504933e+00 1.969705587328248342e+01 4.155664153211542811e+01
4.948216791987519514e+00 1.931010040758235391e+01 4.171472082007360171e+01
5.801144668180388209e+00 1.880946879762796087e+01 4.168475044202159552e+01
1.915503454170277564e+00 2.146073555948741429e+01 4.067383507409359567e+01
3.295705614970732444e+00 2.061999769382540748e+01 4.108181952123500480e+01
4.027875198169500237e+00 2.004410911944024676e+01 4.142254684435096124e+01
3.747173081315669840e+00 2.055086841488130034e+01 4.102573160406267760e+01
-5.614986828842191358e+00 2.297934560104235047e+01 3.426458795382064437e+01
-5.742408421770930360e+00 2.192661194592350782e+01 3.191639091846693432e+01
-5.598700000000000010e+00 2.222400100000000123e+01 3.237969999999999970e+01
-5.392200036779533079e+00 2.259332902411110666e+01 3.301190709516910715e+01
-5.185900000000000176e+00 2.296229900000000157e+01 3.364350100000000054e+01
-5.160494526844830787e+00 2.346499852908127082e+01 3.532468441284650140e+01
-5.791959389710491735e+00 2.317085597837840183e+01 3.536770387710547681e+01
-5.539200000000000124e+00 2.334560000000000102e+01 3.585020099999999843e+01
-4.987166656668279074e+00 2.357445527985921174e+01 3.584224907921817760e+01
-5.295442241240427172e+00 2.341404479711836828e+01 3.624820758780320773e+01
-5.051999943159333206e+00 2.348240101210081221e+01 3.664569908957933109e+01
-4.743718992824025982e+00 2.364279037885734525e+01 3.624002675838706722e+01
-4.595359088062648922e+00 2.363296544080580119e+01 3.668552808674620280e+01
-4.709099772885596558e+00 2.355540109082189204e+01 3.718609981672476295e+01
-5.412600892279196607e+00 2.329062904787739186e+01 3.484275948850863358e+01
-4.782099999999999795e+00 2.358429900000000146e+01 3.479959900000000061e+01
-7.702578698722342132e+00 2.014400072302345990e+01 3.053299566062109349e+01
-6.540136780805834604e+00 2.106126689505725125e+01 3.101452935768122288e+01
-1.769123285411012825e-01 2.239288809499383603e+01 4.051330897738920100e+01
5.317800593290564315e+00 1.962999875623134827e+01 4.146390193287045633e+01
4.370436326007800076e+00 2.046159805200862536e+01 4.094256272006876429e+01
2.326028165838823991e+00 2.170167204078747147e+01 4.034389433552066606e+01
3.377788405423078899e+00 2.095450913335038123e+01 4.074855704302196813e+01
4.673054499282866203e+00 1.983698416620364213e+01 4.144323161906799413e+01
2.911359327792194307e+00 2.149918336148610720e+01 4.037367040154268949e+01
-5.885985858464405140e+00 2.162949368725399069e+01 3.145350363115503356e+01
-5.056860584399596625e+00 2.241627460360493629e+01 3.236649638386337813e+01
-5.199634003222382006e+00 2.211337313067356547e+01 3.190938326845307671e+01
-4.845780505643115355e+00 2.267311989561104468e+01 3.275297830895318185e+01
-4.781805431157084563e+00 2.290839116427082800e+01 3.320896781856365720e+01
-4.657852661419406459e+00 2.230566798348332469e+01 3.189625723529840684e+01
-4.669500292777231110e+00 2.315677476701306503e+01 3.363549779250856631e+01
-4.983934068106372628e+00 2.327340055928141993e+01 3.422173876604843912e+01
-4.466605595699574494e+00 2.337790838534206372e+01 3.399032294486305261e+01
-5.343250624067548138e+00 2.181617502255959096e+01 3.144637197579147170e+01
-4.944333654994558458e+00 2.170558948677266642e+01 3.097623279453837952e+01
-5.486868458049068309e+00 2.151897857865728270e+01 3.098336460416840765e+01
-5.113619493963541984e+00 2.134822398024384071e+01 3.049336767328562914e+01
-6.029599752857825123e+00 2.133230027885222313e+01 3.099049936042555942e+01
-5.656146596998288700e+00 2.116167526771140928e+01 3.050059594495839121e+01
-4.608764300093054267e+00 2.369374072725162961e+01 3.531691086465716722e+01
-4.286853636538799250e+00 2.379345401904061319e+01 3.627968918098098783e+01
-4.435399940927751139e+00 2.380319988979956847e+01 3.583430196005882351e+01
-4.138199936347371377e+00 2.378370087533728139e+01 3.672539995656462253e+01
-7.206546656966361653e+00 2.041332104654777169e+01 3.053867341788421186e+01
-4.600003855968075595e-01 2.275785022922577383e+01 4.009833061890539341e+01
-9.759899554844463365e-01 2.298259855289900955e+01 4.002010066525726728e+01
1.155281765868596544e+00 2.210667723782490413e+01 4.028433906861839375e+01
1.740380013067655884e+00 2.190427037946837885e+01 4.031410214402962566e+01
-3.935499813516443623e+00 2.375120020179921809e+01 3.732429790829580440e+01
5.902862602569992845e+00 1.939393217400661129e+01 4.139578902060012666e+01
5.101097665919450463e+00 2.005037687256165313e+01 4.113041863148284705e+01
-4.800701511768175500e+00 2.200278252042506111e+01 3.143922433369660041e+01
-4.377773061475641825e+00 2.285449206157819901e+01 3.277450242630489186e+01
-3.973799493030101271e+00 2.280060011635590556e+01 3.234009901859809588e+01
-4.515002701004139141e+00 2.260855225437180493e+01 3.235328721362970583e+01
-4.116386929132214156e+00 2.249797184052047783e+01 3.188335984071739659e+01
-4.337747187486673539e+00 2.309180750847208330e+01 3.323571798937437194e+01
-3.805550000000001098e+00 2.317304999999999637e+01 3.297979899999999986e+01
-4.153271977817871274e+00 2.335118483136333012e+01 3.362749466082285466e+01
-4.400619804070261765e+00 2.357136921498681659e+01 3.440635374061345431e+01
-4.571091704135484157e+00 2.153477337142630788e+01 3.048614011002550583e+01
-6.185392448441630719e+00 2.095576006846319217e+01 3.049117792009666417e+01
-4.093272108162565814e+00 2.383124107431117977e+01 3.481774841748834604e+01
-6.695969171809320386e+00 2.068453980826831895e+01 3.051492401049111081e+01
5.707197748915263658e-01 2.230889956854923994e+01 4.025460246345217996e+01
-4.209499200597000002e-01 2.312850558990823302e+01 3.965183607931062681e+01
-5.672749168008641707e-01 2.333555066121054011e+01 3.927754970356666320e+01
-3.656194543071936476e+00 2.389239535445971896e+01 3.683099542617822664e+01
-3.692432378663355053e+00 2.397954611052146134e+01 3.633651064681377818e+01
5.892179996559011812e+00 1.957656396118430209e+01 4.126437019568481901e+01
4.022051219679437573e+00 2.092313143902821793e+01 4.060589932072725361e+01
2.173998218329054488e+00 2.205574684848210509e+01 4.001218687487478576e+01
3.495899552736116966e+00 2.129696829787593160e+01 4.040340623223444538e+01
4.884309618932313413e+00 2.047092101840999945e+01 4.079680335931575996e+01
4.667399999999999771e+00 2.089170100000000119e+01 4.046300099999999844e+01
2.701524030715905855e+00 2.191111386582318232e+01 3.999833934861825924e+01
-4.259015986576955015e+00 2.219524844203495206e+01 3.142647518635564907e+01
-4.401799999999999713e+00 2.189219999999999899e+01 3.096910099999999844e+01
-3.830465568642320573e+00 2.201998916442462217e+01 3.097450199025669448e+01
-3.687961735560882914e+00 2.232282485231209890e+01 3.143162107444734588e+01
-4.012735512765617685e+00 2.166180193117807562e+01 3.048423770194596827e+01
-3.545458357986527531e+00 2.262565823709814339e+01 3.188873645177085692e+01
-3.410580908028086888e+00 2.292986579643619294e+01 3.236076058625013729e+01
-3.116856748134267718e+00 2.245061029906047523e+01 3.143709996392281170e+01
-2.982022386832836602e+00 2.275481582983117335e+01 3.190913595440818895e+01
-3.220294635453722965e+00 2.317894970808215760e+01 3.275755550666063698e+01
-3.185864203884475110e+00 2.342643747735738913e+01 3.321348726333093282e+01
-3.637299627934444057e+00 2.354550008299564112e+01 3.361949903098597048e+01
-2.847322744682132090e+00 2.305914043719625184e+01 3.238142339550534388e+01
-3.441454062200622666e+00 2.178966060956661011e+01 3.048976338782734885e+01
-4.018741914835370466e+00 2.355842781658347107e+01 3.401270317661432330e+01
-3.159300116931725189e+00 2.385049998504081259e+01 3.760219995813522331e+01
-2.707069454246993523e+00 2.395818396173529052e+01 3.744942346365009911e+01
-3.173700000000000188e+00 2.400120000000000076e+01 3.693669899999999728e+01
-2.419500000000000206e+00 2.383359899999999953e+01 3.802600100000000083e+01
-2.714324426430262172e+00 2.403354133842377038e+01 3.711660251807763444e+01
-2.254700000000000149e+00 2.406590100000000021e+01 3.729659999999999798e+01
-1.889346946370827673e+00 2.391304983314814336e+01 3.792740027752849130e+01
-1.768799999999999928e+00 2.368409899999999979e+01 3.859049999999999869e+01
-3.210422269970459652e+00 2.408825189614433526e+01 3.644205509935776632e+01
-2.605042852621714644e+00 2.417918353597039172e+01 3.658678356831990186e+01
-3.919685384358233549e+00 2.394075674450714786e+01 3.533489217004270699e+01
5.566574706683463658e-02 2.253324235687528088e+01 4.017651219384559624e+01
-1.268599999999999950e+00 2.339669999999999916e+01 3.927150000000000318e+01
1.340500000000000025e-01 2.327440100000000101e+01 3.928359999999999985e+01
1.219305417668993474e+00 2.234691502197483004e+01 4.000563499428043457e+01
3.523838123125213606e-01 2.279165346709866213e+01 3.976909804448652608e+01
9.798296408460849261e-01 2.272938192921642653e+01 3.964203664895015322e+01
1.868970685270611387e+00 2.238499252709081588e+01 3.975625425629166898e+01
-3.840769632083514296e+00 2.398935008988136630e+01 3.589119968931308335e+01
-1.138982225328126541e+00 2.372519427426735206e+01 3.854990440658516349e+01
5.618552913945031868e+00 1.988997765013801455e+01 4.106531847995822204e+01
5.470273430036487916e+00 2.024491092487738797e+01 4.076840648974391002e+01
3.282751192018167785e+00 2.174473818215490439e+01 3.999062511022511757e+01
5.253928979842511282e+00 2.066537652903448219e+01 4.043467518741638145e+01
-3.259081524808286723e+00 2.214778898805071350e+01 3.097990271359025982e+01
-2.734741063684879681e+00 2.330745741517181457e+01 3.280775672273116328e+01
-2.553355052313611484e+00 2.257970804361442418e+01 3.145737379298238068e+01
-2.688099758640697168e+00 2.227549903357470029e+01 3.098530001192207450e+01
-2.732989963759264729e+00 2.354480127027202485e+01 3.328620991896692516e+01
-2.165064739139341388e+00 2.354425687001122824e+01 3.307668442138874099e+01
-2.283700000000000063e+00 2.318849900000000019e+01 3.240209999999999724e+01
-3.520895849800123489e+00 2.381174463034488653e+01 3.422745953371888561e+01
-2.145637236095180533e+00 2.421151754189050820e+01 3.676673798884205979e+01
-1.806822679837362777e+00 2.402919006401199553e+01 3.756277566699112924e+01
-1.534909070371681450e+00 2.422012641088724294e+01 3.701120155117636301e+01
-1.359199999999999964e+00 2.399249999999999972e+01 3.782880000000000109e+01
-1.087280836824565000e+00 2.418339941251173286e+01 3.727735119707018185e+01
-3.247099705990962981e+00 2.417519973345054751e+01 3.594800370113292587e+01
-2.641849951715512290e+00 2.426614982976563795e+01 3.609250194312686233e+01
-3.404399999999999871e+00 2.407819900000000146e+01 3.483589899999999773e+01
-1.874184865314520443e-01 2.352031109432746803e+01 3.889651202861205803e+01
7.403526493279053433e-01 2.311184454931885313e+01 3.927844361339561630e+01
-8.888554988905421617e-01 2.358147056332862235e+01 3.889046070517024845e+01
6.438330666562446236e-01 2.340227507040066257e+01 3.892189974340976732e+01
4.081216160818778249e+00 2.109448539546118795e+01 4.043318076038741538e+01
6.228675178411565483e+00 1.992063317491127350e+01 4.076408821442647934e+01
5.225753917865501919e+00 2.087263404538968814e+01 4.020326039772211857e+01
3.083725621487812596e+00 2.207081310258401530e+01 3.970408625277605807e+01
-3.106942633688650535e+00 2.366380536097039666e+01 3.366366766815603739e+01
-2.418586181244269273e+00 2.288397143631699393e+01 3.192953197852811797e+01
-1.687913444332022728e+00 2.327653485921202048e+01 3.246776852027414861e+01
-2.046299824093567921e+00 2.390040002268890618e+01 3.375199903240269350e+01
-1.529381408591593106e+00 2.375105380679599421e+01 3.336749391851029145e+01
-2.576679925066598376e+00 2.378208960691003426e+01 3.370782845312927378e+01
-1.524992442836352380e+00 2.350917205775587249e+01 3.289363540727911328e+01
-2.036599999999999966e+00 2.435709999999999908e+01 3.623700000000000188e+01
-1.425980679815789465e+00 2.436569999042544410e+01 3.648144922784935318e+01
-3.325750018469610936e+00 2.412669957991657199e+01 3.539195246682380258e+01
-2.678399999999999892e+00 2.421854950000000173e+01 3.494590000000000174e+01
-2.951829813806232217e+00 2.401894966156022093e+01 3.447470260443603252e+01
-9.340387120217619188e-01 2.387938502447551059e+01 3.816909505236258582e+01
2.518996044800804857e+00 2.242309047113459286e+01 3.950673603799315714e+01
2.151092291545627644e-01 2.373027947127323856e+01 3.840557183327089774e+01
3.917141423038831949e+00 2.167672337510785852e+01 3.986015305216774607e+01
3.167500155010311236e+00 2.246110037952103866e+01 3.925780025751900126e+01
3.541996442532148404e+00 2.206925098178977862e+01 3.955871646939112196e+01
4.292255065410561343e+00 2.128422857973876603e+01 4.016156442766921941e+01
4.762525749807652531e+00 2.118816030143061724e+01 4.004308556899286486e+01
-1.943580666298333925e+00 2.266448234189872579e+01 3.148741336178983019e+01
-1.808584890848673687e+00 2.296867823502191541e+01 3.195942121707835781e+01
-2.078577699004630741e+00 2.236028764978142647e+01 3.101540768764284195e+01
-2.499175659725711096e+00 2.395968933025813641e+01 3.411343919407752878e+01
-1.486646300908169627e+00 2.397258570237803355e+01 3.385508953681099342e+01
-1.999334520685475791e+00 2.412972558323439287e+01 3.440416494684948390e+01
-1.092365818539185351e+00 2.336453395082496343e+01 3.253340784526607621e+01
-1.013172013807658312e+00 2.360191251203800888e+01 3.298351636632677497e+01
-8.153600003938665797e-01 2.437430011665727037e+01 3.672589704542776445e+01
-7.635604009042161744e-01 2.406226622595404763e+01 3.768233359689955364e+01
-2.599750114685999147e+00 2.426704998372764521e+01 3.550195157902331999e+01
-1.994500163912070523e+00 2.435799997580133436e+01 3.564645050869953735e+01
1.346818411369221424e+00 2.294924457357629066e+01 3.927328560146205660e+01
1.176434269617149031e+00 2.323513990091288051e+01 3.895024781433215111e+01
-5.089900831991359675e-01 2.376629983878945751e+01 3.850930029643334507e+01
5.839448112738497620e+00 2.043944283845474175e+01 4.040639701082873358e+01
2.561570212391290902e+00 2.262355637877398706e+01 3.926295433451697647e+01
1.954440271129620710e+00 2.278633510124788231e+01 3.926811710694769175e+01
5.214944088026442159e+00 2.127997439923601064e+01 3.969817737374848576e+01
4.597876445090269826e+00 2.152699172825838758e+01 3.970202332583865257e+01
1.745792288094192291e+00 2.316652507128580751e+01 3.883188706206306051e+01
-1.213115007539914192e+00 2.305675912685566686e+01 3.202521133621847582e+01
-1.334154658958105033e+00 2.274917571096512248e+01 3.151738278788222658e+01
-1.469288434129507159e+00 2.244504388267186457e+01 3.104550386433898979e+01
-1.952400003043550436e+00 2.435890000635754760e+01 3.505590296825859298e+01
-9.704088147874427861e-01 2.382330050054345350e+01 3.347078953268460566e+01
-1.376167543918199065e+00 2.412474821524181223e+01 3.427293952475051952e+01
-4.025458736007969662e-02 2.398422636298243305e+01 3.794889519102449782e+01
-1.511054601882284576e+00 2.439208427168503590e+01 3.598531142332465294e+01
-6.373977299569033583e-01 2.441817911840854549e+01 3.610403930718643295e+01
