2.128740374412566894e+01 -8.702667062183946811e+00 3.972559278792435578e+01
2.184658827239087486e+01 -7.519012214436078700e+00 3.959100932214612811e+01
2.111969430193287778e+01 -9.050969050078952804e+00 4.097000412842881900e+01
2.180217890281881665e+01 -7.735270397436515566e+00 4.220857290661607664e+01
2.093571330262082952e+01 -9.053490266408337206e+00 4.185549299715574278e+01
2.139146009062040221e+01 -8.278829428055489714e+00 4.232367135153040039e+01
2.099078115466641492e+01 -9.179835497177457171e+00 3.997495521842736821e+01
2.146820206083626559e+01 -8.213624584365565084e+00 3.902768137776001822e+01
2.084647274882790668e+01 -9.516355802758541316e+00 4.068923716468871277e+01
2.140966524504419510e+01 -7.759167338306570905e+00 4.272442885153410685e+01
2.098034510445820544e+01 -8.822911998529411548e+00 4.243888002615152999e+01
2.097474272076171786e+01 -9.099516288180724999e+00 3.938566309294989054e+01
2.089110015513923457e+01 -9.284038699639049597e+00 4.127243973384495490e+01
2.063487566843921428e+01 -9.218440318849026482e+00 4.214686721615828446e+01
2.119506292938589809e+01 -8.290817131186297928e+00 4.258166807385392616e+01
2.068085261188064905e+01 -9.641875191414355228e+00 4.002798300962597722e+01
2.124641390850915457e+01 -8.365357827579707362e+00 3.833939571369105437e+01
2.149326226183718802e+01 -7.869388987441185535e+00 3.864682804876287037e+01
2.094760718437217051e+01 -8.874361397340431168e+00 3.846164535798264694e+01
2.031529754808704880e+01 -9.945250994100437225e+00 4.078533982863693552e+01
2.044506806394327825e+01 -9.818145074143208362e+00 4.030435065275879936e+01
2.142295468725871999e+01 -7.768379723083852717e+00 3.819860949545675766e+01
2.028895696943352789e+01 -9.614533577089140692e+00 4.185448663818799986e+01
2.041510424862304873e+01 -9.280222341501520589e+00 4.255615633646900875e+01
2.085797743981895280e+01 -8.386687456227550186e+00 4.314459335983433874e+01
2.066239597138114092e+01 -9.495955367191182717e+00 3.904608366807502762e+01
2.051537666720970421e+01 -9.767263541089830525e+00 3.936733343032290122e+01
2.159956724473315148e+01 -7.171152805737114555e+00 3.805776583070323937e+01
1.994325222251747931e+01 -1.001041211700636246e+01 4.156229859840584595e+01
2.073551810059717582e+01 -7.944566975775927631e+00 4.385020550343629253e+01
2.064880432763282414e+01 -9.383355840165270578e+00 3.858388539880373713e+01
2.004374509631545465e+01 -1.011987177847783137e+01 3.991954775272627387e+01
2.099358523216709216e+01 -8.421034467009489433e+00 3.778062696908497742e+01
2.087609254621400723e+01 -8.691669977845627670e+00 3.793302916965796356e+01
1.989665741653784536e+01 -9.873870321374010217e+00 4.211784384657771341e+01
1.978342145139739117e+01 -1.037471224442763251e+01 4.088156276023271829e+01
2.037279409641289973e+01 -8.512052824286950425e+00 4.358512523725015342e+01
2.117497142674875121e+01 -7.348731963370285669e+00 4.361765756882548573e+01
2.107676523317536521e+01 -7.900183432645089709e+00 3.748638101065225214e+01
2.134328824794281942e+01 -7.467719228640645746e+00 3.771982482236771261e+01
2.043006807804300706e+01 -9.379019556496011489e+00 3.798281871009548638e+01
1.959736088163086620e+01 -1.040714096006215605e+01 4.126995118438139798e+01
2.001036411543852012e+01 -9.072360391280668068e+00 4.332029623903309101e+01
2.034977908330411012e+01 -9.892728503283546360e+00 3.870621599386018374e+01
2.146796960011764099e+01 -6.976746132551602031e+00 3.755442112712481162e+01
1.927410678732572435e+01 -1.039677647107450831e+01 4.218687266439133055e+01
1.957333447138082860e+01 -1.050875475279702798e+01 4.019013810412607768e+01
1.985006058132270823e+01 -9.737380135154152683e+00 4.267338783866935614e+01
1.964785778295461682e+01 -9.633177599403369484e+00 4.305543493119688492e+01
2.011509049667322913e+01 -8.359113575095735271e+00 4.395733626236640390e+01
2.096320627326867481e+01 -7.278411474269418591e+00 4.393772899588618941e+01
1.964223866831934728e+01 -1.042173497517177871e+01 3.953456444551412829e+01
2.074087746096628493e+01 -8.476680550102164702e+00 3.722212992944931642e+01
2.177618048551934393e+01 -6.573918322948133053e+00 3.791692127172143501e+01
2.115994487030996041e+01 -7.379330538359394787e+00 3.719213965854068960e+01
1.926288386615003390e+01 -1.059949034505363663e+01 4.158264242131149047e+01
1.928531560624671926e+01 -1.019429924479291039e+01 4.279056358868668752e+01
1.925164680105186221e+01 -1.080409075305031941e+01 4.097776413668906770e+01
1.949417756287049031e+01 -8.773984364992765350e+00 4.406455403052216013e+01
2.051713809045265080e+01 -7.437423598348151366e+00 4.426581299698592176e+01
2.119090589002201597e+01 -6.618266646051585766e+00 4.402542459167997180e+01
2.050548800623323942e+01 -9.018229247929191672e+00 3.752634904194903243e+01
2.085167120943977537e+01 -7.782240099393090915e+00 3.682956505053638807e+01
1.958622706148378967e+01 -8.061103620859842778e+00 4.442645139245864527e+01
2.011095952093080896e+01 -9.918885079561238882e+00 3.810656083462369281e+01
1.984624493818643387e+01 -1.027032445554445772e+01 3.872591725125898421e+01
2.147289663654370173e+01 -6.635845388868831130e+00 3.733806852620132588e+01
1.885655261303350727e+01 -1.051018257674316025e+01 4.246181340303331098e+01
1.911436753816445844e+01 -1.087772863242378207e+01 4.024002643128874723e+01
1.994230816939584017e+01 -7.497156615231961752e+00 4.455396112742987924e+01
2.074785650304388085e+01 -6.386758558000724229e+00 4.452137135953148572e+01
1.993120070643593422e+01 -1.015324689408900838e+01 3.824559995737039486e+01
2.025396027734361226e+01 -8.979545542350543030e+00 3.681209070972770547e+01
2.054351985062696784e+01 -8.184989516604398219e+00 3.646713386683622815e+01
2.180652527028187393e+01 -5.839806995786136490e+00 3.769764976930240863e+01
2.116984832340865452e+01 -6.697724808692290033e+00 3.675966021915996862e+01
2.013521150182838682e+01 -9.344498568270090288e+00 3.712002822556336668e+01
1.842799230516271081e+01 -1.082592793047009039e+01 4.213321690915051221e+01
1.852152615029335436e+01 -1.047677100865361410e+01 4.286917651048948841e+01
1.848803676937433949e+01 -1.097610206245646225e+01 4.158370708756028478e+01
1.877743851624498106e+01 -1.102318499972178145e+01 4.053794511208030826e+01
1.907977756773683353e+01 -9.696216095583153560e+00 4.348127275907954470e+01
1.923007724312309108e+01 -8.624523396640341844e+00 4.429898040177834417e+01
2.029850664207523181e+01 -6.932834762483649271e+00 4.468157625989810811e+01
1.987206819854198159e+01 -9.945048791711167624e+00 3.750671713936328189e+01
1.924077695706709790e+01 -1.072356372470537700e+01 3.914962914366714131e+01
1.897713770843908065e+01 -1.095133479453961023e+01 3.950255561110486724e+01
2.092867005658103707e+01 -7.204242625438023850e+00 3.660305865005368986e+01
2.048822094913359493e+01 -8.532309450766732084e+00 3.666374524505825150e+01
2.140954329821441959e+01 -5.993949915402647655e+00 3.696779466356743171e+01
1.854807322090756116e+01 -1.112721001848806424e+01 4.103420612404214296e+01
1.887411251157877956e+01 -9.188281992475992865e+00 4.417162656887006023e+01
1.966609082473607018e+01 -7.365392527882080209e+00 4.487566946506736087e+01
1.904854543241554055e+01 -8.250988822207164120e+00 4.472281179727861655e+01
2.050488415360701921e+01 -6.319723925930442299e+00 4.471783882069397009e+01
1.934302480133729674e+01 -1.064767792275125124e+01 3.874561142811457870e+01
2.065309106257590699e+01 -7.596112963828138831e+00 3.629998452104740636e+01
1.830390908629588509e+01 -1.124196250809910502e+01 4.009874955230167615e+01
1.840444496753239179e+01 -9.649538889019565246e+00 4.388541495916023649e+01
2.003762174608959157e+01 -6.483657129880422865e+00 4.498272673956111589e+01
1.951270719248128671e+01 -1.041371214436034798e+01 3.778507923625186748e+01
2.108757056907255034e+01 -6.309012758165418511e+00 3.644820445087056981e+01
1.976464440314805060e+01 -9.671022673940079528e+00 3.671338687468691120e+01
2.023514773369186059e+01 -8.588027564822972693e+00 3.610444289237940296e+01
2.034487249636386963e+01 -7.998767817538707803e+00 3.593734982314860105e+01
2.086694050185895577e+01 -6.759575305637075537e+00 3.618151354239805784e+01
1.799928308570888902e+01 -1.114178794445082765e+01 4.180451466842693975e+01
1.787870267575269523e+01 -1.095027141015652639e+01 4.237612597396642400e+01
1.784542764661484426e+01 -1.144981197591171274e+01 4.109056515815230171e+01
1.815950493891037354e+01 -1.130690620635670030e+01 4.060851372462900599e+01
1.829416238091890889e+01 -9.360991226583937674e+00 4.416581778713585038e+01
1.903370110243534441e+01 -7.797893307205463920e+00 4.506995523535741910e+01
1.863770015861798157e+01 -8.708885435401322539e+00 4.471793179797180073e+01
1.908273551739410578e+01 -1.075710811691925350e+01 3.798932965131088224e+01
1.883995039697428098e+01 -1.102491393701873257e+01 3.876530830799889316e+01
2.183684700728086980e+01 -5.106228969158847164e+00 3.747853997048790831e+01
2.108564180077319605e+01 -5.841562682664103612e+00 3.626637288755885891e+01
1.981483510584774166e+01 -9.292493175027910723e+00 3.620566868366698543e+01
2.045451028394202453e+01 -7.409985447203183639e+00 3.577039728953005948e+01
1.963306660431022621e+01 -9.971223134635536667e+00 3.690658397893121645e+01
1.793393697284206212e+01 -1.011157006284753557e+01 4.359872870751921425e+01
1.811674703349431326e+01 -8.998316465453999768e+00 4.457568336770592055e+01
1.840181375852528234e+01 -8.229975009935309060e+00 4.526422366863258873e+01
1.943357068687913625e+01 -6.583405214920770021e+00 4.527851841133389854e+01
1.783037987793784751e+01 -1.146073645208469216e+01 3.965956267780191524e+01
2.134618721499785465e+01 -5.352051999336430832e+00 3.659751846943650122e+01
1.977710140566137653e+01 -6.035024361726151199e+00 4.528346092623127106e+01
2.022504540449853039e+01 -5.517893915234465929e+00 4.513115420153197732e+01
1.908967321062338485e+01 -7.132341497826483412e+00 4.527367671066726018e+01
1.751900917468392294e+01 -1.124779270484357063e+01 4.202313304281880590e+01
1.775801398584399848e+01 -1.076027596323388558e+01 4.294775449259983446e+01
1.771351230208426841e+01 -9.533989685776212752e+00 4.416002422734049304e+01
1.793962979111380918e+01 -8.639284556159013917e+00 4.498556128988528968e+01
1.909428057572360871e+01 -1.067413435029930469e+01 3.732462507714227939e+01
1.818789118338499122e+01 -1.131600261572454436e+01 3.877019790917103848e+01
2.082472337637630844e+01 -6.331771566418387565e+00 3.593474782277841229e+01
2.056410708225788753e+01 -6.821410865635247234e+00 3.560350155719294207e+01
1.981438875495261343e+01 -8.842631385010443879e+00 3.565941980701153824e+01
1.939427194959106160e+01 -9.997374292009443053e+00 3.630695771679322092e+01
1.987725925284689055e+01 -8.570031351131930819e+00 3.549345034765407547e+01
2.010240174457867823e+01 -7.749014030437146872e+00 3.538183688342598998e+01
1.918136231241073020e+01 -6.411679342174362084e+00 4.538026568090500490e+01
1.746406237264120875e+01 -1.057332517109792391e+01 4.331222132028846517e+01
1.757080683293379053e+01 -1.145748270773947652e+01 4.147598881564248785e+01
1.762009404042789384e+01 -1.155548052920063817e+01 4.032965815002964405e+01
1.874582898428753452e+01 -7.681124398123253094e+00 4.526891827221349018e+01
1.747701640433645665e+01 -9.050215423524996083e+00 4.470664294626769220e+01
1.729803439279168487e+01 -1.014021658167705375e+01 4.373317597151404357e+01
1.864556821061174929e+01 -1.108181040978042375e+01 3.797860844024584992e+01
2.097198007295679645e+01 -5.249487327845175244e+00 3.592097517366770631e+01
1.946391412398878629e+01 -9.446256566173437008e+00 3.576348106006753369e+01
2.021196910349929965e+01 -7.160385134539376750e+00 3.521485255124824931e+01
1.993085556848560813e+01 -5.449992816616732405e+00 4.525077980449832182e+01
1.704379106867705573e+01 -1.128523091192484706e+01 4.240064905141461793e+01
1.714173685769797117e+01 -1.177361793204697982e+01 4.114700995071844858e+01
1.819577654899315178e+01 -7.697403168535414508e+00 4.541935385965151539e+01
1.767626404039967980e+01 -8.462702698877576424e+00 4.528111108021775522e+01
1.858563371827651167e+01 -6.788328558156524473e+00 4.547725226249349362e+01
1.713238383863411940e+01 -9.707253915638640152e+00 4.415424712406919383e+01
1.833079937601270970e+01 -1.120322461274377090e+01 3.827951970032385276e+01
1.735612720652749630e+01 -1.167984086999422466e+01 3.921970734371603129e+01
2.078299486826628950e+01 -5.763634662913887041e+00 3.572045610463172238e+01
2.119470491755291874e+01 -4.562679157777159489e+00 3.613711772576266412e+01
1.939347787730906347e+01 -9.097322835300232668e+00 3.521422743205782524e+01
1.907854094789120225e+01 -9.963318011326412815e+00 3.570007340913794991e+01
1.973477211634971695e+01 -8.034298524135547126e+00 3.493521528136071197e+01
2.055002102530260544e+01 -6.131434005637796503e+00 3.540691082892688968e+01
1.882517577472423653e+01 -1.059660882790739045e+01 3.635459510551864781e+01
1.943295245844598895e+01 -5.574065856921835760e+00 4.542182376862394477e+01
1.835611408555224244e+01 -6.481121194505089278e+00 4.556958337046513208e+01
1.872237327999655321e+01 -5.797237602127756517e+00 4.556486132466908145e+01
1.699550226045089119e+01 -1.103416112364722856e+01 4.302629087144868691e+01
1.701454083810048346e+01 -9.464929075944773729e+00 4.442773391860671950e+01
1.754871878422235199e+01 -7.606235067589167009e+00 4.550952291992720689e+01
1.798991630224270111e+01 -7.164967371314925337e+00 4.557436896616221844e+01
1.845097545922600091e+01 -1.113876838666616464e+01 3.719104348053445364e+01
1.696847284668594469e+01 -1.185695002145426535e+01 3.956788368092404085e+01
1.753490985364734556e+01 -1.160747658960247541e+01 3.877509169760105578e+01
2.016903840716044982e+01 -6.827540062370997198e+00 3.501821297469743399e+01
1.985992992232408838e+01 -7.499260758168733609e+00 3.482630926649989789e+01
1.951931624340823745e+01 -8.552031970255514537e+00 3.488235356791914654e+01
2.008561607621592415e+01 -4.864821972990337251e+00 4.521817831740121818e+01
1.908963780225730034e+01 -5.113076229736730483e+00 4.556021606645498423e+01
1.709279086546312953e+01 -1.152875039543000213e+01 4.177454941083531281e+01
1.677357326955811700e+01 -1.045771982877837303e+01 4.358678399759013899e+01
1.705503074124948881e+01 -1.181510598728019446e+01 4.035674557808468421e+01
1.688704474449220072e+01 -9.096736655532843940e+00 4.488120359382777735e+01
1.710755240047515358e+01 -8.047263056470839615e+00 4.544470072008526529e+01
1.769354703808325269e+01 -6.658905573840401715e+00 4.569490641781391815e+01
1.695071267797557013e+01 -8.695493633686435686e+00 4.529803842944449599e+01
1.655163985401942384e+01 -9.878101758045291447e+00 4.414849158353074188e+01
1.782140339908723448e+01 -1.138161869469058018e+01 3.779350208977838577e+01
1.891519769263715745e+01 -1.018886421976259804e+01 3.584525407332416336e+01
1.775628429190237156e+01 -1.146276087128236298e+01 3.831439862474496749e+01
1.867561385343108427e+01 -1.093470510079385072e+01 3.686390722516257057e+01
2.085831708624861847e+01 -4.657393981832319341e+00 3.557557690712759069e+01
2.053593057626590479e+01 -5.441267240373481862e+00 3.521026901592203728e+01
1.913928651570707373e+01 -9.556084204732915310e+00 3.531512062219747605e+01
1.952474162053799134e+01 -4.640286027557743331e+00 4.542428989128460159e+01
1.852538561942395745e+01 -5.459491883473583940e+00 4.564514519325378217e+01
1.796118953623868464e+01 -5.805886568761348343e+00 4.573025143411545912e+01
1.662631775899500752e+01 -1.139310224292153606e+01 4.210831251196587743e+01
1.655589844276335398e+01 -1.117860827595447759e+01 4.266083387432328777e+01
1.667035680684335119e+01 -1.187947444105853201e+01 4.074242996468974809e+01
1.727389749907272076e+01 -7.419338382616765593e+00 4.563306305855611100e+01
1.666616840095153407e+01 -8.487284675361143726e+00 4.537986395369909332e+01
1.688201851435721679e+01 -1.189887455570572961e+01 3.877998888156947999e+01
1.897287498693741625e+01 -9.351825165243797144e+00 3.476935259901599551e+01
1.950789663046687039e+01 -7.838125682114676529e+00 3.443776802856936570e+01
2.022846101395259666e+01 -5.860559350135768675e+00 3.486029227309164469e+01
1.924963847550324658e+01 -4.361716946989114163e+00 4.551753691776757904e+01
1.638376240524055305e+01 -1.158063834461467501e+01 4.161802980615948400e+01
1.631270842116034814e+01 -1.105882785745292374e+01 4.291970850837512330e+01
1.644548620148734130e+01 -1.179552957232295540e+01 4.106814694579001923e+01
1.638788614867439009e+01 -9.406607138141461988e+00 4.473170271207994375e+01
1.622458882327475749e+01 -8.932785397864078547e+00 4.531501322745696569e+01
1.597919863176296218e+01 -1.018494947062429112e+01 4.376132846551436728e+01
1.843621547799276428e+01 -1.038031809860951604e+01 3.538363491752723178e+01
1.794179317131571239e+01 -1.113566977663452917e+01 3.580145246617477994e+01
1.977378476755039927e+01 -6.833673141807161677e+00 3.443264743592483512e+01
1.825608031068768256e+01 -1.119581488387051671e+01 3.640223916885257438e+01
1.731192513747595996e+01 -1.156003928249339552e+01 3.730740368479595759e+01
1.722994138131663533e+01 -1.167371315586550651e+01 3.807831454831737972e+01
1.640637462259870816e+01 -1.196626908009566748e+01 3.964250159725901312e+01
1.876288814925894854e+01 -9.929262761542331006e+00 3.509332912201739418e+01
1.916164089518079905e+01 -8.534046466584861435e+00 3.427170057961024696e+01
1.984034454471441933e+01 -6.211684149534568711e+00 3.437316276127072001e+01
1.870232467170147217e+01 -4.617316900054644790e+00 4.567302720261444904e+01
1.739703313458281642e+01 -6.152497700822626925e+00 4.581554488897113231e+01
1.770273683382383112e+01 -5.475654462901748509e+00 4.580563639943089527e+01
1.687841592110237698e+01 -6.744603601936689508e+00 4.579391020078501384e+01
1.611632652970129342e+01 -1.131411374228160049e+01 4.229509571517440492e+01
1.619961562679846168e+01 -1.198546590227075370e+01 4.033839784317088117e+01
1.655788721176615397e+01 -7.673654090583847065e+00 4.569185676270800656e+01
1.603311109299475135e+01 -8.427564452842014830e+00 4.553300078852483779e+01
1.605129715681778180e+01 -1.064597245863466135e+01 4.330317056729902703e+01
2.021435335924795140e+01 -5.170935207048653837e+00 3.466376503281900057e+01
2.052185838478229840e+01 -4.752099117374800841e+00 3.501391250644849151e+01
1.800874046063787759e+01 -4.798826675793317342e+00 4.579575957584872725e+01
1.594206785519784120e+01 -9.976268094557173782e+00 4.412444297568421092e+01
1.567675484546338893e+01 -1.145063779483879784e+01 4.192909411281952714e+01
1.562887321176746624e+01 -1.107408078255758177e+01 4.281304129315449103e+01
1.575027716355475071e+01 -1.181793733548166436e+01 4.098940317004370115e+01
1.581924377405681881e+01 -9.623745409809677298e+00 4.456196698057211592e+01
1.584188756067961101e+01 -7.927851173655805717e+00 4.575072802516114479e+01
1.564223681823430745e+01 -9.050282571102451712e+00 4.529274459350760651e+01
1.535605852532671101e+01 -8.292125826554576307e+00 4.561974448833183260e+01
1.990690155636570324e+01 -5.589687611331926931e+00 3.431367426578333379e+01
1.760184515434986352e+01 -1.143611745870630259e+01 3.637975118465408286e+01
1.624068028438799516e+01 -1.202671141943240052e+01 3.876556953432066166e+01
1.673478109089490573e+01 -1.190346541657308954e+01 3.816929291906854615e+01
1.639335228734238470e+01 -1.198457718465384225e+01 3.835131603816218160e+01
1.932792522725817363e+01 -7.480467263438657533e+00 3.402735390782351743e+01
1.881727234620412403e+01 -9.051538245176246278e+00 3.421382646675296257e+01
1.915570405765942752e+01 -8.177142653254938054e+00 3.404904822277046605e+01
1.672736336707784233e+01 -6.387207604474784972e+00 4.586598807805625455e+01
1.706256057668270287e+01 -5.603996886223000296e+00 4.590996776428180226e+01
1.540677948940617981e+01 -1.049257713513817336e+01 4.337391219373829898e+01
1.533207357412680238e+01 -1.007495931876501949e+01 4.410037886768572690e+01
1.569649319011522515e+01 -9.271501122345217283e+00 4.499949441960795582e+01
1.795654408597293283e+01 -1.057204666198406251e+01 3.492134428923246503e+01
1.762721563951361858e+01 -1.107546098104926813e+01 3.520010190660751448e+01
1.776893640032609767e+01 -1.127026220876798490e+01 3.598561078090477139e+01
1.844728737933999341e+01 -9.895205535059389490e+00 3.448666959693063916e+01
2.017044272750614553e+01 -4.777288489044639874e+00 3.454488401944170306e+01
1.658727316184079470e+01 -1.190802448963727223e+01 3.755749242110902486e+01
1.572887381967238873e+01 -1.209168574912864536e+01 3.993436469180746684e+01
1.855213838128202397e+01 -9.606405851410711350e+00 3.432432682974843630e+01
1.725697772259218965e+01 -4.744179563055964444e+00 4.593150670043857531e+01
1.636001483603769913e+01 -7.336457520160866608e+00 4.577230483868628852e+01
1.605776103108222941e+01 -6.621880083266915129e+00 4.591652679077737531e+01
1.523746859571447843e+01 -1.158737584997451364e+01 4.156339465457323712e+01
1.516788302685884204e+01 -9.604853398782854157e+00 4.468365974402941987e+01
1.511178431748103002e+01 -8.073388146960791545e+00 4.577022891198694765e+01
1.680236624806147816e+01 -1.173848618816549205e+01 3.682123249085383065e+01
1.937899854321463522e+01 -6.839799650513512574e+00 3.384777111841920316e+01
1.981903195309758559e+01 -4.802481012017324247e+00 3.407586130186192719e+01
1.959945035404927793e+01 -6.008431035774793649e+00 3.396358057467313074e+01
1.589328132820585182e+01 -1.207790026538932082e+01 3.933328466454749162e+01
1.559934071901335351e+01 -1.215454247655347508e+01 3.875114608342052236e+01
2.042162711418303900e+01 -4.137212061480094683e+00 3.480398633981993584e+01
1.880363014729514504e+01 -8.516042694259560619e+00 3.366045602865848707e+01
1.778562083921037029e+01 -4.433022010014369130e+00 4.585867271645435039e+01
1.628131913561718846e+01 -5.655652911716876119e+00 4.599202928412164937e+01
1.483516464636935872e+01 -1.079997263935364238e+01 4.298702902208117393e+01
1.499357195455661795e+01 -1.131167061983873978e+01 4.218981923784929222e+01
1.505471293645981312e+01 -1.184044396806157629e+01 4.091062394047899176e+01
1.477833415292069752e+01 -1.048693420378665664e+01 4.353165712638015350e+01
1.561501153047804635e+01 -7.392761847064270420e+00 4.585884788332315765e+01
1.486973960225956048e+01 -8.659186111841973954e+00 4.548860820004842509e+01
1.694765851340205742e+01 -1.167639983711550045e+01 3.635725934662740144e+01
1.728193733394146392e+01 -1.134465235696447394e+01 3.556910877919051472e+01
1.889409869016414234e+01 -7.680831886387457175e+00 3.346187556238388794e+01
1.958642683512838545e+01 -5.388267081587825302e+00 3.385185255881013688e+01
1.505930134087848593e+01 -1.200018584234105745e+01 4.029471222552213305e+01
1.846738069145911609e+01 -9.188660191195520355e+00 3.376979407616175877e+01
1.672829452519336257e+01 -5.055351988022289689e+00 4.600446195692847340e+01
1.583395188636985296e+01 -6.256262754739657872e+00 4.597959397757092148e+01
1.494617635123339916e+01 -1.109056466327193213e+01 4.270661107474699492e+01
1.474192597336246280e+01 -1.150312580994577871e+01 4.171368404446234734e+01
1.479815875073462195e+01 -1.172423771532982073e+01 4.119772150564852353e+01
1.506020546048328335e+01 -9.166360986517567255e+00 4.527051206331457678e+01
1.463936072222175078e+01 -9.938891499960449849e+00 4.436786490316860920e+01
1.472155364075680595e+01 -1.017391925472175451e+01 4.407630183393560230e+01
1.747743041012671128e+01 -1.076355269408875159e+01 3.445958499096195737e+01
1.731285861448058583e+01 -1.101528782232017889e+01 3.459915816174022041e+01
1.813122395341775217e+01 -9.861093734977009362e+00 3.387910484295999680e+01
1.929199793078690561e+01 -6.427170193479214255e+00 3.361348216332928729e+01
2.006016295889221723e+01 -4.100889889639058872e+00 3.431392955658232324e+01
1.643975959120340846e+01 -1.191255383296167736e+01 3.694567875938171397e+01
1.590466856350233193e+01 -1.207024600245165225e+01 3.792262845378063219e+01
1.592787857949907249e+01 -1.203421898584283412e+01 3.721982371792034172e+01
1.525813340296436493e+01 -1.219787583029914302e+01 3.953033222149857551e+01
1.746505500763673524e+01 -4.020174325646466151e+00 4.596295129884102693e+01
1.538785583657587352e+01 -6.856639107434094882e+00 4.596716738792233059e+01
1.455901220349840308e+01 -9.609398009380630157e+00 4.480808301802556315e+01
1.480814947290851968e+01 -7.360330493656840112e+00 4.591450614241998096e+01
1.438179967125428682e+01 -8.218310317328523240e+00 4.578978453951570060e+01
1.629245805048518392e+01 -1.191705303880396727e+01 3.633472821570190803e+01
1.677906163666314754e+01 -1.159136156298046494e+01 3.578907970137003502e+01
1.679494157681051547e+01 -1.141901668517160395e+01 3.515260841878012599e+01
1.756480908238077987e+01 -1.040804260028004791e+01 3.393844633561176494e+01
1.898453273247687534e+01 -6.845921986981666763e+00 3.326336600357402062e+01
1.924168987293841226e+01 -5.655309849255806043e+00 3.342854238132790101e+01
1.527450848147964457e+01 -1.220244115462100609e+01 3.814376475046823600e+01
1.837897560292877230e+01 -8.693374761072991674e+00 3.323117888073923609e+01
1.693641952782254378e+01 -4.331310380260045001e+00 4.603586195709695517e+01
1.610897396491883882e+01 -5.267052467445028974e+00 4.604694541728645163e+01
1.512888342178915657e+01 -6.273481197719127600e+00 4.604962505575633713e+01
1.548991349377768323e+01 -5.478656277352627946e+00 4.608950235691681030e+01
1.426374884422132006e+01 -1.110735475093031788e+01 4.260027153128501709e+01
1.429426740338469237e+01 -1.135845352322539981e+01 4.201122936259029217e+01
1.432637202951391231e+01 -1.161027826435646304e+01 4.142134800464793187e+01
1.418739540927684217e+01 -1.069025553403636231e+01 4.332605908125938754e+01
1.435847463194247986e+01 -1.186294026427378689e+01 4.083177118245828296e+01
1.411115271905866742e+01 -1.027296776546583956e+01 4.405224175447632717e+01
1.438303738259289588e+01 -9.031021280625951775e+00 4.535733521703962623e+01
1.838570864436125518e+01 -8.424838042580427455e+00 3.306047670097933633e+01
1.541599479903678294e+01 -1.215588575575289809e+01 3.749394967402981393e+01
1.477252068624183323e+01 -1.214292811401307581e+01 3.974761811962469693e+01
1.434455549203647884e+01 -1.204549985679989099e+01 4.012804056248224072e+01
1.495799833928749045e+01 -1.228236959410197038e+01 3.873670802353767328e+01
1.478739571785974860e+01 -1.230404284635391399e+01 3.912630156301132445e+01
1.807382289078784510e+01 -9.219891535636891788e+00 3.325958883412719302e+01
1.645071798004459040e+01 -4.597291487047947101e+00 4.609778779916790370e+01
1.447876473469616521e+01 -9.280125775717902314e+00 4.524831965592255756e+01
1.400381240975157304e+01 -9.833670410265160200e+00 4.463904463923265098e+01
1.699829462229916288e+01 -1.095506928974349314e+01 3.399780038430099438e+01
1.671257352008278119e+01 -1.121878311825417285e+01 3.442897500978732239e+01
1.763533355840044337e+01 -9.960161734706460379e+00 3.342756510292539218e+01
1.891106375916248439e+01 -6.190792621079103775e+00 3.306499235322699093e+01
1.852159115547464197e+01 -7.172291932638467316e+00 3.276296159323793233e+01
1.556110665544177252e+01 -1.209849586252658327e+01 3.689844948588775253e+01
1.476508772441160744e+01 -1.229749596439716974e+01 3.790229145053289272e+01
1.776866926077653375e+01 -9.746405783061504735e+00 3.328799648998140981e+01
1.470728895469019548e+01 -6.985790465596202203e+00 4.598257679445267598e+01
1.487086554656958448e+01 -5.690247086780499508e+00 4.613213152138741435e+01
1.583146925233055846e+01 -4.809029386857980093e+00 4.614032400861374583e+01
1.384511413222370457e+01 -1.157220439016107072e+01 4.146584725459448606e+01
1.387630016115613607e+01 -1.193943193386984802e+01 4.041110692672675242e+01
1.389676632653061183e+01 -9.394381044966062078e+00 4.522611625481464159e+01
1.362049806243799388e+01 -1.045467549707379362e+01 4.372369813668490934e+01
1.422975276981630799e+01 -7.862677103435722792e+00 4.586194019755588158e+01
1.377438870203538990e+01 -8.883125990920055060e+00 4.551780580320859571e+01
1.605253375861929399e+01 -1.184831619474513253e+01 3.572627268110479548e+01
1.714870710814176391e+01 -1.038284785508958308e+01 3.341594411786018526e+01
1.859751469792745482e+01 -6.783452357909614427e+00 3.277325366887072988e+01
1.838660318322875753e+01 -7.816434428578809879e+00 3.282794940724424748e+01
1.433061524497296801e+01 -1.222785107798597082e+01 3.942512746448741723e+01
1.795441781237252954e+01 -8.870667229578323543e+00 3.280199093452996806e+01
1.617314393921468607e+01 -4.139291271988561505e+00 4.619113630472373444e+01
1.402654804447680625e+01 -7.114940664321058428e+00 4.599804971540662279e+01
1.521242490587767371e+01 -5.020626726506795201e+00 4.618293436167508759e+01
1.373141024186317694e+01 -1.125802061980541602e+01 4.219341133346742367e+01
1.346966835232363557e+01 -1.085804205435369241e+01 4.301652224374639388e+01
1.366765875592818880e+01 -1.186378364149831910e+01 4.076513804683790454e+01
1.350395335456428469e+01 -1.031254736314567033e+01 4.402718913313103855e+01
1.342204523573360042e+01 -9.983067446064465500e+00 4.446724918461573139e+01
1.577702183924423629e+01 -1.195571810601544627e+01 3.589730094812654926e+01
1.570621420565372794e+01 -1.204109500395513521e+01 3.630293385950309215e+01
1.630784987726861957e+01 -1.149337747751231120e+01 3.473602619583246565e+01
1.883751605537940677e+01 -5.534960607099692176e+00 3.286640914844218742e+01
1.492732238147791968e+01 -1.224150456631825179e+01 3.706527504842569698e+01
1.389237005685354909e+01 -1.210221936404982834e+01 3.979106885245320768e+01
1.431665598084087243e+01 -1.241019272460679446e+01 3.872226894518160378e+01
1.740610265987930205e+01 -9.631714664938215265e+00 3.269685132686385032e+01
1.436183683167859648e+01 -6.208126284400616868e+00 4.609263419932121053e+01
1.555392296510190597e+01 -4.351008322347515112e+00 4.623373172940782183e+01
1.361210801506423351e+01 -1.112596093364593841e+01 4.255252409822212911e+01
1.319942044487292065e+01 -1.140959119079783157e+01 4.178680605035169293e+01
1.327107496577323253e+01 -1.165441286358731965e+01 4.121930626390836494e+01
1.313057730266881151e+01 -1.063631749695727535e+01 4.339533794998867933e+01
1.365207496936986509e+01 -8.364126813816803008e+00 4.580938590965426016e+01
1.581275967358103074e+01 -1.177957615655050105e+01 3.511819635409699458e+01
1.644325678336347352e+01 -1.118414732012148072e+01 3.396610665500623583e+01
1.713937027653124545e+01 -1.005924313771403611e+01 3.297595558789998194e+01
1.666207823722707460e+01 -1.080552929214569424e+01 3.340432513159946382e+01
1.852395156835061130e+01 -6.127971512942428589e+00 3.257471201933661575e+01
1.821038765280666638e+01 -6.720965527150815078e+00 3.228299489429898017e+01
1.796765728691465469e+01 -8.333604057238641616e+00 3.246029208936943888e+01
1.911597295966825882e+01 -4.852886995464682940e+00 3.313749594180683289e+01
1.512076303309632763e+01 -1.216496716550597945e+01 3.627116782855738819e+01
1.413319160481456649e+01 -1.241151677903493677e+01 3.746521831452215423e+01
1.339490678906377141e+01 -1.201572733609986088e+01 3.999112484892416575e+01
1.385350339954345245e+01 -6.726137734700714965e+00 4.605310966700274378e+01
1.424362003665947540e+01 -5.799927630701574799e+00 4.614488252699406701e+01
1.454828318352148742e+01 -4.958146404583118283e+00 4.626472874045588668e+01
1.349876389635180907e+01 -7.804538896510745616e+00 4.591143258746649281e+01
1.589549318787789645e+01 -3.681194202411812277e+00 4.628453713407392911e+01
1.333892062370780174e+01 -9.653643408897591982e+00 4.490732747001576541e+01
1.313937516519681559e+01 -9.458750556053143299e+00 4.519390213684088309e+01
1.289147358252962938e+01 -1.035208166527599971e+01 4.400218487238218046e+01
1.526202163474962781e+01 -1.199431152514164722e+01 3.546024256347148906e+01
1.653892123450582474e+01 -1.097907720182159252e+01 3.359791833086975998e+01
1.582084008170908795e+01 -1.156771170125054127e+01 3.431951282991523300e+01
1.805864417176516667e+01 -7.498667491470345503e+00 3.226252733967945829e+01
1.876385741254861017e+01 -4.878135701548853120e+00 3.266752992556376256e+01
1.359907227236910998e+01 -1.222711370466173086e+01 3.923449378321264192e+01
1.422494577137299210e+01 -1.241086729713797787e+01 3.809384968715166764e+01
1.752970100087074101e+01 -9.048022962968037319e+00 3.237262911933921572e+01
1.334582400000000035e+01 -7.244038615853812146e+00 4.601357278917782168e+01
1.499723384840427620e+01 -4.532322397736272102e+00 4.627134437464142991e+01
1.533874145736479555e+01 -3.862612726698134047e+00 4.632212439221320466e+01
1.296004839859247681e+01 -1.114461413479998164e+01 4.250471639525954970e+01
1.266746403536984467e+01 -1.156169604341105206e+01 4.138021367928902094e+01
1.263637999724276995e+01 -1.081805404802343773e+01 4.306684817633204432e+01
1.297734404073095682e+01 -1.186458207138971233e+01 4.069852074639442208e+01
1.314594218914938217e+01 -8.673951304889394365e+00 4.563951950858945850e+01
1.557318688952641850e+01 -1.171086315246461496e+01 3.451062508205046697e+01
1.632559893381185745e+01 -1.065585695810535682e+01 3.281038015937377139e+01
1.833483958579325801e+01 -5.291790667992510855e+00 3.220331747905962771e+01
1.443855245083783601e+01 -1.232712424078764712e+01 3.663651512689386180e+01
1.386162340514883695e+01 -1.241637517307684213e+01 3.832013951034796406e+01
1.360483878717259287e+01 -1.238788154602223734e+01 3.861949714864391581e+01
1.361614667315322258e+01 -5.909635219048816168e+00 4.615769519742377014e+01
1.395035050808051835e+01 -5.364929979771853930e+00 4.622862566597675027e+01
1.278050355916613334e+01 -9.912928651188373408e+00 4.458873499476633384e+01
1.293240407379042445e+01 -8.412507770695871301e+00 4.577740932344445213e+01
1.464119934672719303e+01 -1.216087775801879189e+01 3.563133758593766487e+01
1.588838903950322923e+01 -1.141312120510890082e+01 3.393440973741147815e+01
1.664374484533603393e+01 -1.015825560865024180e+01 3.252464927374546733e+01
1.607954711889055943e+01 -1.100306081964094496e+01 3.319803962019086185e+01
1.805798203428562232e+01 -6.213321007656548822e+00 3.201090108334216211e+01
1.788324968646129065e+01 -7.124904978543887601e+00 3.196645357669449794e+01
1.835148759191142886e+01 -4.850251276059520222e+00 3.216770417001111326e+01
1.453528682953944973e+01 -1.228884330238659750e+01 3.623939531288527149e+01
1.404140449470433261e+01 -1.241214645114439996e+01 3.683640755518839427e+01
1.291333016457014971e+01 -1.209200659997351934e+01 3.957098036404342878e+01
1.755021153936813860e+01 -8.242496743236454648e+00 3.186094889701885435e+01
1.704346569621210605e+01 -9.517001040315072657e+00 3.210556843179422515e+01
1.316647245725845572e+01 -6.632103610070170241e+00 4.609200837348226543e+01
1.273311604616234582e+01 -7.664051105763928007e+00 4.591352003526777992e+01
1.422534901991444833e+01 -4.225407223086317998e+00 4.639749700265008414e+01
1.478202415804294212e+01 -4.044020153712070353e+00 4.635978190145497990e+01
1.559222527258691926e+01 -3.190842862666297908e+00 4.637272113467921741e+01
1.381264180552588527e+01 -4.823995630575961258e+00 4.632179616572430803e+01
1.248771087233478205e+01 -1.136263558537499740e+01 4.191856270927676320e+01
1.237905708310204922e+01 -1.057370558179988862e+01 4.359324869959960580e+01
1.268869346579418433e+01 -1.197578458217335395e+01 4.012381533598460948e+01
1.263810633969707631e+01 -8.981290380847784860e+00 4.546954898602580641e+01
1.533347678077054788e+01 -1.164208913397531475e+01 3.390269626324608510e+01
1.782278963896835933e+01 -6.658404428610382730e+00 3.179212680268388524e+01
1.349637172337295077e+01 -1.242037476943441909e+01 3.717605188445723030e+01
1.289300891515247649e+01 -1.236548858155941844e+01 3.851671230594119777e+01
1.340645858746872499e+01 -1.242250768249417980e+01 3.791789354658047273e+01
1.238260376153258591e+01 -9.523222573540133240e+00 4.516170295172058502e+01
1.710520593168200776e+01 -9.225285720688070512e+00 3.194347952554505810e+01
1.266947726589645562e+01 -7.264603106806005073e+00 4.597945183088880583e+01
1.503551164351514480e+01 -3.372284071530474048e+00 4.641036263476443935e+01
1.340048161597697352e+01 -5.421712731394308094e+00 4.624618851297280742e+01
1.230460656619434445e+01 -1.116341918152170543e+01 4.245692586224514287e+01
1.215307064333630471e+01 -1.148617268113087420e+01 4.158760738565961645e+01
1.213432542928370239e+01 -1.171399090761380002e+01 4.097270100746742827e+01
1.227827403627754954e+01 -1.039162184999098493e+01 4.397719469172811557e+01
1.222368165337014290e+01 -1.017223981712924541e+01 4.427021463351614727e+01
1.228900183968015192e+01 -1.186535131120632336e+01 4.063195872247881368e+01
1.474711053560053742e+01 -1.203287079322030806e+01 3.502325710923799562e+01
1.496040350853090217e+01 -1.184679386577056093e+01 3.441073000656645320e+01
1.759574618861248041e+01 -7.825010068672947128e+00 3.176211621935655671e+01
1.598904644384129448e+01 -1.050613971280807135e+01 3.221629689379467720e+01
1.558395072278392846e+01 -1.128779064275466482e+01 3.335078076283675586e+01
1.790557422005321797e+01 -5.705670197911373087e+00 3.173880908893371711e+01
1.793912482494135574e+01 -4.822369697690464641e+00 3.166789147518635161e+01
1.394961732422881262e+01 -1.241275999012048281e+01 3.620760962911311509e+01
1.213443104679923223e+01 -9.284227585204090971e+00 4.529952697116149807e+01
1.298819716157208504e+01 -6.019411334342285258e+00 4.617056645009906646e+01
1.211154558558002137e+01 -8.082001251183976720e+00 4.581355550219549855e+01
1.447879951386492969e+01 -3.553722887213270010e+00 4.644806770331980061e+01
1.221154677374724251e+01 -8.460940391364896840e+00 4.574546836329168542e+01
1.214146247470790740e+01 -1.099998743892909836e+01 4.273803025845218428e+01
1.165824045811534226e+01 -1.080628360451496661e+01 4.318122015349759124e+01
1.425501516706518146e+01 -1.218980249783670011e+01 3.530359224295484211e+01
1.614831970417347407e+01 -1.025722773750342398e+01 3.207352209570108670e+01
1.562033607850121619e+01 -1.102701539235407679e+01 3.279829914594698437e+01
1.746354561297064478e+01 -7.135449740450329870e+00 3.145165358908851871e+01
1.215860492363160894e+01 -1.203184633024409322e+01 3.979891666501179515e+01
1.243198712020900487e+01 -1.216821821868814979e+01 3.915103936071582069e+01
1.295132907169066172e+01 -1.242860445599702679e+01 3.751567858473750050e+01
1.208675646196540754e+01 -8.867323542969243633e+00 4.552640960239953927e+01
1.713279421227561983e+01 -8.151392577283987251e+00 3.126160922601783199e+01
1.690692230553527509e+01 -8.776996398302534530e+00 3.138818641780554586e+01
1.668112005537396669e+01 -9.402379234523897011e+00 3.151473166225213163e+01
1.199209027408033279e+01 -7.285092823226372083e+00 4.594539336359389381e+01
1.242982078123509915e+01 -6.448766198220559076e+00 4.608411042943794200e+01
1.366416459808266737e+01 -4.309189517491827992e+00 4.641239301234062964e+01
1.325165647521611945e+01 -4.907355191063269118e+00 4.633675535006634050e+01
1.528887349918429095e+01 -2.700363754143841888e+00 4.646097153840369032e+01
1.164668672574989827e+01 -1.118292530622906966e+01 4.240922936021429024e+01
1.167187851825361733e+01 -1.043117069724885049e+01 4.395221643903504116e+01
1.162042608554125422e+01 -1.163832648544520865e+01 4.118049674169456154e+01
1.462357178395645718e+01 -1.181079248004486715e+01 3.383939316424532251e+01
1.616669709457444171e+01 -9.879356911115785067e+00 3.156828924879558329e+01
1.506106419345370107e+01 -1.150639457441805824e+01 3.332736300962908160e+01
1.747636862442732664e+01 -6.119481901771663068e+00 3.127432372988295839e+01
1.743515440724032928e+01 -6.595837120010541454e+00 3.130118974613060701e+01
1.759490019535979499e+01 -5.435863783402399285e+00 3.133087694594201267e+01
1.817673193986288638e+01 -4.077124657121222739e+00 3.189286003048330898e+01
1.309813199548274731e+01 -1.242569631390914608e+01 3.682410587765505738e+01
1.160158431031601189e+01 -1.186610162052337891e+01 4.056546007160091705e+01
1.218116326270200034e+01 -1.234305009352834048e+01 3.841392733621056266e+01
1.163162252983680212e+01 -9.587741147131920272e+00 4.512952825805706425e+01
1.710430109449453795e+01 -7.612498573821848247e+00 3.111115405823035829e+01
1.399156471947616431e+01 -3.699724116112204975e+00 4.648537916439826034e+01
1.473230959403441176e+01 -2.881841285613250925e+00 4.649864839753401213e+01
1.163433358928862660e+01 -1.141065134333733155e+01 4.179501594680425569e+01
1.165180234750871158e+01 -1.000977537839737863e+01 4.454033824382950968e+01
1.423228493657602378e+01 -1.207140554301613200e+01 3.458634990912024421e+01
1.483695449608887529e+01 -1.163975191741070958e+01 3.348017951124871416e+01
1.565228628301447067e+01 -1.035632050155711958e+01 3.162183676419426703e+01
1.516110784885216312e+01 -1.105095724343782848e+01 3.239854502004033776e+01
1.324492208180081576e+01 -1.242278836467552772e+01 3.613251774619834578e+01
1.346401225285314496e+01 -1.241676111141666716e+01 3.581843884081435192e+01
1.376292160595698100e+01 -1.234672963534063328e+01 3.558390686117474644e+01
1.198285335318882083e+01 -1.237762538727361594e+01 3.771235039792100707e+01
1.156449547503987674e+01 -9.050013260098232593e+00 4.542159443091349402e+01
1.276503172444024514e+01 -5.248522621036126878e+00 4.630635636213349215e+01
1.237279871576267176e+01 -6.034969933606994630e+00 4.614864219957616598e+01
1.149739643688573665e+01 -8.509457548633813317e+00 4.571354522516564600e+01
1.187385406085841666e+01 -6.877430616295228560e+00 4.599774563720487208e+01
1.310280278574094126e+01 -4.392993767267307170e+00 4.642734373223101585e+01
1.424497352669970418e+01 -3.027791975407628122e+00 4.653597047352132421e+01
1.498571874776144774e+01 -2.210204990718152018e+00 4.654920485098700311e+01
1.564100113128883685e+01 -1.888414386190607086e+00 4.646849073511175732e+01
1.093257421709111021e+01 -1.090273763074533697e+01 4.286279300862646835e+01
1.116133210393720709e+01 -1.055588420429302410e+01 4.361104972452348960e+01
1.107894917027152992e+01 -1.151600604469188660e+01 4.137889090955457050e+01
1.478839937442331198e+01 -1.137057080226675687e+01 3.275148485549609489e+01
1.707575975376323285e+01 -7.072742676407560936e+00 3.096046361123174151e+01
1.752665130923074344e+01 -4.794482500563520766e+00 3.116794358195650716e+01
1.777649648440987207e+01 -4.103234923048654004e+00 3.141216669519025473e+01
1.151195181273819301e+01 -1.216919365708485756e+01 3.906213636865870598e+01
1.155623991606821122e+01 -1.201769089423410009e+01 3.981362405765348456e+01
1.195064526628980417e+01 -1.224440825585113757e+01 3.873109869347468504e+01
1.249630485316536088e+01 -1.243467477886144046e+01 3.711355736702225983e+01
1.662127763688533122e+01 -8.263334950952637925e+00 3.078023841672683858e+01
1.676736969089490614e+01 -8.009695525045703590e+00 3.081196331097577001e+01
1.628257779430549235e+01 -9.201549304831445397e+00 3.097015488985550391e+01
1.621697986900887756e+01 -9.433169924211384227e+00 3.110288502547559375e+01
1.140434974515966182e+01 -7.901840993379876110e+00 4.581252035339279161e+01
1.175788463432362541e+01 -6.050515516884527933e+00 4.612675716308606866e+01
1.425492094252290265e+01 -2.429371099522446009e+00 4.660514638882337124e+01
1.109393616882092282e+01 -1.128835358684503554e+01 4.199325973294493508e+01
1.087183985564421285e+01 -1.038575149909392792e+01 4.387517466848598957e+01
1.101466489622387712e+01 -1.115174125508427494e+01 4.236825886564226096e+01
1.054313196368973138e+01 -1.139368066027455662e+01 4.157728653072975789e+01
1.357624642098991430e+01 -1.228066535801676196e+01 3.496027873133466102e+01
1.434016702770096252e+01 -1.163740571424025028e+01 3.305743488630911031e+01
1.391345080680427948e+01 -1.197954447590242744e+01 3.377605805097818603e+01
1.451556446984824156e+01 -1.123465966191642984e+01 3.217523456632050483e+01
1.673877414927632046e+01 -7.470337587076854469e+00 3.066128527807985193e+01
1.704722833119962289e+01 -6.533223329823163894e+00 3.080984590458560390e+01
1.254036214271696537e+01 -1.243279869707560437e+01 3.605742202198034363e+01
1.297847787476686676e+01 -1.242074152381871599e+01 3.542932452017675615e+01
1.110725365069642834e+01 -1.192373498384561081e+01 4.014467224292680214e+01
1.146929000610382410e+01 -1.232058615341594532e+01 3.831113946527919012e+01
1.086195650445105443e+01 -9.538828748388512579e+00 4.505972272976111981e+01
1.214201093820231137e+01 -5.562341209211505877e+00 4.622902699044261965e+01
1.131145095241801357e+01 -7.305474863837860156e+00 4.591141061859914174e+01
1.254148681288542555e+01 -4.476786564930130830e+00 4.644233686276686512e+01
1.207464047985996558e+01 -5.007202285026008504e+00 4.632975224241223344e+01
1.343031953296318726e+01 -3.783511541453257632e+00 4.650032180727481546e+01
1.375764252651302755e+01 -3.173739952541001497e+00 4.657334087986767202e+01
1.525424472381368624e+01 -1.392877114244277292e+00 4.677326570508925840e+01
1.104033764638125525e+01 -9.764480705675909533e+00 4.477720021021854535e+01
1.038215231744277744e+01 -1.112051892104183715e+01 4.232726087461037423e+01
1.073045428510409316e+01 -1.161032955693313973e+01 4.104187810864846142e+01
1.580291920565711727e+01 -9.831894820549299752e+00 3.116305823120718443e+01
1.494773977628629424e+01 -1.072747921756777245e+01 3.161053201721478345e+01
1.371774168902389768e+01 -1.210990426857565616e+01 3.414967946207112703e+01
1.470198884166825692e+01 -1.107488248950851784e+01 3.199888593159263905e+01
1.092505123495369723e+01 -1.182691761859005908e+01 4.050648774014844378e+01
1.204128293387948290e+01 -1.244072691956233534e+01 3.671143592580492765e+01
1.095423704607857296e+01 -8.745053663911821928e+00 4.551523243606234104e+01
1.077159290657411184e+01 -8.446119563284627318e+00 4.564698211220232338e+01
1.123083376823588964e+01 -6.686333429865897848e+00 4.600807862553605077e+01
1.286907788544524323e+01 -3.867294011029659639e+00 4.651530972428147948e+01
1.352407216838392578e+01 -2.648551232896713348e+00 4.666119785801207343e+01
1.465979342702715549e+01 -1.657290481767114576e+00 4.686244847285840365e+01
1.064832108796938925e+01 -7.637198151172807314e+00 4.577903044939552046e+01
1.065024348051069047e+01 -1.068065495403046583e+01 4.326977252704833887e+01
1.013835950684218190e+01 -1.080643438410814028e+01 4.292805934829144121e+01
1.532944044071194156e+01 -1.015637269289391043e+01 3.108045982551837128e+01
1.352308929545624494e+01 -1.189173824870294105e+01 3.317369801971274512e+01
1.661128942645985518e+01 -6.760649039800160409e+00 3.036007136542902884e+01
1.089041929643535234e+01 -1.213019104621493938e+01 3.907673773209131696e+01
1.061270282919381280e+01 -1.198139405095922250e+01 3.972358890805855225e+01
1.023978340977981460e+01 -1.178770957542216635e+01 4.044746377917927305e+01
1.135667587849166615e+01 -1.236465315165000867e+01 3.750982215885690607e+01
1.183579960806443943e+01 -1.244279905666055441e+01 3.598231191497920634e+01
1.041098654770050302e+01 -8.976553243841202345e+00 4.531699709619542205e+01
1.640178680133182354e+01 -7.867936177172168755e+00 3.036209721737666456e+01
1.575297190802209002e+01 -9.463944380086319441e+00 3.069114958483730149e+01
1.160847722111013525e+01 -5.536594448924347489e+00 4.621735528220730771e+01
1.319684296900334353e+01 -3.257435213972367904e+00 4.658831719959145090e+01
1.392896959495396558e+01 -1.876418595024744063e+00 4.691814344495865186e+01
1.062804550949170590e+01 -7.217758776723624869e+00 4.584729865237214597e+01
1.044939646601560312e+01 -9.941096041850164156e+00 4.442524580470671225e+01
9.780131923613831546e+00 -1.126596732898681452e+01 4.178599477537129303e+01
9.991575480927194164e+00 -1.149892346070964422e+01 4.116139868810331137e+01
1.280754081921843834e+01 -1.230804813402098219e+01 3.449237097706983945e+01
1.516669431913052968e+01 -1.034873674819445633e+01 3.120565412725231624e+01
1.384338484175976447e+01 -1.163505380977301407e+01 3.263469515627284068e+01
1.320279675352036008e+01 -1.214842175529225798e+01 3.371266630438203293e+01
