5.344850318759160501e+00 -1.089438527567342696e+01 2.802086476749724397e+01
5.566414073074038349e+00 -1.069071699670404918e+01 2.762228016932262875e+01
4.634725172744738941e+00 -1.146284492496999619e+01 2.959965334739075971e+01
9.898324150092505658e-01 -1.034902266386085223e+01 3.365647534384949324e+01
1.922045230470195154e+00 -1.097155123573103985e+01 3.229236892054984054e+01
1.837214834626852644e+00 -1.085560334777023606e+01 3.277505924891605815e+01
7.582460113371854327e+00 -8.846498076646881259e+00 2.551010239433838933e+01
7.293086884545593840e+00 -9.251348641759273406e+00 2.592971822548917515e+01
6.799433959431684826e+00 -9.951609513722408096e+00 2.672346041695849905e+01
7.734629782385365360e+00 -8.607314641656989451e+00 2.528157096972184803e+01
9.317465701876612272e+00 -5.084019674562433089e+00 2.374860131743162128e+01
2.565319993952520417e+00 -1.123639687500000051e+01 3.185901277482350480e+01
5.723811101240500854e+00 -1.038893918547941553e+01 2.709617726898206058e+01
4.450414906256527914e+00 -1.158900469531734601e+01 3.014952572712430978e+01
4.002498313418292319e-01 -9.883473887108610967e+00 3.437674882635829476e+01
1.163738186537525587e+00 -1.019373311255488090e+01 3.431491370958398335e+01
8.138259582500694478e+00 -8.123641600076757285e+00 2.503917371982603868e+01
6.654865149462734664e+00 -1.024058650720743735e+01 2.723292187650380214e+01
6.932099210833637670e+00 -9.757761453763654558e+00 2.645508425651249951e+01
8.541918859252094265e+00 -7.639938374446077596e+00 2.479674799119074891e+01
9.017032669335677042e+00 -5.504810372534636009e+00 2.372813159459291654e+01
9.096049037841726914e+00 -6.041133069486686935e+00 2.400655702328068486e+01
9.649350220927637167e+00 -4.412200721221724464e+00 2.379855713472063172e+01
3.778538917382696205e+00 -1.150674419350241529e+01 3.137672567551651426e+01
5.531671761456468772e+00 -1.112991839792561599e+01 2.877205096535805140e+01
4.072941574896385752e+00 -1.159931419489152660e+01 3.060626126951726533e+01
4.305570504081394745e+00 -1.162658211467635461e+01 3.042945079750955628e+01
6.142283131572873422e+00 -1.048021740490446518e+01 2.748294205465686701e+01
1.706963270193246229e+00 -1.069125051448661168e+01 3.324468934690380451e+01
2.309143488791526089e+00 -1.102586056736265441e+01 3.256985070889855649e+01
7.246167427792280513e+00 -1.010105342295118369e+01 2.721589999548754690e+01
7.511027139416388998e+00 -9.713485052687410359e+00 2.667913042945204083e+01
7.727717409545461713e+00 -9.409655196215531703e+00 2.636398346144903826e+01
8.777273030875651472e+00 -7.416466244559886789e+00 2.472528370774341155e+01
9.599269156952509263e+00 -4.789740230235346452e+00 2.385064364397528536e+01
9.532478443384059474e+00 -6.284831249999998981e+00 2.439754861335162417e+01
9.900205810539521423e+00 -3.472115207174808926e+00 2.384165800176133487e+01
9.816649016929273941e+00 -3.995829641877874039e+00 2.386716472365424480e+01
3.138377388025980874e+00 -1.132634091981887714e+01 3.193764755917829490e+01
5.336389869041873624e+00 -1.140942574949321831e+01 2.948190781468453281e+01
6.037048050519084441e+00 -1.081963781175275763e+01 2.810968696899378116e+01
5.090267968187955461e+00 -1.157764290397867235e+01 3.021504007405583891e+01
1.577037677674328897e+00 -1.052695943382300037e+01 3.371446032474563026e+01
1.485040125998932536e+00 -1.041355816471653384e+01 3.402702653856832882e+01
7.944406558404278229e+00 -9.105825310255546867e+00 2.604883630879263734e+01
8.249017777140686292e+00 -8.627790026362831100e+00 2.559234655699762584e+01
9.424948601624262068e+00 -5.684151925754869161e+00 2.407299024023581069e+01
9.269666452764015574e+00 -7.099005248629880249e+00 2.481662546451910956e+01
3.712108818766237661e+00 -1.141633876500378264e+01 3.201634011739841412e+01
2.823628940810619881e+00 -1.117653283729984004e+01 3.253537043621331293e+01
3.083162158107259909e+00 -1.128452647684726173e+01 3.225718228896889173e+01
6.120539772067796314e+00 -1.100324809098029277e+01 2.866817887100721052e+01
4.800279299995367843e+00 -1.165279866489531813e+01 3.077489239353956663e+01
4.335118234491226019e+00 -1.159826239707427753e+01 3.112874542205054240e+01
8.706015264611736137e-01 -9.933021041915688798e+00 3.475985685656972635e+01
2.338438733240846723e+00 -1.092414500545201683e+01 3.314613868167107569e+01
8.787685683364367506e+00 -7.983025471592779532e+00 2.526947974159813981e+01
6.959992847787760617e+00 -1.042661707890731471e+01 2.773570377863494940e+01
9.988898581849092295e+00 -5.096467704917453823e+00 2.427744816419968288e+01
9.762291253648964329e+00 -6.781544007312273692e+00 2.490799593528688760e+01
1.015033967298064077e+01 -5.997609071700472860e+00 2.476449138276218775e+01
1.037860621101312830e+01 -5.403187887208636297e+00 2.470425151505172678e+01
1.008923325092402834e+01 -4.340942498747597966e+00 2.417319586064218484e+01
1.021462656947838177e+01 -3.871279356510181735e+00 2.419460578976220688e+01
6.204162819339722468e+00 -1.118705391985263020e+01 2.922726618201111393e+01
6.534092834916641834e+00 -1.090897002104723512e+01 2.853890295725945236e+01
2.164725859730196600e+00 -1.070501014688345620e+01 3.377248841024493942e+01
4.657015160672594578e-01 -9.683862171866627122e+00 3.504417527087283446e+01
1.980481123805680310e+00 -1.047812034232961764e+01 3.439785564089954306e+01
1.338374509156137870e+00 -1.003840767139143431e+01 3.497407515532572830e+01
3.082109040576586079e+00 -1.111823759328308014e+01 3.321184251544993771e+01
7.981770738457419689e+00 -9.921047414553196830e+00 2.728509394597487514e+01
8.090110288112907000e+00 -9.669210688772636786e+00 2.690316588510878049e+01
8.307025256801557234e+00 -9.365499363420262569e+00 2.658829397454087839e+01
9.952245801095152444e+00 -6.476744954784389385e+00 2.482812165432584095e+01
1.020506645338791607e+01 -3.306253579156035904e+00 2.422471829714094227e+01
4.319333453975681358e+00 -1.155148040717325664e+01 3.177539409513305557e+01
3.601473338294483462e+00 -1.133269724666153522e+01 3.265575191650231801e+01
6.673824477824817691e+00 -1.075217929887532975e+01 2.825550531231458251e+01
5.853817235700376820e+00 -1.148215192513703364e+01 2.991395381380328544e+01
1.863410408518719308e+00 -1.024413165184268415e+01 3.495977346262132812e+01
8.535351847303914496e+00 -9.006884513965045969e+00 2.624572908802684168e+01
9.033379213338571745e+00 -8.325893777990886591e+00 2.574191651757799804e+01
7.693232806416744118e+00 -1.025054150506422523e+01 2.770848749897469432e+01
9.258476065981422920e+00 -7.535886399758811471e+00 2.512633867568909096e+01
9.333499116277227614e+00 -7.956761624809637112e+00 2.557078800148233810e+01
9.992161525575665948e+00 -7.278331882250657969e+00 2.541855587235207992e+01
1.064884918374011313e+01 -4.989678212534112589e+00 2.483935720205947817e+01
1.059344916956959892e+01 -3.523034425799686176e+00 2.468086625891358921e+01
4.597311297421710741e+00 -1.159721079985796699e+01 3.165120328559967078e+01
4.285736053177726212e+00 -1.150626642875650596e+01 3.209497922359489763e+01
6.287863440834077444e+00 -1.137094397914946420e+01 2.978660969508390721e+01
5.295042254131051784e+00 -1.167901520376000590e+01 3.112034439687770160e+01
9.897645951780544848e-01 -9.783555350983222709e+00 3.533865220757890313e+01
2.839987196721751150e+00 -1.099273480161210514e+01 3.351756897115690492e+01
8.763680680630676179e+00 -8.648268398954256142e+00 2.590316818482943262e+01
7.311111323806928297e+00 -1.068468209621259746e+01 2.840140708312189943e+01
9.740225056043342988e+00 -7.655396782457744465e+00 2.552769473771292041e+01
1.037198131480496954e+01 -6.668584166666208901e+00 2.525852793655420570e+01
1.076877824829404595e+01 -5.710211820652173920e+00 2.513148644353230310e+01
1.052910994946735812e+01 -4.269465782916900487e+00 2.454758887257133182e+01
4.859497783572078511e+00 -1.159615942170956515e+01 3.217359227973168601e+01
7.031361481138805658e+00 -1.099830423241468402e+01 2.896813072079110185e+01
5.730607213178982917e+00 -1.156627799954746827e+01 3.028058240973791726e+01
6.850078979190846518e+00 -1.126649604156921569e+01 2.967923493779812105e+01
5.760169106859818200e+00 -1.163575474689191758e+01 3.087319205296783409e+01
2.528492184846184543e+00 -1.068782605850456768e+01 3.428778387351827917e+01
1.513837940854734887e+00 -9.883201070858257609e+00 3.563330237320495542e+01
9.317239559686606443e-01 -9.633232076727265891e+00 3.569088626342582415e+01
2.752828393781009186e+00 -1.088315320310472067e+01 3.383054548785668914e+01
9.279154730774450854e+00 -8.668771874407891431e+00 2.621437314581956102e+01
8.669466171845375158e+00 -9.624927277544180981e+00 2.712724301506823821e+01
8.974273589561224895e+00 -9.146907906712966607e+00 2.667086011882144092e+01
4.489212555902266644e+00 -1.148851235005150251e+01 3.261395166838358506e+01
3.729876929436701793e+00 -1.122072386437539038e+01 3.347140715696325231e+01
5.250413448252569282e+00 -1.164678237539910199e+01 3.176811093241481743e+01
6.371634052971421269e+00 -1.155490625416889472e+01 3.034617281940338529e+01
3.492670576479737221e-01 -9.383180305217615924e+00 3.574853743753182300e+01
3.340831855720184596e+00 -1.106123020133234647e+01 3.388858168477000277e+01
1.086299242214425398e+01 -4.218089771290329359e+00 2.498326682527238063e+01
8.140263680951278502e+00 -1.039995893486413081e+01 2.820084280247274577e+01
8.642246441688094194e+00 -9.932955893439263662e+00 2.764909025894563399e+01
8.194525357800062082e+00 -1.012464138441972494e+01 2.774996367516397910e+01
9.750620869821121417e+00 -8.221697108837744850e+00 2.607157508740539242e+01
1.022192723699864203e+01 -7.774853124999999920e+00 2.592887328837547045e+01
1.119636281487509599e+01 -4.785787116111237083e+00 2.539429581772044742e+01
1.091688798717398257e+01 -6.158203536775413767e+00 2.546134895299090317e+01
4.119772653156131170e+00 -1.138086508740231473e+01 3.305434348431604974e+01
7.528915119219888652e+00 -1.108765397106301975e+01 2.939743529742296246e+01
5.789860350517374243e+00 -1.170523168158930893e+01 3.146581078620222272e+01
3.105366443266912579e+00 -1.078238350387172773e+01 3.464669234838615353e+01
1.095336693390765248e+01 -3.750133013059868237e+00 2.513149178712066956e+01
1.094906506446856476e+01 -3.222184872236101061e+00 2.516106059672937789e+01
1.086259365449383374e+01 -4.527533169922433487e+00 2.497078573833072213e+01
7.949735746771063205e+00 -1.061705901006395614e+01 2.854758761021312097e+01
1.079270668524364041e+01 -6.860821207157123069e+00 2.568982838403572444e+01
1.131664402527857760e+01 -5.506623195089727751e+00 2.568695321229916928e+01
1.113853091435370857e+01 -5.924776383736959140e+00 2.557009120044214967e+01
5.462784343278466181e+00 -1.164309910708146845e+01 3.225578307796791222e+01
5.130879090776178764e+00 -1.157255555764934840e+01 3.286545179271235639e+01
4.638144301263131375e+00 -1.142962132594010960e+01 3.345302362230336968e+01
3.923479438844967415e+00 -1.117790527934486455e+01 3.397892429330882891e+01
7.034182612926833222e+00 -1.150517150940864930e+01 3.043119310961723656e+01
7.583129626714079308e+00 -1.085270822835864912e+01 2.890082069673006160e+01
7.371512672418689682e+00 -1.129761213065330239e+01 2.994879166510724389e+01
6.193456437951969207e+00 -1.165869343024719385e+01 3.117552174994843384e+01
9.621658487263655246e+00 -8.942909541052637579e+00 2.676099840105100824e+01
9.214890626109010441e+00 -9.580594603941811727e+00 2.736974557333521219e+01
9.058876124256542539e+00 -9.750551528258132095e+00 2.754335226118646673e+01
1.071743471458132824e+01 -7.413596110262577810e+00 2.602460341461863536e+01
9.743084567198939894e+00 -8.721978893570206282e+00 2.657110675035255909e+01
1.119720511370482718e+01 -4.166617469958679543e+00 2.541926126349869719e+01
5.398377530970621230e+00 -1.163090756644209556e+01 3.258254943155319694e+01
6.855155257883679631e+00 -1.160650475453800823e+01 3.071540800414599204e+01
3.833509566766903465e+00 -1.110218595268545627e+01 3.428287731940911698e+01
3.548138901428906422e+00 -1.095293871457621115e+01 3.455329899981539654e+01
8.026772686367632303e+00 -1.117702523040444795e+01 2.982684497053446648e+01
1.124043066042023220e+01 -3.668640060316676443e+00 2.550835002613164093e+01
9.964790754365587588e+00 -9.217452727972064608e+00 2.730843925719310405e+01
8.615044562502562897e+00 -1.024105878197682351e+01 2.817106436041851580e+01
8.068192010732559538e+00 -1.085037498147132595e+01 2.912069105322081342e+01
8.587835612527371154e+00 -1.054950268166404648e+01 2.869361627953686522e+01
1.052662600810564086e+01 -8.143754310104668548e+00 2.649977765132732088e+01
1.106480385972287550e+01 -6.605282833725820701e+00 2.579080929192504001e+01
1.153035850650512373e+01 -5.044185093470100689e+00 2.581804866542686128e+01
6.284734188021540824e+00 -1.173144811861867787e+01 3.181129017557036676e+01
6.597371652113211304e+00 -1.161215449337375816e+01 3.088522697471512402e+01
4.506318767722521379e+00 -1.129456047792734630e+01 3.406924484173332246e+01
1.153177067917547305e+01 -4.115044289867110017e+00 2.585560765469140065e+01
9.448991940496810571e+00 -9.876367708965430481e+00 2.796010323767964678e+01
9.017040554527076424e+00 -1.002388753261563537e+01 2.799743124650337123e+01
9.761583479406226616e+00 -9.536169058333948456e+00 2.761275154858890346e+01
1.065879173199384766e+01 -7.873058017736019210e+00 2.632264202072872550e+01
1.121271405550582045e+01 -7.052681249999999125e+00 2.612028431043759014e+01
1.150814021166077161e+01 -6.139225083464244115e+00 2.600846668830276798e+01
1.169826070091963821e+01 -4.709268907056050502e+00 2.604885023748686379e+01
6.823107131570410822e+00 -1.166939686542200150e+01 3.142423708313448927e+01
5.156102738304268129e+00 -1.147887599332176833e+01 3.385141252855790128e+01
6.066326597954143196e+00 -1.169002661092174122e+01 3.233795162510414656e+01
5.937060662456597804e+00 -1.166564018149523108e+01 3.299133286348892113e+01
5.402497598646524679e+00 -1.154894687073117154e+01 3.355757072527526930e+01
7.696952272055290756e+00 -1.145543631322291311e+01 3.051621725663877882e+01
7.338705833986406191e+00 -1.165810296313487271e+01 3.108464260429710890e+01
1.145062445139191709e+01 -2.857300158258795797e+00 2.580055385131067780e+01
1.020750838942735861e+01 -8.775224930454090355e+00 2.692810206382732829e+01
1.030777787461149941e+01 -9.491793774296418462e+00 2.785548201048217720e+01
9.271871256838037922e+00 -1.020614203431041389e+01 2.844365823766051449e+01
1.186456875455207616e+01 -5.302720138157894780e+00 2.624203294927810859e+01
1.176971146668374679e+01 -3.722732654771828464e+00 2.616636022874555323e+01
8.360419221116364596e+00 -1.140566405945104300e+01 3.060130771444910991e+01
8.733007626857459016e+00 -1.081829875392714335e+01 2.935784358581069498e+01
1.161061786445564969e+01 -3.290024280040975579e+00 2.598345588268331952e+01
9.838868805719393151e+00 -1.000207742858096971e+01 2.837650086740297439e+01
9.264192163541814296e+00 -1.045091091252800020e+01 2.886537130526513906e+01
1.146486765551120435e+01 -7.424250362007873250e+00 2.658119841921331172e+01
1.189073686696228727e+01 -4.230010879136833601e+00 2.629504846129411177e+01
6.779661018019321084e+00 -1.175766469953464899e+01 3.215678320298533066e+01
7.822228606705903253e+00 -1.170969517679460026e+01 3.145383714643157447e+01
8.525491546647423036e+00 -1.126651977252418568e+01 3.025684952334868782e+01
1.067176187267407528e+01 -8.828435998722767408e+00 2.728485981981889097e+01
1.083139062349014736e+01 -8.512620033214995274e+00 2.707064145428501334e+01
1.072218646695835531e+01 -9.186638984855328260e+00 2.774860784557016657e+01
9.037751796568818108e+00 -1.063038205532392055e+01 2.908957403554268240e+01
1.109549112731300724e+01 -7.971198816848863444e+00 2.671615428634346401e+01
1.205598298097223342e+01 -5.936193613135743341e+00 2.656366798469119317e+01
1.201970063822682633e+01 -4.692521003201644447e+00 2.644473303384315344e+01
1.172988352940626022e+01 -6.810145433177138052e+00 2.650259017473011980e+01
1.187773662196114266e+01 -6.353636572055558318e+00 2.644677303204424490e+01
6.670279964646450566e+00 -1.173695403061610953e+01 3.242012019404866408e+01
7.048864485579528605e+00 -1.172663908635208152e+01 3.196325743260029384e+01
8.419384257723280029e+00 -1.155557118949213624e+01 3.114834654620333509e+01
8.878311975353412322e+00 -1.108706644655481455e+01 3.002200567978725232e+01
1.184580529165280005e+01 -2.897757684245157783e+00 2.629387924494654172e+01
1.046328839530755950e+01 -9.872615796615029637e+00 2.853233469679938494e+01
1.165313444959510036e+01 -7.222434954329802537e+00 2.660478235679668657e+01
1.226895372168324982e+01 -5.484864353502906020e+00 2.674768710085601953e+01
1.224702841595544278e+01 -6.567843231768232037e+00 2.688466863982086963e+01
1.212866946106269239e+01 -3.837738642631461694e+00 2.660587161145215518e+01
1.165706331885683866e+01 -2.456274376933719417e+00 2.609207600343330569e+01
1.200614595900431425e+01 -3.330416434209930721e+00 2.647705175571346103e+01
7.548280040174121019e+00 -1.174678798629160603e+01 3.197804973886596613e+01
9.023802733664645359e+00 -1.135591247566046036e+01 3.068636564405760225e+01
1.074447546588496571e+01 -9.569515905712789205e+00 2.824019291022668199e+01
1.022883365629616392e+01 -1.012778642739531421e+01 2.879289852038681730e+01
9.488346034245852323e+00 -1.071136923711556044e+01 2.948606512694647463e+01
9.941324773028156869e+00 -1.035222409607018790e+01 2.903729158925924736e+01
1.113639698798903233e+01 -8.881675173015462832e+00 2.764181172889828630e+01
1.171722072574290863e+01 -7.796093105794765776e+00 2.704248206308320235e+01
1.224991347470062131e+01 -4.345024354930121291e+00 2.673471483112887626e+01
1.223243033520491174e+01 -5.059987594184456761e+00 2.669941031526963471e+01
7.274642397474820221e+00 -1.178388106831544313e+01 3.250228654527716543e+01
8.305747255467883505e+00 -1.176128383039182879e+01 3.182300832636492416e+01
9.408214595605903341e+00 -1.093963180365159182e+01 2.995189076847329446e+01
1.155316967627418734e+01 -8.524282691456718908e+00 2.757246095950393894e+01
1.153264202779651448e+01 -8.069416265718226455e+00 2.710997440814556114e+01
1.267332441507096163e+01 -5.666995776731072354e+00 2.725330750810485725e+01
1.200600525833756294e+01 -2.457331758306941616e+00 2.653050775384975069e+01
9.207065399772192293e+00 -1.149605044126677278e+01 3.124781900451206340e+01
8.801590873415014116e+00 -1.164493852908864469e+01 3.160997866520401089e+01
1.144261106393794947e+01 -9.188662820020597977e+00 2.822600427839936543e+01
1.061887016473459333e+01 -1.025349374999999874e+01 2.920928886376654177e+01
1.118157462032167260e+01 -9.647299692014621897e+00 2.862520794134903568e+01
1.209342941803323690e+01 -7.392121934911147108e+00 2.708908929243773045e+01
1.260031659157341544e+01 -4.817210606954557051e+00 2.715670689225638768e+01
1.248331804094346076e+01 -3.484589233350128268e+00 2.706316670419342429e+01
1.240154742091618978e+01 -3.970259662902428044e+00 2.693900793729666532e+01
1.224129038186523566e+01 -2.938218882410525090e+00 2.678758457970680595e+01
1.177056982253087902e+01 -1.974406544219045934e+00 2.627328437835930330e+01
8.789294519440407072e+00 -1.181287203589848112e+01 3.219217746857069073e+01
1.161895051112371569e+01 -8.946881749936597572e+00 2.806257850886693106e+01
1.027848444351476864e+01 -1.052284510196819056e+01 2.954553113218233307e+01
9.938115474312086306e+00 -1.079219645619815182e+01 2.988177387376421379e+01
1.260906422453505016e+01 -4.460017633011438498e+00 2.717435610745964070e+01
1.196928546865489906e+01 -8.167496875000001211e+00 2.750324635123702066e+01
1.265817396470402123e+01 -6.388867160951448909e+00 2.734404757200552893e+01
1.239046064779146583e+01 -7.064523685393769625e+00 2.722909254497204401e+01
9.558845065474891101e+00 -1.140377486621252778e+01 3.110590854187296728e+01
9.763937312945033753e+00 -1.103390021582216640e+01 3.033189228133059601e+01
1.224400969233522751e+01 -8.411423268327069991e+00 2.795908156298177261e+01
1.174880099881371720e+01 -9.495604851397182244e+00 2.881011627147001164e+01
1.210142806222847867e+01 -9.012073779922685546e+00 2.848323771325233977e+01
1.263225083959012807e+01 -6.757882446973018098e+00 2.737205843208066014e+01
1.264059337773778857e+01 -2.933611740264244094e+00 2.724867562763733986e+01
1.272488523717562892e+01 -4.029903812229695070e+00 2.733826338954428437e+01
1.281407220372045153e+01 -3.428142906595989192e+00 2.744549392128495313e+01
1.213842162452510820e+01 -1.971961836512012178e+00 2.669508234925751466e+01
1.252477940446992477e+01 -2.390279092187016730e+00 2.712702459013875966e+01
9.390177255351188634e+00 -1.163605499633121987e+01 3.180873862580758527e+01
9.589812329940794910e+00 -1.127560277713615555e+01 3.078201013530509655e+01
1.133663435409622799e+01 -1.002823265913846207e+01 2.930189418210542129e+01
1.084184298832708571e+01 -1.051391203696515042e+01 2.982921934162114752e+01
1.038796072162342377e+01 -1.087302731649575804e+01 3.027749780390803735e+01
1.161838708484952321e+01 -9.725022893721227746e+00 2.900992359338669146e+01
1.253399791731366442e+01 -7.561896875000000406e+00 2.757364774356821968e+01
1.313856970840791227e+01 -5.060120934991808817e+00 2.782961292696726829e+01
1.307699560061980293e+01 -5.848805639703667403e+00 2.775803838677665070e+01
1.111131709359131392e+01 -1.031753694252300413e+01 2.963317065107960246e+01
1.239733628256457898e+01 -8.209033076505917847e+00 2.792309165299198170e+01
1.251846708149960996e+01 -8.655100999612718837e+00 2.841445481597092737e+01
1.306931566985032234e+01 -6.209778203781447736e+00 2.780332426431854387e+01
1.296626887780311854e+01 -4.574783510712186363e+00 2.761318597591896307e+01
1.301759826905536244e+01 -6.947956465725624753e+00 2.785958970244836763e+01
1.303927473223323474e+01 -2.929003022258326538e+00 2.770906668928051886e+01
1.316134725644567283e+01 -3.544489360438084269e+00 2.784569267004490101e+01
1.240841598640904841e+01 -1.522058194533183251e+00 2.701645343562352863e+01
1.015629696044953967e+01 -1.119522627598639808e+01 3.087773255073828338e+01
1.009431194713710767e+01 -1.145167627561339252e+01 3.152578652594571196e+01
1.106484534479264958e+01 -1.077433531529774591e+01 3.044916287270810429e+01
1.258420803628843565e+01 -9.077298911344019672e+00 2.890411779460698583e+01
1.282543163355910920e+01 -8.250569278011830932e+00 2.834293931400925715e+01
1.291695405840214050e+01 -7.819306302081345805e+00 2.811044683847716996e+01
1.205520089073775125e+01 -9.802737499999999216e+00 2.939459676741779148e+01
1.295227171389373311e+01 -7.483777068770778307e+00 2.799428664219785645e+01
1.330953575560088353e+01 -5.545384036908606262e+00 2.804608054739753698e+01
1.306450038856212537e+01 -2.450304051854370613e+00 2.774880002771155318e+01
1.328341904062188839e+01 -4.159942566703104028e+00 2.798234410778438885e+01
1.280779987162219591e+01 -1.843208610642859124e+00 2.746590381105100320e+01
1.083785642043661035e+01 -1.095385576963516527e+01 3.067321341738137974e+01
1.160439905896966195e+01 -1.038165945937539725e+01 3.005757753964111245e+01
1.256088063803655963e+01 -9.472979705592614152e+00 2.936005101692331110e+01
1.279298547817676557e+01 -8.898823216727898000e+00 2.886991265809897200e+01
1.352698678200414584e+01 -5.107144223358212720e+00 2.828406341279367453e+01
1.335463133899755306e+01 -4.621797299936265091e+00 2.806759020285226569e+01
1.348053127779012961e+01 -6.030548932341651458e+00 2.826258603963124116e+01
1.276212583822930924e+01 -1.263208515543409627e+00 2.742878660647146205e+01
1.072222583521919503e+01 -1.111493110929637673e+01 3.097336333210172299e+01
1.337030431179675816e+01 -7.405791179873641994e+00 2.841458508873551736e+01
1.329971078579371202e+01 -8.076562031971926459e+00 2.864694059490428657e+01
1.340288570354097963e+01 -7.137964325368218788e+00 2.834702886386486398e+01
1.363454707855688675e+01 -6.679376188574911666e+00 2.854872236271908292e+01
1.343779343672965787e+01 -2.924385369253472255e+00 2.816928702813754626e+01
1.360059702371997759e+01 -3.745016949517607330e+00 2.835153500143793792e+01
1.330595885354292385e+01 -1.837872892268058944e+00 2.804114608975716649e+01
1.309058322576761846e+01 -1.296557335695996960e+00 2.780449942036823785e+01
1.095888244628235419e+01 -1.126713869595986672e+01 3.150736932891305742e+01
1.209679957896077518e+01 -1.044569025099159987e+01 3.048137740402280471e+01
1.128780946805527385e+01 -1.103468437499999943e+01 3.106893088357960053e+01
1.231189040799034906e+01 -9.995423869605014389e+00 2.987813222866786589e+01
1.306757249357879580e+01 -9.142597762701566211e+00 2.932546945811864703e+01
1.325393635087450228e+01 -8.292142301653582237e+00 2.876314975162753740e+01
1.252396007758028240e+01 -9.827863599407695716e+00 2.979191851192260643e+01
1.383862565415978096e+01 -5.725550178443553406e+00 2.866825463069556790e+01
1.362094731999152941e+01 -4.233452685974775420e+00 2.837740994490210511e+01
1.374303014898369213e+01 -4.668813853547856496e+00 2.852205320849845904e+01
1.362095514225188353e+01 -2.378465983083057456e+00 2.839285093921266423e+01
1.337469621324781421e+01 -8.738442858327687190e+00 2.925436614846725902e+01
1.373554568631726092e+01 -7.830555090551232666e+00 2.900917581272804568e+01
1.385658210977769755e+01 -6.116180233091616181e+00 2.871366946868973358e+01
1.384226486560097058e+01 -5.160247784435758156e+00 2.865346408262597677e+01
1.380411634703367874e+01 -1.832513813891911481e+00 2.861641445549707541e+01
1.391774364541320708e+01 -3.330081272311721019e+00 2.872068976879335267e+01
1.295913361088429738e+01 -8.013998745267970625e-01 2.766680341851472846e+01
1.256852883688651978e+01 -1.018806695513512928e+01 3.036156057852548429e+01
1.340094344991256570e+01 -9.339067667564462383e+00 2.983980855387294540e+01
1.368231225655227590e+01 -8.333695639236742281e+00 2.918319352988470783e+01
1.378881606416726768e+01 -7.328240723386359790e+00 2.883526680790209085e+01
1.402457570985079549e+01 -4.022983121148053343e+00 2.884858578214356228e+01
1.383631214634056050e+01 -2.919753709396251562e+00 2.862952376867241000e+01
1.401949702340233905e+01 -2.373811685325690757e+00 2.885311284386481745e+01
1.358873681831886948e+01 -1.291215110911970498e+00 2.837973789926697421e+01
1.337335000000000029e+01 -7.494257512715213343e-01 2.814307546677446936e+01
1.350886018034426428e+01 -9.129996968021091064e+00 2.971307833948241850e+01
1.299313726701776694e+01 -9.853011487972612059e+00 3.018958481669169913e+01
1.423271191453629037e+01 -6.201825467096035105e+00 2.916484783161479299e+01
1.419563799857464126e+01 -5.420481725535733375e+00 2.907392864647626496e+01
1.413140884128823771e+01 -4.715824499746763543e+00 2.897650813375442169e+01
1.408038732320658148e+01 -8.520208408065139238e+00 2.970339429723058799e+01
1.415302439160019254e+01 -7.459626307634589004e+00 2.926495559850705419e+01
1.416465079880390299e+01 -8.246971608726335390e+00 2.963383540123804138e+01
1.418192370824758974e+01 -7.111291772969903668e+00 2.925624280281436995e+01
1.423487783565277631e+01 -2.915107393805024483e+00 2.908983045070332096e+01
1.445932133690351939e+01 -3.546614793096667384e+00 2.935502495450483451e+01
1.403260359757003251e+01 -1.248749606990003924e+00 2.886989402893700429e+01
1.425875736124203286e+01 -1.816906237169170435e+00 2.911842868748792412e+01
1.395035134441975977e+01 -9.117391777296083077e+00 3.010085084827677804e+01
1.373455413102611189e+01 -9.535679058761838078e+00 3.035452427547351917e+01
1.468375752491919428e+01 -4.178068337364448936e+00 2.962024384855408954e+01
1.449567664589785565e+01 -2.412064301156727986e+00 2.937881681098319930e+01
1.451767654644984162e+01 -7.591464408290521604e+00 2.969517300130160109e+01
1.457556473107151263e+01 -6.893981709687064807e+00 2.967772361896173550e+01
1.458102015569668808e+01 -5.701513161365450166e+00 2.954826719506942112e+01
1.455195497851847719e+01 -5.115227088204955308e+00 2.947975785552439021e+01
1.451978564051716347e+01 -4.762832260678575125e+00 2.943097564232102314e+01
1.466495279146040609e+01 -2.887790999680964976e+00 2.956955700952284616e+01
1.464650111182699099e+01 -8.160339860119769639e+00 3.008399187069471736e+01
1.447853742903694751e+01 -8.706753073333992177e+00 3.022369560086220375e+01
1.460948587963007483e+01 -6.287612046468246341e+00 2.961679899153661211e+01
1.488951805102076698e+01 -3.519304822482633099e+00 2.983492084151400192e+01
1.484069086298686457e+01 -7.195969239795826589e+00 3.001513880118433875e+01
1.488209893139419115e+01 -7.723393955508559117e+00 3.012512488428426138e+01
1.490832499999999960e+01 -4.809855460890342549e+00 2.988564750416095706e+01
1.496905786939304406e+01 -6.676686258778267380e+00 3.009897894000363650e+01
1.489145801846230910e+01 -5.888659044619124039e+00 2.992810552378485411e+01
1.505940586785160207e+01 -5.359221626789061332e+00 3.009704063198811497e+01
1.509841359501449531e+01 -3.919165305433175206e+00 3.007747482611454970e+01
1.512828638618325350e+01 -8.073725025037086667e+00 3.053405857339872043e+01
1.498585196745544401e+01 -6.373332076330125773e+00 3.006842219911724001e+01
1.520412184523911669e+01 -4.403755224710322658e+00 3.020672596014646061e+01
1.521081354582662648e+01 -5.909656101315708732e+00 3.030891856630574921e+01
1.529761186477309565e+01 -3.428986756809107916e+00 3.028870700764585777e+01
1.532633729053314120e+01 -4.824783669151340604e+00 3.035837976199426791e+01
1.536201252751763136e+01 -6.459136220764582603e+00 3.052052923171345000e+01
1.547756152759885495e+01 -5.374771745637969111e+00 3.057000450913541911e+01
1.549994499025789985e+01 -3.997534731628233473e+00 3.052783839026988133e+01
1.574430898611420027e+01 -4.839694343581278702e+00 3.083108985614123654e+01
1.577116863112780543e+01 -6.065705387782277747e+00 3.095284590446132000e+01
1.585081771363322289e+01 -5.430826692391315547e+00 3.099534887686614226e+01
1.596729799792120730e+01 -4.182292952846765388e+00 3.106181998842425074e+01
-5.674585278789720633e+00 5.921754882771273820e+00 3.902405989848725198e+01
-6.171017953773194620e+00 6.020697187202842748e+00 3.839595964430625941e+01
-5.849303676088116966e+00 5.457391821588626790e+00 3.881455617452022011e+01
-5.860549272602829873e+00 6.503964046061607718e+00 3.877611707225380400e+01
-5.182877274178383509e+00 5.782057245251432498e+00 3.949446571575879972e+01
-5.368562754762717049e+00 6.364602479178473438e+00 3.924688551149665017e+01
-6.310898183514089155e+00 6.649803870340286416e+00 3.820477668216727096e+01
-6.046270239966688109e+00 7.084171796007978195e+00 3.852822017514235142e+01
-5.554431952885803270e+00 6.946653358306710935e+00 3.899905352570616657e+01
-5.062478477161395318e+00 6.807351536136732051e+00 3.946977980711321266e+01
-4.876563398734351296e+00 6.224721731215383969e+00 3.971757951479692395e+01
-6.496779322008792157e+00 7.230013392009212225e+00 3.795632892538844061e+01
-4.570362616642098530e+00 6.667232705695318451e+00 3.994061074652641707e+01
-5.740078738583058282e+00 7.527028944037713387e+00 3.875117970722287453e+01
-6.232112986622526662e+00 7.664767095034624056e+00 3.828004973624583585e+01
-5.248312779044273846e+00 7.389338692768257388e+00 3.922198986565931023e+01
-4.756393081389881594e+00 7.250100694513078814e+00 3.969267391852037719e+01
-6.643298831986533592e+00 7.768255527049467979e+00 3.787201535958815413e+01
-4.968887348932948811e+00 7.755759118260912466e+00 3.945743597402917402e+01
-5.367613618560601374e+00 8.015543924756375560e+00 3.906488060377071037e+01
-5.859177569478227099e+00 8.153706137714671343e+00 3.859508182271051169e+01
-4.263794981933444639e+00 7.110281742121927984e+00 4.016390826678418335e+01
-6.525490969448757284e+00 8.175868484980949091e+00 3.811717570499236274e+01
-4.476786492156189290e+00 7.616849194660581190e+00 3.992828739866400412e+01
-4.689453517516450454e+00 8.122180409083609831e+00 3.969287416173685301e+01
-4.902045348007205483e+00 8.625875945486738416e+00 3.945688003950122891e+01
-5.486910782818966936e+00 8.641737568415260640e+00 3.890958041653487953e+01
-6.884547789517976746e+00 8.233694936533405340e+00 3.775184733528629977e+01
-7.055065197564417190e+00 7.871884568057965659e+00 3.746376622410893731e+01
-3.891912291675095226e+00 7.592912118546138345e+00 4.047175824160704138e+01
-6.059642581910408055e+00 8.786119648532881854e+00 3.851092163108791055e+01
-6.818763379540458303e+00 8.686786540324101580e+00 3.795564433899586732e+01
-4.410461744397355943e+00 8.484412060959014568e+00 3.992427725579099018e+01
-6.539439733380990383e+00 9.052661957101108214e+00 3.819196187028762779e+01
-7.289000084661204859e+00 8.586270711570801240e+00 3.742618304317879563e+01
-4.011688488665669183e+00 8.219460669830313648e+00 4.031384105603240187e+01
-4.623213774067007620e+00 8.988332791946781697e+00 3.968830829500927138e+01
-5.114690162211148916e+00 9.129683735438124614e+00 3.922407136039419839e+01
-7.466227647176558513e+00 7.975355065513844544e+00 3.705663567799631153e+01
-5.687166900860779251e+00 9.274050568682310924e+00 3.882578983445323928e+01
-6.260105568313317548e+00 9.418534170171035669e+00 3.842831102218660533e+01
-7.111726999758546164e+00 9.197163766194021761e+00 3.779716719632317989e+01
-4.728821862243759888e+00 9.449046297089362056e+00 3.955396562841210795e+01
-3.519963964512301313e+00 8.075612850711216595e+00 4.078020544712194351e+01
-4.131463349786197448e+00 8.846086388452864213e+00 4.015608089359643884e+01
-6.832727870525616254e+00 9.562932592530502873e+00 3.803362097313809898e+01
-4.237229142089407041e+00 9.307631545660974837e+00 4.001776838683161230e+01
-5.524702312264319737e+00 9.704072926541691402e+00 3.907800570785201444e+01
-7.699040423808768629e+00 9.199417947509678228e+00 3.716991036315577190e+01
-5.207430049348603873e+00 9.950180756957745842e+00 3.934661404422289621e+01
-3.640057691191486366e+00 8.702127725337913233e+00 4.062250977378431571e+01
-6.039175048389050282e+00 9.788163848839019465e+00 3.870830463435395075e+01
-6.479059836153865604e+00 9.944463185006270578e+00 3.841860757491012635e+01
-7.404431700279890727e+00 9.707098101821419078e+00 3.763081602582590790e+01
-4.761416639972857467e+00 9.945589313570179613e+00 3.964432309887684625e+01
-4.342992623239181782e+00 9.768358078221162089e+00 3.988445626130942401e+01
-3.687482693728817651e+00 9.579432146489590849e+00 4.050295606028093687e+01
-3.957086967871469962e+00 1.008771832797333445e+01 4.021552805450181722e+01
-3.148137118258759859e+00 8.558141840997786076e+00 4.108907409227465024e+01
-5.934697072468707368e+00 1.027844392350775848e+01 3.893627471139668472e+01
-7.051353521408397995e+00 1.008861828338728550e+01 3.801500109303540853e+01
-4.912452111618963890e+00 1.039373354947221451e+01 3.964636233321764536e+01
-3.417940384652901731e+00 9.068960066689943034e+00 4.079620294935769920e+01
-7.975642387143993872e+00 9.827484610392588138e+00 3.717613065577184273e+01
-4.434360817603260507e+00 1.024059412025023441e+01 3.993088096786522101e+01
-5.390171367024018778e+00 1.054675350190044725e+01 3.936313991366098008e+01
-2.834063553076647590e+00 7.979407201457330068e+00 4.132951638178032283e+01
-2.722973680182971368e+00 9.276899927567125559e+00 4.101034926806544689e+01
-2.939262137578302347e+00 7.372945559684395356e+00 4.123296226115557772e+01
-2.520117675550392455e+00 7.401062398390746644e+00 4.157023619487993216e+01
-6.698001068557847937e+00 1.047039268523444910e+01 3.839945090586189025e+01
-7.767152437091803918e+00 1.015731745432296229e+01 3.753790865268085497e+01
-5.039144554162149348e+00 1.092527992656897240e+01 3.951268785386678672e+01
-3.350919835421169335e+00 9.999151096531925020e+00 4.049542478653423672e+01
-2.593537847878824465e+00 8.557753460740379126e+00 4.130576225360185560e+01
-2.592065216515401449e+00 8.828525004891005779e+00 4.122340545849315419e+01
-3.140668662868649541e+00 9.533777990935238478e+00 4.074625560155190840e+01
-7.397324029368674836e+00 1.066005802222246146e+01 3.797728913199885881e+01
-4.226989913392397824e+00 1.058516175188882436e+01 4.000424500711008591e+01
-3.278377021693556603e+00 1.033221201515887344e+01 4.039360569170631265e+01
-1.884097646744135490e+00 7.863244517749643059e+00 4.172436507966530428e+01
-5.867242868910615528e+00 1.069956659493547235e+01 3.907399357420082708e+01
-6.344395785376466534e+00 1.085240600250178211e+01 3.878414636610141031e+01
-4.496809350404017636e+00 1.108245083931890917e+01 3.979442103111011164e+01
-5.293268133110887952e+00 1.133754461298754102e+01 3.931532701723762102e+01
-2.039123261915154472e+00 8.557377448816627208e+00 4.152237898179157582e+01
-2.744778480388673891e+00 9.909586789815234553e+00 4.077696388006369688e+01
-2.036571668695204007e+00 9.098625598666936654e+00 4.135766205268815554e+01
-5.818742359010340870e+00 1.109501981804659643e+01 3.904975452795510904e+01
-6.846886672990808442e+00 1.098388142852526705e+01 3.847907752938854742e+01
-8.130558243818120090e+00 1.060838006508946485e+01 3.744499918890040391e+01
-2.138328347907132443e+00 9.819322515348556379e+00 4.106045384899589834e+01
-7.349537213116800416e+00 1.111539851664208989e+01 3.817400683670167894e+01
-7.851943059099938615e+00 1.124685034934911165e+01 3.786916321141173825e+01
-4.767001158962672847e+00 1.158043102669392610e+01 3.958136257386416190e+01
-3.629002928705635345e+00 1.127671007228805067e+01 4.004938147994835163e+01
-4.197905489758887221e+00 1.142854458548839958e+01 3.981727559749142387e+01
-2.599950489169208456e+00 1.057659990965121999e+01 4.057160764279321086e+01
-1.484296620775663156e+00 8.557013593133655505e+00 4.173916101351852603e+01
-6.781267590158131853e+00 1.139221442602453926e+01 3.869387962125007618e+01
-6.314718402031970435e+00 1.157651464272021080e+01 3.892409573585806015e+01
-3.059399961018121505e+00 1.112468858861567078e+01 4.028252936465614908e+01
-1.532148733154301556e+00 9.729135263155836100e+00 4.134335877665579062e+01
-5.344641506226124328e+00 1.175885865319051682e+01 3.936759602651854095e+01
-4.140079060759734197e+00 1.172202181982481761e+01 3.976936945273774171e+01
-2.490545755915303250e+00 1.097286692469512737e+01 4.051586311254195039e+01
-1.481419959452740853e+00 9.368558198433529327e+00 4.149189520050786939e+01
-1.921498239991110912e+00 1.082099317960991414e+01 4.074961496440828768e+01
-7.548252872859126938e+00 1.168563478158919899e+01 3.826655524719736690e+01
-5.922567266828324684e+00 1.193736876902210398e+01 3.915385058504197247e+01
-3.509796673784055354e+00 1.186361971319489683e+01 3.995346650468208338e+01
-2.559981531699983215e+00 1.161079287180334774e+01 4.034180258335602076e+01
-1.589317626086952373e+00 1.042676064194694874e+01 4.103972918894584154e+01
-7.218198430546721944e+00 1.193207926507452932e+01 3.860369227880831033e+01
-6.500187079528131129e+00 1.211578087965947681e+01 3.894033066716173863e+01
-5.124852678095320080e+00 1.204055703902207064e+01 3.950818671482289801e+01
-4.652489379625409427e+00 1.257784020165161465e+01 3.967270488807646700e+01
-2.241814364352972877e+00 1.121605112394147419e+01 4.054545575558528014e+01
-2.878319644787283860e+00 1.200553485067633730e+01 4.013850597617489768e+01
-1.136052926454524048e+00 9.025164476685281656e+00 4.173161845583274498e+01
-9.254157157348056328e-01 9.638903192986177260e+00 4.162638869127160746e+01
-1.257465909965195028e+00 1.003291885032674102e+01 4.133315531671372156e+01
-4.061387617056011479e+00 1.238717313321072488e+01 3.982772473416729753e+01
-2.238561900611047317e+00 1.190836935375155470e+01 4.036268625037084234e+01
-1.350378100855928798e+00 1.078756979647144476e+01 4.097698461829239136e+01
-1.761024215395129211e+00 1.131609538677786553e+01 4.066841894818982439e+01
-1.361699554582205929e+00 1.099580137428305626e+01 4.087805209238466375e+01
-7.077922326300305045e+00 1.229422526205762090e+01 3.872686788687929749e+01
-5.480438272392427201e+00 1.250005512085244597e+01 3.943511475340383754e+01
-7.655743607300282250e+00 1.247269249997487073e+01 3.851346230670686310e+01
-6.444577227905568861e+00 1.279712170942635296e+01 3.907896327919037560e+01
-3.470284164791102910e+00 1.219649714505582416e+01 3.998292494736780611e+01
-7.798727601779070762e-01 1.075412533438619000e+01 4.120696586803594386e+01
-7.049851632497771803e+00 1.263499222430375113e+01 3.879622751584390983e+01
-5.243695787370985073e+00 1.276853279505201400e+01 3.951786934071828483e+01
-8.055984903612898762e+00 1.215180786019743664e+01 3.809562217043778531e+01
-5.834968780439536928e+00 1.295923923407789147e+01 3.936209937295261341e+01
-3.422254049486576744e+00 1.255018556216282732e+01 4.007545559947652691e+01
-2.196904100483043187e+00 1.215783016078688483e+01 4.031788500414261733e+01
-1.598779661066835223e+00 1.181119485979192696e+01 4.058729905867446064e+01
-9.584332940719132443e-01 1.171392795627120620e+01 4.081242779928503950e+01
-8.002816608590319625e-01 1.117046818408288544e+01 4.100797188398702531e+01
-4.589146992155229476e+00 1.304966786315837801e+01 3.979528625032729394e+01
-6.978765242623328646e+00 1.346287623384902865e+01 3.895311392055458555e+01
-3.966371447390070859e+00 1.309489615633919968e+01 4.001242335018496732e+01
-5.211760149506575956e+00 1.300446775857348136e+01 3.957883788463628605e+01
-7.370500032603172436e+00 1.312330181849956112e+01 3.874028095811494410e+01
-2.713549773198090431e+00 1.284215744360176537e+01 4.027832802333084317e+01
-1.515458381515015773e+00 1.231011844844189085e+01 4.049838010844707270e+01
-2.392915500837943799e-01 1.134500942256292966e+01 4.113855836093652840e+01
-3.183304840019607340e-01 1.161669188017381593e+01 4.104079295483685286e+01
-6.408863509619316723e+00 1.321098873118826056e+01 3.915803899528646070e+01
-7.999964688070295260e+00 1.305448717082530941e+01 3.846255466873103757e+01
-3.340026565844465001e+00 1.296854282485614895e+01 4.014524308339025538e+01
-2.087635675189166484e+00 1.271587807290428707e+01 4.041214738849114951e+01
-4.556817212407753281e+00 1.332823206612380318e+01 3.987760716450667786e+01
-8.327403932182950719e-01 1.246267897618261422e+01 4.068425123396314547e+01
-4.477689635686941672e-01 1.214815869600147735e+01 4.087911677275806710e+01
-6.557576656201091758e+00 1.382715059285718162e+01 3.934918605212835274e+01
-7.548922606458401852e+00 1.371484587598454574e+01 3.874915200800806048e+01
-5.148060299875278467e+00 1.356180976258814397e+01 3.974292303927821735e+01
-4.507531288488539900e+00 1.363897523941679069e+01 4.008268052658657865e+01
-6.196062746299270785e+00 1.339296742517666239e+01 3.935328155063961475e+01
-5.738204642021437429e+00 1.379488107273856023e+01 3.961194381752399352e+01
-3.324080713213711125e+00 1.318615905758623619e+01 4.021606441447752189e+01
-3.845189722483080441e+00 1.385765753731518934e+01 4.034956677663397073e+01
-2.681372491080343146e+00 1.327744094205853642e+01 4.042642977531394166e+01
-1.460607852600807721e+00 1.258936723284208092e+01 4.054833917402775256e+01
3.214750027258189702e-01 1.151949336206524421e+01 4.126867453544161179e+01
-6.305783465946862565e-02 1.183378982509536392e+01 4.107390752318449501e+01
-3.243231373340444978e+00 1.369481059984854454e+01 4.044486912294149761e+01
-2.038098756457725980e+00 1.336876535355108686e+01 4.063574486508268535e+01
-1.435850415988457529e+00 1.291605064491495902e+01 4.066016871929625154e+01
-6.918252221372808819e+00 1.426090097531847078e+01 3.934737887340215678e+01
-7.508316877530156752e+00 1.424678173718188390e+01 3.901312519168882176e+01
-8.344417872698221217e+00 1.363663370401670250e+01 3.840587773288124396e+01
-6.328451758338396793e+00 1.402791628878887842e+01 3.947982554419385082e+01
-4.446952390527746601e+00 1.402044584069092714e+01 4.025431749742686094e+01
-2.976358946789280924e-01 1.263630785398382095e+01 4.089182834801645328e+01
8.704963912802141102e-02 1.232182760826323431e+01 4.108659905585782468e+01
-5.048922592963786649e+00 1.418328397391480422e+01 4.015905076528438400e+01
-8.118764909116325867e+00 1.396665002817712953e+01 3.854714735452628105e+01
-5.672191769277938000e+00 1.420920007940874186e+01 3.988840402059172874e+01
-4.469119003518331468e+00 1.425551243597719164e+01 4.039719270277603869e+01
-2.640464804727586934e+00 1.353173788403866595e+01 4.054032489343134671e+01
6.500904778692970787e-01 1.206543697197685283e+01 4.135048675940055318e+01
-8.098834752841598927e+00 1.423263087002779237e+01 3.867863390219887521e+01
-6.295348454736509503e+00 1.423506833799313753e+01 3.961789465545163580e+01
-3.889488706666283768e+00 1.432760533986465923e+01 4.063559441990067711e+01
-1.542100902823315467e+00 1.349123082149175445e+01 4.084795559832049605e+01
-5.731121573976438732e-01 1.292809532031818875e+01 4.095162279576927489e+01
8.898456387391574518e-01 1.175202532114447251e+01 4.144491818414605433e+01
-7.444851879835263198e+00 1.477593608386146862e+01 3.904610962906130567e+01
-7.957985664286060690e+00 1.474588294627006846e+01 3.875508151603075646e+01
-5.597253362388959097e+00 1.448063833764084407e+01 3.994791777737141558e+01
-3.310489136774179553e+00 1.439952014675198200e+01 4.087430235412921320e+01
-2.674320370040720096e+00 1.388438300941347237e+01 4.075497419016919309e+01
-1.854975670064181292e+00 1.379966122026379871e+01 4.098395798425531922e+01
2.371581668001868926e-01 1.280985027237515084e+01 4.109874259805711461e+01
-6.687669889510718946e+00 1.507472445639231395e+01 3.952658283256523930e+01
-7.341741270520818041e+00 1.496510764215668843e+01 3.922567533185421240e+01
-4.417683693044715199e+00 1.483547614021972727e+01 4.057914613392564718e+01
-4.968044824769269674e+00 1.505330719201408307e+01 4.043169311631497465e+01
-3.864558407286521113e+00 1.461740119771399016e+01 4.072677977393839654e+01
-1.046363916043951070e+00 1.361362405051508873e+01 4.105991092817946964e+01
-3.137541683668884640e-01 1.339311190693585552e+01 4.121776590587235489e+01
9.787202139015677149e-01 1.261140900897171413e+01 4.143157992855460492e+01
-6.145776867347557904e+00 1.477763674989872023e+01 3.973711804307798445e+01
-8.385857503821693371e+00 1.510467475676882287e+01 3.851129146303698292e+01
-8.688701809529582931e+00 1.421847378418012298e+01 3.834455032749094272e+01
-7.971441199941132538e+00 1.529073494436748781e+01 3.874621044063714947e+01
-5.565145847763752762e+00 1.483655088681577006e+01 4.014681780343543238e+01
-3.899481220190440300e+00 1.499705857723148306e+01 4.094215206128973250e+01
-2.221172897207107866e+00 1.418128531929950142e+01 4.110876468136034134e+01
1.459976883790138569e+00 1.198462830787805267e+01 4.162085945860849279e+01
-8.800275311699946812e+00 1.491861456562406829e+01 3.827648648922605901e+01
-2.704066076489441972e+00 1.448647867775524389e+01 4.114272108344447076e+01
-1.672498034674035017e+00 1.422997405028562845e+01 4.133172635116943638e+01
7.722963514591346668e-01 1.298352299539178212e+01 4.130562836314823727e+01
-6.635804559762628507e+00 1.554935513602681496e+01 3.979283890931611722e+01
-7.226305151950681349e+00 1.537168957105490108e+01 3.931646400955303022e+01
-7.764845365620102413e+00 1.566853408063528619e+01 3.910671495522812080e+01
-5.519240767159971028e+00 1.527147200689482887e+01 4.028403567060048829e+01
-5.012589806708184881e+00 1.556029391216323710e+01 4.071940615726660440e+01
-3.164437697769699742e+00 1.481873321715376690e+01 4.116370714784768126e+01
-4.483770354343770137e+00 1.559545254580637419e+01 4.101107234522139322e+01
-5.501366852779788763e-01 1.373613643987147803e+01 4.127202912139824065e+01
6.271874615981682943e-01 1.350751530597255368e+01 4.149823011872390310e+01
1.283514977326273288e+00 1.145239430566798866e+01 4.173054659499471342e+01
1.955086396433585616e+00 1.280329399825757442e+01 4.174230109262487076e+01
-6.070544102268343067e+00 1.548967875083475576e+01 4.013636620092191265e+01
-8.911816031765562585e+00 1.561867634273796845e+01 3.821246337316109987e+01
-8.497390704494806712e+00 1.580473013943085192e+01 3.844766086236041502e+01
-3.500225673731625964e+00 1.525097382951632952e+01 4.125038278181976636e+01
-3.942762788355668846e+00 1.561578285436561409e+01 4.125528838500265039e+01
