4.441496785630496547e+00 2.079560714103691055e+01 3.211562892062714525e+01
5.728533653444804585e+00 1.885401311527163415e+01 3.035932895602995174e+01
5.362681492522983540e+00 1.926906231731499375e+01 3.065514833539661410e+01
6.090446842209156664e+00 1.849645232663648287e+01 3.017711226803381663e+01
6.508783078880502337e+00 1.763944470646926277e+01 2.952698621721586036e+01
6.902118244194777930e+00 1.794424160458383000e+01 3.002025059463622370e+01
6.632119913623224505e+00 1.846860016399483229e+01 3.041006421039740815e+01
6.401123872044107266e+00 2.175584126602087665e+01 3.775929110537714450e+01
6.350193584338769348e+00 2.144930523622222296e+01 3.888144410343122104e+01
5.227838294601392377e+00 2.226842426390107477e+01 3.672040548112430969e+01
4.621271582155439539e+00 2.253961108005456282e+01 3.647728201903031220e+01
3.973062945671831159e+00 2.284132641571846278e+01 3.678696603363725615e+01
5.835112973553312266e+00 2.199691678418436425e+01 3.696337256206712851e+01
4.049822926862177930e+00 2.269078357668753654e+01 3.613845038515939478e+01
4.697770201966053882e+00 2.238936370696002953e+01 3.582900705635019989e+01
4.789411777136833415e+00 2.201095670136092153e+01 3.446903551374206387e+01
4.784846737856002008e+00 2.178306828487807323e+01 3.397906907056006531e+01
4.731073683568574495e+00 2.033382608651909607e+01 3.164633919505994086e+01
5.313886336235243313e+00 1.971609402903462183e+01 3.110547422191289613e+01
5.707936867253538438e+00 1.990706987858185073e+01 3.152859031662212175e+01
5.327331836984690483e+00 2.029898149215818393e+01 3.186683698884295524e+01
5.847131452486909353e+00 2.015353367601316847e+01 3.195398110783009216e+01
6.203231290379923379e+00 1.985337382578445542e+01 3.173116398470109445e+01
5.908383313972175976e+00 1.918438016347383268e+01 3.077453332481639237e+01
6.360650516226754370e+00 1.899201301424582766e+01 3.079997422458868783e+01
6.682018928530371937e+00 1.927593976641145090e+01 3.126733582465717731e+01
7.012854077547174825e+00 1.872747387077249215e+01 3.088489998888181631e+01
7.283380507726250563e+00 1.820146382798926155e+01 3.049502039119565566e+01
4.566017266805220132e+00 2.108274281676355599e+01 3.254306896375464220e+01
4.776008286919334545e+00 2.132262675136848884e+01 3.299893449268011381e+01
4.935129574867205271e+00 1.752111284126110746e+01 2.872063106481181904e+01
5.365720277983449193e+00 1.732529006633030733e+01 2.871702577049183347e+01
6.696484708108353168e+00 1.721833020563317618e+01 2.919729491952685763e+01
6.088419453010447846e+00 1.951518583243490212e+01 3.119022212724403431e+01
6.934521573404741623e+00 2.111550115316185838e+01 3.910842553078056483e+01
6.442326880859953420e+00 2.172544609721892073e+01 3.720653672468414186e+01
6.959765353821030232e+00 2.126880739893425343e+01 3.854732187469134175e+01
5.268986480561836494e+00 2.223817320817400400e+01 3.616783586532149286e+01
5.876357175420234391e+00 2.196659352782484831e+01 3.641066870769294184e+01
6.483530396243527782e+00 2.169511659491616840e+01 3.665377494925586888e+01
5.384475077005382637e+00 2.201308130347107905e+01 3.519463186311671876e+01
5.379974017675353437e+00 2.182212621145514220e+01 3.464590461098247687e+01
5.326730938375200175e+00 2.212537996015383257e+01 3.568123914872973046e+01
4.946935718396423987e+00 2.069061475094422775e+01 3.220476374295046895e+01
5.679257182162110063e+00 2.051721578909315724e+01 3.237194595046634760e+01
5.175441716361997457e+00 2.092929051126031936e+01 3.266933335919960513e+01
6.317822673670361766e+00 2.019118682670704601e+01 3.227127202807777451e+01
5.735086215843796076e+00 2.082972848808226018e+01 3.284344887865869111e+01
7.275053450734468186e+00 1.903398275288838803e+01 3.134438259048550179e+01
6.909478687145302445e+00 1.943941251007898074e+01 3.164725170510329733e+01
7.664470948611518786e+00 1.845887663846212234e+01 3.096978879126706730e+01
7.177190255626715754e+00 1.741797270625010796e+01 2.963021501347150632e+01
7.375444397567553878e+00 1.774847846054261424e+01 3.008171616378792379e+01
8.053814437366648704e+00 1.788429793638294285e+01 3.059506874545268218e+01
7.459828548034933782e+00 1.689148294033448749e+01 2.923952892716553364e+01
7.657654586719750966e+00 1.722244121432969521e+01 2.969146751131867745e+01
6.432529904461627090e+00 2.052959523132257758e+01 3.281208734240631486e+01
6.788292478043643108e+00 2.016550247471203505e+01 3.255754814778659068e+01
6.947467878271623043e+00 1.975930883176082631e+01 3.211104803829574195e+01
5.956571781770306551e+00 2.101929175918872872e+01 3.323474184784762997e+01
5.075634038299727813e+00 2.147705320573786381e+01 3.354799337559506966e+01
5.366090976825534042e+00 2.117095577199745904e+01 3.311679773775981772e+01
6.985000158075742149e+00 2.142219090849130225e+01 3.798621630613557443e+01
5.917600312362868209e+00 2.193638564164004379e+01 3.585795870153500431e+01
6.524735002902299463e+00 2.166488887568068833e+01 3.610100913312130189e+01
5.975277575060092161e+00 2.182386242252360731e+01 3.537143926789374859e+01
5.375260099467721098e+00 2.162990859054139747e+01 3.409701161472504083e+01
5.970536436706931127e+00 2.163270678240409239e+01 3.482276882752496761e+01
7.485688045930401380e+00 1.925450345809792552e+01 3.179237297255280836e+01
7.313100223181420390e+00 1.994076520499538674e+01 3.261139010486933643e+01
7.696241552776976746e+00 1.947513303311856703e+01 3.224021305394759196e+01
4.681402674559349997e+00 1.717883727961672591e+01 2.832773080821633371e+01
7.187810366483191160e+00 1.654773377547263635e+01 2.881787890197249524e+01
6.930404625903775262e+00 2.040434573987634437e+01 3.298186481358652600e+01
6.547169898048449177e+00 2.086763293907362993e+01 3.335271178319576535e+01
7.547024653771228664e+00 2.015363601499592150e+01 3.311628061599873973e+01
7.164195627702309999e+00 2.061869435513239424e+01 3.348697547419341447e+01
5.961169318388271243e+00 2.124880773007028267e+01 3.372491359173919534e+01
5.965920828698973111e+00 2.144192990348382111e+01 3.427394922960080237e+01
6.930196762001828326e+00 2.150348260491892916e+01 3.746611296422177873e+01
6.929305446915559941e+00 2.149419520348861923e+01 3.698749817860549882e+01
6.565941426361898259e+00 2.163483004390374020e+01 3.554820610396516400e+01
7.867517251274061429e+00 1.878966783165962795e+01 3.142137021996102675e+01
8.078368860831830034e+00 1.901050403178807713e+01 3.186945795659707770e+01
7.991683774865938616e+00 1.966332312504552249e+01 3.275871190351693940e+01
8.189227355960378318e+00 1.927401256302501054e+01 3.234752026608332898e+01
8.792929598905915967e+00 1.933700204081164742e+01 3.293312826325381337e+01
8.287072487213446692e+00 1.985167628489704228e+01 3.327719809729879330e+01
8.682095862589559232e+00 1.907323845055530498e+01 3.245478080575382762e+01
9.306538166384422439e+00 1.879470961270831353e+01 3.266796221835855363e+01
8.571000302641468949e+00 1.880959309365108112e+01 3.197655327910822720e+01
9.044660316266984523e+00 1.870430655138522269e+01 3.228743614680499263e+01
8.459335652429523122e+00 1.854602808738370001e+01 3.149832377442579556e+01
8.255351498405973487e+00 1.821517629660175075e+01 3.104673129043662883e+01
9.071435306111920838e+00 1.845874668934221674e+01 3.196887964015003902e+01
6.556580098145536439e+00 2.125239352691883354e+01 3.445089325308439498e+01
6.551882329241091263e+00 2.106108699256935779e+01 3.390187852741004093e+01
7.780915133526985272e+00 2.036665289224153952e+01 3.362116463603542371e+01
8.397381938750786645e+00 2.011539015712500600e+01 3.375529545561996514e+01
8.903502974668519698e+00 1.960057993521590092e+01 3.341107332986503309e+01
7.354659542727853605e+00 2.077225067820981863e+01 3.418600326021559255e+01
7.514115904109000432e+00 2.116980226265643239e+01 3.769308562217936043e+01
7.459200244903547272e+00 2.125115517076766025e+01 3.717296931613321931e+01
7.322578708663889380e+00 2.130023089226611788e+01 3.645340187163656509e+01
7.569027888840836660e+00 2.108847437039663575e+01 3.821320085547878165e+01
6.561264590140028830e+00 2.144340365893921785e+01 3.499951633806321638e+01
9.320145168391420043e+00 1.941506537367141760e+01 3.355344131427814602e+01
9.580035709588836212e+00 1.833560787168712025e+01 3.228889295065719267e+01
7.992115028995011805e+00 2.042341814761575591e+01 3.407215056342691639e+01
7.018467846452066894e+00 2.113019132674618916e+01 3.473921218861627125e+01
7.185954269695720598e+00 2.134950165371105513e+01 3.573382673890404959e+01
7.055640106292742963e+00 2.128075187618365050e+01 3.521653648011259463e+01
7.937899502932284079e+00 2.097635392204920990e+01 3.737146831038109696e+01
7.806551060527757713e+00 2.106405116645193587e+01 3.591962244512944835e+01
7.984238256201289907e+00 2.099077499008128100e+01 3.639134728720455314e+01
7.989386689686847731e+00 2.099826117689825367e+01 3.687916250135339169e+01
7.675836796020353070e+00 2.099538887171295443e+01 3.540230572526245112e+01
9.014074646055542317e+00 1.986443127295796174e+01 3.388946586627141500e+01
7.545111826453051229e+00 2.092682226990863370e+01 3.488498252050165860e+01
8.034772903870102567e+00 2.057273398315327029e+01 3.455325145865472081e+01
8.053200391495323629e+00 2.069594229372422589e+01 3.504791820303949379e+01
8.524496716623403358e+00 2.021856152706960330e+01 3.422138808882754546e+01
9.022976460524830600e+00 2.002134545893705919e+01 3.448990790146200425e+01
8.533301191267224084e+00 2.037549912184790202e+01 3.482186061285176493e+01
8.441612188689127549e+00 2.072739471282180190e+01 3.717909304119063307e+01
8.519233075797380650e+00 2.074552645746172530e+01 3.658553617429640781e+01
8.367013946830933691e+00 2.063187692729119860e+01 3.543990793488148228e+01
9.031821837218959814e+00 2.017837725651893521e+01 3.509046724889190472e+01
8.893835109081722479e+00 2.045655209134123709e+01 3.747902273978223064e+01
8.971660316127966439e+00 2.047458780437425929e+01 3.688508933861240990e+01
8.427627398566899686e+00 2.077847270753066056e+01 3.610556145683101192e+01
9.040636410128435330e+00 2.033559996427943162e+01 3.569153536520907721e+01
9.847011921969048842e+00 1.958755367404720715e+01 3.479469507984052257e+01
9.506611467904964030e+00 1.996567572171995764e+01 3.540335922161573023e+01
9.049406427449234513e+00 2.049263261581160478e+01 3.629171182942409501e+01
9.548046685778066589e+00 2.008107287830472032e+01 3.592520956801688214e+01
-6.572031880640334833e+00 2.206972065108312009e+01 4.287130655451928618e+01
-6.011002093496491838e+00 2.208440539676345438e+01 4.308084720734252926e+01
-5.929076399754168669e+00 2.210386806097151791e+01 4.307438365957526116e+01
-6.007568343982499393e+00 2.224854265522358432e+01 4.276563883681128431e+01
-7.460014688648221259e+00 2.217555228087523389e+01 4.238075445141916475e+01
-7.150835210351634608e+00 2.212089284515214160e+01 4.258344022498704362e+01
-6.862423079845870966e+00 2.208816808359948070e+01 4.273834067592984809e+01
-6.200357315301467054e+00 2.226298854763671287e+01 4.266465589880141351e+01
-5.632221369416409829e+00 2.212160750003837961e+01 4.319730629130580013e+01
-5.533001300074465334e+00 2.214291216400306439e+01 4.321093170541588080e+01
-5.809010513314880164e+00 2.229112186951392260e+01 4.279306606255504875e+01
-7.740303000147104484e+00 2.224119605968328983e+01 4.217617520127689801e+01
-6.781006997914885481e+00 2.229970100269728661e+01 4.239957684584068431e+01
-7.399083302585134803e+00 2.240910187326281644e+01 4.199488282330212741e+01
-7.984209103349641623e+00 2.234392556036457123e+01 4.192167523488529213e+01
-5.236969835357877301e+00 2.221495188426723288e+01 4.323636687404354717e+01
-5.899634029340396602e+00 2.253472579123706865e+01 4.229540144752638042e+01
-7.855009618310775821e+00 2.265388311868318638e+01 4.140768921700528438e+01
-8.211816571906398465e+00 2.246632279850011216e+01 4.162981639370937614e+01
-6.929821416627628849e+00 2.264007734146338535e+01 4.174264092402278692e+01
-8.383930905902905906e+00 2.260111410367859364e+01 4.132943343606128650e+01
-5.982004015632423233e+00 2.252874069645650579e+01 4.226850228907743201e+01
-5.223788762914557182e+00 2.230975696416999909e+01 4.306502009803618591e+01
-5.800339404054197345e+00 2.255594878616546950e+01 4.230922598421324921e+01
-4.637779175068994064e+00 2.232841507076460275e+01 4.333716905622259219e+01
-6.368928111437042183e+00 2.255430005199468724e+01 4.208566402821799102e+01
-6.078432493657148328e+00 2.253597970810779927e+01 4.221799446329272598e+01
-5.791661928850293961e+00 2.282102288928337686e+01 4.182492337996187359e+01
-5.956422079051336915e+00 2.280916935821388947e+01 4.177093664226362790e+01
-4.638411271515993306e+00 2.245643463421126285e+01 4.309848693775568051e+01
-4.563846859428254632e+00 2.260169255451322101e+01 4.287183220691984786e+01
-5.230521447064574225e+00 2.237291278766390334e+01 4.295872775669366206e+01
-6.621031774927601532e+00 2.258533713389966380e+01 4.194459035911931011e+01
-7.157914196487372926e+00 2.276234289292427704e+01 4.144945198827886657e+01
-5.511197767881178322e+00 2.259705335515109326e+01 4.239161718577918947e+01
-4.641212070594357364e+00 2.235998419606538334e+01 4.328399494785231383e+01
-5.248959280921992487e+00 2.266240933090824683e+01 4.240836051869391810e+01
-6.461189734944179364e+00 2.287074736669226382e+01 4.148976756325845372e+01
-4.046234416099624198e+00 2.253996403790384306e+01 4.323816448699369630e+01
-4.915732875367563537e+00 2.277682159660396977e+01 4.236482505032252277e+01
-4.218788999820850982e+00 2.289976275916848891e+01 4.244343596825643061e+01
-4.065040023248785772e+00 2.278494431560450906e+01 4.274979326260638857e+01
-8.501226162802417718e+00 2.275589602081794638e+01 4.100224613481936586e+01
-7.303538369132894559e+00 2.287897351833393955e+01 4.118863840954117705e+01
-5.779038864481659488e+00 2.320643545407050468e+01 4.112081666793822166e+01
-6.120066530032333141e+00 2.303861337666591425e+01 4.130535402206191264e+01
-4.009156942413996561e+00 2.261255879751025333e+01 4.312478624696245078e+01
-4.021563587214140867e+00 2.272128440838374175e+01 4.290309156767018806e+01
-6.751823879611104751e+00 2.310416681349769874e+01 4.096809431425712944e+01
-8.089311784975187436e+00 2.296349433489394443e+01 4.075578776908543688e+01
-7.420138653920359317e+00 2.303387540296700209e+01 4.086253510386196552e+01
-5.267398312578001729e+00 2.295184153009576988e+01 4.185811327104364210e+01
-5.523274862634951710e+00 2.307916670414019222e+01 4.148939095343485661e+01
-4.570330746998399363e+00 2.307491381001492670e+01 4.193657272151541093e+01
-3.565697529669206833e+00 2.296839352854230754e+01 4.262758235889690894e+01
-6.265405724188111591e+00 2.315530340722309788e+01 4.104455145371212410e+01
-8.575356339145004725e+00 2.291243152702480401e+01 4.067576239654867010e+01
-7.343635951829614150e+00 2.320333802027161951e+01 4.053832358009316295e+01
-5.036571318336646286e+00 2.320529051309146240e+01 4.146013967505630404e+01
-3.478787553657940013e+00 2.284098552040786956e+01 4.293433151756156008e+01
-7.222669815174219465e+00 2.334346776045666161e+01 4.028683127333346192e+01
-6.144654188987774823e+00 2.329550504762507757e+01 4.079256878214444271e+01
-6.509928661102130754e+00 2.338449169139710548e+01 4.046461516763167765e+01
-8.540442723578991036e+00 2.307703465180346569e+01 4.035771872289021900e+01
-7.935147678554850259e+00 2.330245957025973524e+01 4.010862085497392115e+01
-8.463253274721143526e+00 2.324653331464930517e+01 4.003455207289160001e+01
-3.873636398461112851e+00 2.319792165123885752e+01 4.201488885286278929e+01
-4.339709482164712639e+00 2.332840616887130381e+01 4.153837707530410484e+01
-5.292186197216207866e+00 2.333268476960969551e+01 4.109141893180162697e+01
-5.841611952793827278e+00 2.339182496221968321e+01 4.070338716337692375e+01
-5.904145952051413460e+00 2.357709780044764614e+01 4.028621260097601464e+01
-8.322371072522095403e+00 2.340737935583642582e+01 3.974521270911105120e+01
-3.670275900352201859e+00 2.350205519676514498e+01 4.149759216069544010e+01
-4.805648308445081618e+00 2.345885325800670529e+01 4.106197099142305973e+01
-3.220542192834281892e+00 2.326654103678243146e+01 4.219902815075815283e+01
-3.066332300700702618e+00 2.315185402167308482e+01 4.250532953779127610e+01
-5.507769948257350556e+00 2.341813439126973506e+01 4.080927219206265022e+01
-7.012120577733607085e+00 2.350680003708180266e+01 4.001369792923885882e+01
-8.112550807480600312e+00 2.357080370435799210e+01 3.947210590805926955e+01
-7.514868587862872040e+00 2.362924536380095475e+01 3.956224956845463936e+01
-3.386134285390254295e+00 2.336946941336951511e+01 4.190258077723971297e+01
-4.135920344769350443e+00 2.363249123171316057e+01 4.102139486065150464e+01
-6.590577311782827685e+00 2.359417965175986254e+01 3.999491040576231882e+01
-6.186628822318291476e+00 2.372253919916845533e+01 3.987608957737268156e+01
-5.990196815042738265e+00 2.383192584489516719e+01 3.971239987604733557e+01
-5.236970784767414955e+00 2.362947023147152947e+01 4.049822507509993130e+01
-5.581190900468117277e+00 2.388988730080138723e+01 3.978334307202882059e+01
-7.133346069941516099e+00 2.382142251586524395e+01 3.930888679956813547e+01
-6.671204823032511833e+00 2.380381127972338717e+01 3.952531957738959534e+01
-7.880134722078520504e+00 2.371822103789307334e+01 3.923423215505408024e+01
-2.898000454200778897e+00 2.354124178427863257e+01 4.179009802796679196e+01
-3.467122712175378929e+00 2.380589100010269732e+01 4.098080016857393559e+01
-4.474228970322403853e+00 2.366982808892080925e+01 4.078277994499486425e+01
-4.762177622684475864e+00 2.378340969187488696e+01 4.040711421242318835e+01
-6.469264632194036579e+00 2.386806026022982152e+01 3.946574534962342540e+01
-5.247512240080375534e+00 2.391618422286365231e+01 3.988914333943298374e+01
-4.864185260078968120e+00 2.392037772747811175e+01 4.007000302384749091e+01
-6.751882346918772981e+00 2.401357357802645964e+01 3.905542694173594498e+01
-7.579181776897852885e+00 2.384694479326913452e+01 3.906101655826785901e+01
-4.143055689971598454e+00 2.388065016436875609e+01 4.050376643860125370e+01
-6.076232615448408758e+00 2.408670915096557863e+01 3.913868078997609956e+01
-5.258053470454119527e+00 2.420286362478897857e+01 3.928012685398364567e+01
-7.197952226694008360e+00 2.403912039519111588e+01 3.880745138577614028e+01
-2.939209263504785952e+00 2.375945267184169651e+01 4.132886512728988748e+01
-3.639367948911885975e+00 2.394868605390142946e+01 4.060282266166865384e+01
-4.287348925859137516e+00 2.393736316622361926e+01 4.031594956176969902e+01
-4.491574032563037555e+00 2.421115418228799143e+01 3.964193669564394185e+01
-6.512251695847977473e+00 2.418436098583045890e+01 3.874842354502692388e+01
-6.138734053678688518e+00 2.427194001887107788e+01 3.872161560896390853e+01
-5.754384456979514617e+00 2.433427241014922160e+01 3.876821078308235258e+01
-4.151851206368105451e+00 2.415140109102492261e+01 3.993309623211555959e+01
-2.980412553798959863e+00 2.393209273411745741e+01 4.095119186117010912e+01
-3.811726433547135251e+00 2.409157656968207917e+01 4.022459529154451729e+01
-3.136926309701456361e+00 2.407305119718722963e+01 4.058527609531600433e+01
-4.964225057455351475e+00 2.442448220008546755e+01 3.895781479400920944e+01
-5.345061919573009135e+00 2.439248195227617444e+01 3.883875465672763738e+01
-4.581135369318663386e+00 2.442858201032173682e+01 3.913873439984167391e+01
-3.901171200261986716e+00 2.437264333913318382e+01 3.959234619992574977e+01
-3.309310308532176670e+00 2.421581893843733368e+01 4.020729924987435311e+01
-4.220682554699710209e+00 2.442260214751795999e+01 3.933069605053375284e+01
-3.561112211817852202e+00 2.431291304894453731e+01 3.988360415709054507e+01
2.214073339760828318e+01 -7.547888706725909280e+00 4.101712027694232887e+01
2.188895467674102946e+01 -7.720758044839667988e+00 4.209270616003421139e+01
2.178975950702825770e+01 -8.071299184716654196e+00 4.112434252950646396e+01
2.223487670226618462e+01 -7.294969548244767843e+00 4.154297422733152700e+01
2.162170078320740885e+01 -8.186839634398383581e+00 4.184152992727936038e+01
2.183561732921823051e+01 -7.945026074853984710e+00 4.070824490683958885e+01
2.192163753495578504e+01 -7.713709967453109329e+00 4.036503451116632135e+01
2.215623440393565957e+01 -7.254634241872348177e+00 4.234390812093999301e+01
2.143823863785997119e+01 -8.595527344249930479e+00 4.123172996873565666e+01
2.155524950832755238e+01 -8.081948301414424662e+00 4.239357501195362943e+01
2.153034054739590175e+01 -8.342373751607802035e+00 4.039921278263027205e+01
2.206940056867625088e+01 -7.181961004988512087e+00 4.022938989593987458e+01
2.135420596922792313e+01 -8.653344634496860976e+00 4.159012307619850191e+01
2.201206824791398375e+01 -7.320057140895588788e+00 4.272611903886549101e+01
2.115532243810138979e+01 -8.628124900680319342e+00 4.243878070988826323e+01
2.160097023641778691e+01 -7.851001288791531252e+00 4.285744254309648227e+01
2.123552372123591425e+01 -8.805325944384474468e+00 4.065104767739560288e+01
2.170224599721296954e+01 -7.879755986114085786e+00 3.971214462987381211e+01
2.108704352968265638e+01 -9.119271375371495125e+00 4.133902772544769988e+01
2.160903445630254183e+01 -7.316431991251724831e+00 4.321618390024477918e+01
2.118947864684990989e+01 -8.382456972020746022e+00 4.298889814564382306e+01
2.122472072019068889e+01 -8.740167711159722685e+00 4.008982886174349147e+01
2.112118652649568062e+01 -8.873663713630094207e+00 4.188897565947264212e+01
2.084931087309936615e+01 -8.781443655097545431e+00 4.272382339729520595e+01
2.139931197473580937e+01 -7.849292210178226092e+00 4.310249822235957140e+01
2.092925136894452365e+01 -9.257995381491992859e+00 4.071628174203539885e+01
2.148304486102755817e+01 -8.045657949240352380e+00 3.905992163100636816e+01
2.172189491160301245e+01 -7.549659252462053161e+00 3.933878380109344164e+01
2.119337572926478330e+01 -8.542088087721555922e+00 3.919688897330676269e+01
2.055423117592286530e+01 -9.538827342028493916e+00 4.144674315483639049e+01
2.069077824235064611e+01 -9.424039099223728400e+00 4.098203863134306602e+01
2.164168501172483161e+01 -7.465763388667499889e+00 3.889997630948311524e+01
2.050870123293767122e+01 -9.180950979705245985e+00 4.245840933243847815e+01
2.062016201672993176e+01 -8.828887683555628030e+00 4.312599903227035725e+01
2.104924781357754426e+01 -7.921817417563064900e+00 4.366066697141587127e+01
2.091940804409725629e+01 -9.137562890343911448e+00 3.978076018270202496e+01
2.077159851902204579e+01 -9.396598013351423972e+00 4.009408418961689335e+01
2.180039069235969151e+01 -6.885630515936617790e+00 3.874003573830150060e+01
2.016830260635049044e+01 -9.580211364614976688e+00 4.219316489272764414e+01
2.090906530302398991e+01 -7.460598828124999748e+00 4.433234937259331332e+01
2.090371095458391792e+01 -9.038510391292824409e+00 3.933405376555020183e+01
2.029459352265392624e+01 -9.728744986147447094e+00 4.062512708524173632e+01
2.122789209163956059e+01 -8.114424507951294885e+00 3.852205123042225665e+01
2.112041580707122534e+01 -8.373003132491879441e+00 3.868493192148228843e+01
2.010967327783673753e+01 -9.427686259581713912e+00 4.272811521574819693e+01
2.002071933213019506e+01 -9.958936934571232413e+00 4.155462937862294837e+01
2.055215004093304643e+01 -8.026602333044053239e+00 4.409914486629219255e+01
2.135222498388393930e+01 -6.879343456666209278e+00 4.407365823586130205e+01
2.129425845934245487e+01 -7.612884047740487325e+00 3.821689431844927043e+01
2.155015641887666433e+01 -7.184183513175147695e+00 3.842526936577375807e+01
2.068716690046052165e+01 -9.045539194078497047e+00 3.875966219047527517e+01
1.982772075920725641e+01 -9.979691170776304077e+00 4.192777023495160194e+01
2.019556148325644429e+01 -8.591356127454565339e+00 4.386615225473342861e+01
2.061383129289869132e+01 -9.535302365843248751e+00 3.947142571916853626e+01
2.165977140166522830e+01 -6.708540805007471519e+00 3.824595911393776504e+01
1.948392885504905792e+01 -9.940244114185727398e+00 4.282144437328689435e+01
1.982014861447424536e+01 -1.010528679491244475e+01 4.089823129762527287e+01
2.005105173973399957e+01 -9.275164197894806506e+00 4.326306529201102080e+01
1.983891826053560692e+01 -9.156253959973692957e+00 4.363312282836728428e+01
2.028232891243544955e+01 -7.862366278341398562e+00 4.447177787683193628e+01
2.113301837896466040e+01 -6.798856429583166161e+00 4.438446984234926873e+01
1.989822772508620830e+01 -1.003359010363526593e+01 4.026804791130106054e+01
2.097286230293664744e+01 -8.183159105924369570e+00 3.798449059611700562e+01
2.195909791430298696e+01 -6.305493519720853257e+00 3.858022581298469333e+01
2.136062582751142713e+01 -7.111345772032678703e+00 3.791189254042154033e+01
1.948561713859574240e+01 -1.015948552866552390e+01 4.224229233884400969e+01
1.948225162497963581e+01 -9.721202637870080210e+00 4.340007682584213455e+01
1.948731360853795636e+01 -1.037896540843224535e+01 4.166251652246157988e+01
1.965518165428880693e+01 -8.264612349992082940e+00 4.461131606289191609e+01
2.067471172507060828e+01 -6.930397457098328218e+00 4.473609756842874674e+01
2.135698474546462933e+01 -6.136781991049553575e+00 4.443718822177647354e+01
2.075750948306144394e+01 -8.700598363296490945e+00 3.830972134492500203e+01
2.106123863552791420e+01 -7.514477135665099006e+00 3.757755448155233324e+01
1.973468685444927928e+01 -7.533361376094673822e+00 4.494517040462597635e+01
2.037777311249109147e+01 -9.572182818496967727e+00 3.889943987303542627e+01
2.011103131736436112e+01 -9.904635268008734172e+00 3.949913761420303615e+01
2.164717544426031992e+01 -6.383796547791160236e+00 3.801193411513262532e+01
1.905802319868885775e+01 -1.004202239065656954e+01 4.309234325677994804e+01
1.936023243807068539e+01 -1.046691753219736576e+01 4.095955552855254922e+01
2.008756025181144622e+01 -6.966653604609919448e+00 4.504257603781939423e+01
2.089523960462917884e+01 -5.870715854672865497e+00 4.494167190657376665e+01
2.019954261391341888e+01 -9.799511019577161974e+00 3.903908832525574013e+01
2.049940541661649007e+01 -8.681917665881178081e+00 3.761610931647855693e+01
2.076197034418237308e+01 -7.917449202045728107e+00 3.724334775018792243e+01
2.196442212626616097e+01 -5.591158130244683555e+00 3.834309354787390589e+01
2.133549548093766646e+01 -6.462039218582376066e+00 3.744286489229580894e+01
2.039492441947468038e+01 -9.027904516087012610e+00 3.793492151152137382e+01
1.863400065628385249e+01 -1.036269002005226980e+01 4.278475861108304201e+01
1.871061667962556641e+01 -9.991023181912234818e+00 4.349974017696982997e+01
1.870616849032532869e+01 -1.052858233368072405e+01 4.225683601197003014e+01
1.901664939491898210e+01 -1.060348499571515468e+01 4.124500432969220043e+01
1.925543164840491883e+01 -9.193882295444568697e+00 4.407554222336168692e+01
1.938176978227771485e+01 -8.100106733573946727e+00 4.484785873317366622e+01
2.044054578141236078e+01 -6.399755884581020737e+00 4.514022720207929495e+01
2.014164463737706612e+01 -9.609074611641329255e+00 3.832749691587760310e+01
1.950190597207545196e+01 -1.033840145944352962e+01 3.991101326562942830e+01
1.923320068836673258e+01 -1.055483764393870949e+01 4.025690667195596717e+01
2.111121068734699691e+01 -6.959484935688361240e+00 3.731909691189097344e+01
2.071788495344608094e+01 -8.251877983395985439e+00 3.744709845594726261e+01
2.155873237819287880e+01 -5.764583863251099061e+00 3.762727857634768469e+01
1.877835174970249810e+01 -1.069447497427853655e+01 4.172891887413008760e+01
1.902905443413126818e+01 -8.666303127746326496e+00 4.475066154900047621e+01
1.980096130397511445e+01 -6.816508329500994279e+00 4.538312199271216940e+01
1.918706854654739402e+01 -7.703513571105111701e+00 4.528186348198993016e+01
2.064566358316109174e+01 -5.787098547420154837e+00 4.514404493894789994e+01
1.960854710834141912e+01 -1.027373695622238081e+01 3.952684107354853893e+01
2.084522263578673673e+01 -7.350021235395802321e+00 3.704315094045696810e+01
1.854666157614881783e+01 -1.082768246391732880e+01 4.082810920663986565e+01
1.856482822359405205e+01 -9.131840850999836334e+00 4.448781046743486201e+01
2.016849518765753402e+01 -5.920581557621263258e+00 4.545889714754654420e+01
1.978533856391688062e+01 -1.006366599008690699e+01 3.860699306727249791e+01
2.123645487226550443e+01 -6.089696446332415469e+00 3.712381109980925231e+01
2.003205482739492638e+01 -9.355467854865047173e+00 3.755991833909804001e+01
2.046248779611040902e+01 -8.320710863156545400e+00 3.690890076507282203e+01
2.054587960339546271e+01 -7.752906367314337466e+00 3.670887799418661501e+01
2.102396021677071047e+01 -6.540245432015150406e+00 3.687403800384383601e+01
1.820983721764626040e+01 -1.068346479773818380e+01 4.247708048175228868e+01
1.807467164403790605e+01 -1.047207082288902846e+01 4.303823256214588611e+01
1.807036293174449426e+01 -1.100956411577808680e+01 4.179523036949401416e+01
1.839367440073985449e+01 -1.088006805855658499e+01 4.132364308173035283e+01
1.844258275994076257e+01 -8.829590864557996355e+00 4.477274917264212206e+01
1.916100858681673458e+01 -7.233240233892728632e+00 4.562654826316166634e+01
1.877567614178284572e+01 -8.158034853168574685e+00 4.531030350554148356e+01
1.935454931625920594e+01 -1.039586181548746602e+01 3.880956974622773004e+01
1.910621112950871492e+01 -1.064273044709135974e+01 3.955454854243583185e+01
2.196974283127867622e+01 -4.877347774023414573e+00 3.810490172322388247e+01
2.121783592232196725e+01 -5.636112721412079196e+00 3.693030139804081813e+01
2.006604825209159415e+01 -9.001585031802104453e+00 3.704699894139648819e+01
2.062920629187258470e+01 -7.185566370334142583e+00 3.650711559439091758e+01
1.990540773138585351e+01 -9.645982923280245203e+00 3.775568279420174633e+01
1.809884927294936929e+01 -9.598142418126025532e+00 4.422456033919461049e+01
1.825277569046338755e+01 -8.447667466422808857e+00 4.519263206553209500e+01
1.852064202411221672e+01 -7.649624857186823945e+00 4.586995794868238363e+01
1.955344234488087451e+01 -5.993496910588252291e+00 4.579994688388262603e+01
1.807667696521765421e+01 -1.105187851257052323e+01 4.041125235598408239e+01
2.147028783371495209e+01 -5.145373057984041765e+00 3.724253766042775737e+01
1.989725958277040618e+01 -5.442061041438851277e+00 4.577712849659860694e+01
2.035096869580275225e+01 -4.945538149724467480e+00 4.557013114947916677e+01
1.920918588944928018e+01 -6.545518042697708871e+00 4.582315756258584116e+01
1.772067486928991542e+01 -1.077626277947151934e+01 4.270479583129004197e+01
1.793979889631958002e+01 -1.026076160933829584e+01 4.359940289192051210e+01
1.785597981371468634e+01 -8.991931563139184291e+00 4.479489413819394628e+01
1.806048484462392878e+01 -8.065748347344189995e+00 4.561253842358853205e+01
1.937120152318807698e+01 -1.032777777231687466e+01 3.817519279821055278e+01
1.844985196681528805e+01 -1.092852970562114301e+01 3.956186278782302423e+01
2.096502246745806275e+01 -6.127556262695474487e+00 3.661761726395436511e+01
2.071250168542890080e+01 -6.618432730933859531e+00 3.630529459903294764e+01
2.004959112138925192e+01 -8.576526272772012405e+00 3.649457667642616343e+01
1.966937587210400551e+01 -9.682859540416711042e+00 3.718521935906353093e+01
2.009517823862054442e+01 -8.320013227300281144e+00 3.630565628488202634e+01
2.028535451749280938e+01 -7.525558744070307782e+00 3.614413179598263781e+01
1.929295957333574663e+01 -5.799474973024280722e+00 4.594041141301617870e+01
1.763160456357990569e+01 -1.006420484274487137e+01 4.396152060468421752e+01
1.778591274596168148e+01 -1.100406476442142711e+01 4.216957284834848707e+01
1.785499001535024632e+01 -1.112995532693941492e+01 4.106296089404470706e+01
1.886499728179684254e+01 -7.097448989397070029e+00 4.584651395395967910e+01
1.759989964266590690e+01 -8.483235096108584727e+00 4.535488031611193094e+01
1.744931932063972724e+01 -9.609949230824614830e+00 4.438913113358611184e+01
1.891823747506342457e+01 -1.071401532256086142e+01 3.880712869179545521e+01
2.107147428354040386e+01 -5.071586165278935354e+00 3.655639735976021143e+01
1.971959998546630288e+01 -9.159584830623449747e+00 3.662908923861471777e+01
2.036861658775988815e+01 -6.958368548497177564e+00 3.594222852679570934e+01
2.005298628514011128e+01 -4.857618760070840480e+00 4.571467626776444604e+01
1.723420561044254740e+01 -1.079482333305137232e+01 4.308736111961010806e+01
1.736141180679996054e+01 -1.132510642336433726e+01 4.186164690024469337e+01
1.830239413638090440e+01 -7.081778412083762575e+00 4.606900908699957142e+01
1.778169287927773823e+01 -7.870112516010658865e+00 4.594139518256278620e+01
1.868862867438844333e+01 -6.156889606640361556e+00 4.610409537004286307e+01
1.726703313432002673e+01 -9.154631135742519632e+00 4.481707991660671553e+01
1.859875329969319324e+01 -1.082814051155206414e+01 3.909148135408099023e+01
1.760597816966944151e+01 -1.127641568578132336e+01 3.999379683733242530e+01
2.089551352453960575e+01 -5.581294506032996594e+00 3.637676653352246348e+01
2.127521306490048758e+01 -4.392726557206303895e+00 3.674449558551999928e+01
1.963654551555071492e+01 -8.832433602418749530e+00 3.607821979611082952e+01
1.935153217965303085e+01 -9.662112838160803463e+00 3.659674843021743840e+01
1.992297126545401298e+01 -7.814944340191181560e+00 3.572039871656019727e+01
2.066663241279212215e+01 -5.952548261134769980e+00 3.607694729583690929e+01
1.910548091016843841e+01 -1.026986088004339948e+01 3.724844011839325475e+01
1.955162519856628123e+01 -4.944948783792633584e+00 4.596463015946456210e+01
1.846010829286516142e+01 -5.825570948839154717e+00 4.622917705671093103e+01
1.883387581625409624e+01 -5.136822394887269994e+00 4.619054143099038612e+01
1.716702628337899128e+01 -1.052942540601417853e+01 4.369906867186193722e+01
1.713932220309094845e+01 -8.899946303682439108e+00 4.509722863984148944e+01
1.764104163335779063e+01 -6.963631556311364434e+00 4.622201968058933375e+01
1.808559571524701326e+01 -6.514302928160888406e+00 4.626792799452780258e+01
1.873006233952869337e+01 -1.078537734011527149e+01 3.805939490991833907e+01
1.721062765798857086e+01 -1.144237384650837619e+01 4.033708537498831959e+01
1.779257960135914018e+01 -1.121472970749370113e+01 3.956918640741466930e+01
2.030301545647684236e+01 -6.645068028762064039e+00 3.571847476216677109e+01
2.002482816504532792e+01 -7.298211273885638839e+00 3.557926459462166235e+01
1.972781253093522835e+01 -8.319315497838081441e+00 3.570043007622420106e+01
2.020957125450940239e+01 -4.273040006361950915e+00 4.565190296141797432e+01
1.920667781618586645e+01 -4.447802121303739753e+00 4.615216121672595051e+01
1.729722534352569241e+01 -1.105963512346176358e+01 4.247520801325902795e+01
1.692196607082560789e+01 -9.924344443913529545e+00 4.426835027118569599e+01
1.728593865412992869e+01 -1.138379230470685854e+01 4.109866182196404338e+01
1.699317492511120520e+01 -8.509390487719304730e+00 4.558128431123669344e+01
1.719650307386878296e+01 -7.412843566388086280e+00 4.617614215847765280e+01
1.779489641786075538e+01 -5.965876985833194368e+00 4.646487663529221379e+01
1.704422257201049717e+01 -8.091410528428973237e+00 4.601284933380589592e+01
1.667819265482449254e+01 -9.317251560725736681e+00 4.483926632437873394e+01
1.809105183468636469e+01 -1.101363951023801668e+01 3.862828289981757024e+01
1.919428415602444105e+01 -9.878566542684795948e+00 3.675024699752658819e+01
1.802013617793520339e+01 -1.108230824078315457e+01 3.912720270998644878e+01
1.895682767820016323e+01 -1.059204053643970767e+01 3.774352650975379930e+01
2.092511281026439818e+01 -4.507081934642005905e+00 3.618365273709731866e+01
2.062075214831739700e+01 -5.286507802412760526e+00 3.584965349484905062e+01
1.939795654349961396e+01 -9.275121690289024556e+00 3.620154341888723337e+01
1.964538431211145664e+01 -3.999906104545001728e+00 4.594375019262180615e+01
1.863938275709095294e+01 -4.770836534642381999e+00 4.632182269768625105e+01
1.807231794343611142e+01 -5.093855133877381647e+00 4.649177443594362558e+01
1.681981447641555505e+01 -1.090879872572127063e+01 4.280477150819728394e+01
1.673221391137234093e+01 -1.067457665531830990e+01 4.334517249053005372e+01
1.689380889836867894e+01 -1.143759416254284922e+01 4.147006208709572661e+01
1.735937893398057597e+01 -6.753197349261544247e+00 4.640038452858988904e+01
1.675173580982540145e+01 -7.862662590095419901e+00 4.613026137214033184e+01
1.713542715910261904e+01 -1.150088291586926559e+01 3.957651440643794416e+01
1.922380229798044837e+01 -9.088154148677476840e+00 3.566216478009777546e+01
1.968104556836575725e+01 -7.638048159575005158e+00 3.521630566360575898e+01
2.032084046900061125e+01 -5.707705315179648409e+00 3.551718070916258085e+01
1.937362639919621188e+01 -3.697359622738193519e+00 4.607423377370626838e+01
1.658597526035733338e+01 -1.111003429487401384e+01 4.232750647710419400e+01
1.647695340609189785e+01 -1.054452530000935084e+01 4.360986695306962702e+01
1.666099661408255983e+01 -1.134307568742715056e+01 4.178974522022001281e+01
1.649068305520916766e+01 -8.814822029600671627e+00 4.546177127650985739e+01
1.630676528285563265e+01 -8.312321018997007371e+00 4.608437335629765386e+01
1.610860956102404984e+01 -9.634863592449429248e+00 4.446520436610814642e+01
1.871928411084254762e+01 -1.007423631372944861e+01 3.631486764747641161e+01
1.822968424200351478e+01 -1.080807208440180212e+01 3.673610732425608916e+01
1.989333725191801605e+01 -6.671716197796743408e+00 3.513131921951776349e+01
1.854159685115023848e+01 -1.085685027079335718e+01 3.731166349690045081e+01
1.758326900295399042e+01 -1.119916819887134274e+01 3.816512454416166378e+01
1.749280578581769774e+01 -1.129449491418689000e+01 3.890332658453818482e+01
1.664479790186947383e+01 -1.154694426910194238e+01 4.040780823726981907e+01
1.903376781069554013e+01 -9.641372598826217555e+00 3.600793139604430593e+01
1.936072140538508179e+01 -8.318619010364477262e+00 3.509563382745819382e+01
1.993419423241354238e+01 -6.067285128438262731e+00 3.504425128003894940e+01
1.883143232683847046e+01 -3.909560128361033726e+00 4.634543481224940820e+01
1.750537267582723544e+01 -5.417079543687453480e+00 4.666195677707726475e+01
1.782152694977461493e+01 -4.735289903171086223e+00 4.662080313845712709e+01
1.697083708881278952e+01 -6.021934876578411533e+00 4.666307826913326551e+01
1.629877320127043561e+01 -1.081893672014017582e+01 4.299106396382545370e+01
1.642684021746885747e+01 -1.154992948436584754e+01 4.107901253036035882e+01
1.663311556480665132e+01 -6.992082594235339066e+00 4.653289833888707960e+01
1.610667344254889599e+01 -7.771389294897813826e+00 4.637509542886099467e+01
1.619722894199724905e+01 -1.011477460409283147e+01 4.400244577882304498e+01
2.027496794070666297e+01 -5.042202017967418293e+00 3.529002467804821208e+01
2.057493826724615005e+01 -4.621475080050139184e+00 3.562300018026696335e+01
1.813866911707486551e+01 -4.053520240155792820e+00 4.657972423661199457e+01
1.605464547412497467e+01 -9.412019372935519712e+00 4.484437478638452745e+01
1.586500625004486764e+01 -1.096347950381520420e+01 4.263673765493263090e+01
1.578579629408143603e+01 -1.055877880996437845e+01 4.352082768139119651e+01
1.596174240394453037e+01 -1.136101814361257567e+01 4.171801330270360353e+01
1.591627401410916853e+01 -9.035147090482716692e+00 4.531138472750348711e+01
1.590683054917949413e+01 -7.230854716719980146e+00 4.666544632433200235e+01
1.571096475875158660e+01 -8.421974363942117847e+00 4.610507752413813165e+01
1.541180082918336858e+01 -7.610552696815825691e+00 4.654104181176639798e+01
1.997504950486904818e+01 -5.462868092796397512e+00 3.495741569947789174e+01
1.788376689550736742e+01 -1.109459301040119072e+01 3.728733518629260857e+01
1.649128297857910042e+01 -1.162547977118729214e+01 3.956109523008402107e+01
1.699350498338204574e+01 -1.151824698999278063e+01 3.899243233101596218e+01
1.664806682157713169e+01 -1.159460549763591608e+01 3.916162307298343848e+01
1.947169673704237525e+01 -7.308438289403334842e+00 3.477606149005077896e+01
1.904401759133287797e+01 -8.815671398598862396e+00 3.508593973348851591e+01
1.933710767444769019e+01 -7.978041445566550038e+00 3.485318326537633027e+01
1.682917177992962010e+01 -5.632356100853160186e+00 4.680450186869455820e+01
1.719220198904454833e+01 -4.819166916683183643e+00 4.686138836678063058e+01
1.553960191235137245e+01 -9.952688443463095780e+00 4.409090026466945034e+01
1.543357265209295193e+01 -9.506923896418786768e+00 4.484950503629849550e+01
1.577780915726449784e+01 -8.658278861129563353e+00 4.577839363230971514e+01
1.824360103312857362e+01 -1.027018655221833399e+01 3.587885865515959694e+01
1.791748461770927392e+01 -1.075924938843565570e+01 3.615987598996998997e+01
1.805393159672516745e+01 -1.093903311918931287e+01 3.691189033003965392e+01
1.871605628568309143e+01 -9.620635186375677605e+00 3.541920357802321462e+01
2.020932413153131080e+01 -4.665132595758611167e+00 3.514705790979030553e+01
1.685133180682938558e+01 -1.153564307423891222e+01 3.840742675415707907e+01
1.595987136969264064e+01 -1.166226499503390990e+01 4.068796725954926075e+01
1.881092801503887557e+01 -9.343956213722373505e+00 3.524597231795053176e+01
1.740510701243442071e+01 -3.937907997228256907e+00 4.688677926529143036e+01
1.643803468362050069e+01 -6.626585155336295330e+00 4.666424749492645674e+01
1.615309292612112557e+01 -5.847611683470147703e+00 4.694708278425173376e+01
1.543160172425157128e+01 -1.110792515981354356e+01 4.228272745310864877e+01
1.524827584103540268e+01 -9.004587402116463579e+00 4.547211159191189012e+01
1.515955609653570590e+01 -7.367978257883780913e+00 4.676114777300418268e+01
1.707540645099685150e+01 -1.138472604391798626e+01 3.770205958146244996e+01
1.948414325880719744e+01 -6.698332921513954652e+00 3.454509011701833288e+01
1.984371443879382468e+01 -4.708792844991757320e+00 3.467111797861034006e+01
1.967513164789795610e+01 -5.883541890203773050e+00 3.462480689065424855e+01
1.613387743798895002e+01 -1.166242461468619673e+01 4.010819212792761590e+01
1.584715468752224155e+01 -1.175007625593052474e+01 3.954568503198021290e+01
2.044919791485836669e+01 -4.025155016834287558e+00 3.539641502064524303e+01
1.899328580387209442e+01 -8.317920831922258174e+00 3.449018317245223386e+01
1.793035186890460864e+01 -3.654743700567394615e+00 4.671277776929486691e+01
1.641318788529279971e+01 -4.834896324264124523e+00 4.707047225798611834e+01
1.497286906427702391e+01 -1.027007673807643684e+01 4.371711321362385405e+01
1.516033763634866105e+01 -1.081067236545055721e+01 4.291464133955914662e+01
1.526238229495410970e+01 -1.137896895289637378e+01 4.164629032022233446e+01
1.489231278223161681e+01 -9.936000199921419807e+00 4.428587350100043096e+01
1.569121113740846418e+01 -6.647462750391207820e+00 4.687742890822447350e+01
1.491614904467302871e+01 -7.990410546086575749e+00 4.641649994163092430e+01
1.722598922514985276e+01 -1.133231746475405544e+01 3.726310627143567444e+01
1.756641135226522366e+01 -1.102119180739709847e+01 3.651209314679145734e+01
1.903429084849242514e+01 -7.521274165898859998e+00 3.422452043629007079e+01
1.963033748025467062e+01 -5.286334801247669191e+00 3.447583307981420830e+01
1.527819872925354971e+01 -1.155493990628383294e+01 4.104471272423933215e+01
1.869554118552938959e+01 -8.958980767751938856e+00 3.465993486327104733e+01
1.687985164135884730e+01 -4.221088330410013079e+00 4.706087696489547056e+01
1.594689389081128716e+01 -5.449034030047165800e+00 4.708010644012131962e+01
1.509577223979029270e+01 -1.057306718431803461e+01 4.343208006021310297e+01
1.492176457547772550e+01 -1.101476957763557962e+01 4.244553866841223311e+01
1.499811743561716604e+01 -1.125237223695392430e+01 4.192875772789199829e+01
1.511532872897779534e+01 -8.531587360776391904e+00 4.612578434401882532e+01
1.471878507815722159e+01 -9.350853823573539003e+00 4.516587124533074871e+01
1.481168567579248929e+01 -9.601927607611164817e+00 4.485464604119639631e+01
1.776847146638912633e+01 -1.046590903632131919e+01 3.544335400327013019e+01
1.760550482599336064e+01 -1.071046155964512003e+01 3.558404570128126210e+01
1.839787947947698754e+01 -9.599868265833142900e+00 3.482959675386859999e+01
1.937521261424786445e+01 -6.304223902626145737e+00 3.429219639214282012e+01
2.007098299564377442e+01 -4.009169390151918755e+00 3.489772812368827459e+01
1.670915964810820853e+01 -1.155303959717915774e+01 3.782260434295023543e+01
1.616069031588467553e+01 -1.168833098829117922e+01 3.874674273735413976e+01
1.619123691762342432e+01 -1.166754675084926340e+01 3.807719371941523434e+01
1.549290433692694435e+01 -1.177460021318143113e+01 4.029692825170013748e+01
1.762890202855470179e+01 -3.210705407948085011e+00 4.688826922042474621e+01
1.547671317192832774e+01 -6.062965123393775357e+00 4.708975853523508448e+01
1.461944732033506966e+01 -8.995985699566384497e+00 4.565617644160106892e+01
1.487120500180401272e+01 -6.589867212491256510e+00 4.704395959281855966e+01
1.441225022155174251e+01 -7.504754743900956981e+00 4.685686479591350206e+01
1.656719648715590409e+01 -1.157041034205954944e+01 3.723891322635337531e+01
1.705949407495489467e+01 -1.126020110678849129e+01 3.672165071762708521e+01
1.707889443697743204e+01 -1.110334986002607494e+01 3.611229810095232295e+01
1.784564461277527059e+01 -1.013071196537822516e+01 3.491870590461522283e+01
1.907528112978716095e+01 -6.724928218268067859e+00 3.395957165624999874e+01
1.928386026474300863e+01 -5.562789556433406446e+00 3.405992564207142692e+01
1.552583246886346480e+01 -1.181144046827062333e+01 3.895866291244424673e+01
1.857352466011676739e+01 -8.498141059533013575e+00 3.408513052222114936e+01
1.710363151432251883e+01 -3.493846428090026102e+00 4.706230992978208860e+01
1.626365982625642914e+01 -4.408542082241669213e+00 4.721118688853951539e+01
1.525646351716476445e+01 -5.423167127128150078e+00 4.730075637347572837e+01
1.564778171898583281e+01 -4.595916777847835810e+00 4.736147268976234415e+01
1.440600879691968572e+01 -1.058736211869592481e+01 4.334344968912922980e+01
1.445590753376050763e+01 -1.085700762226126415e+01 4.275425408910945180e+01
1.450975710001194230e+01 -1.112704039645667997e+01 4.216423124101702768e+01
1.429783870240753352e+01 -1.014225741690786364e+01 4.410142315131501789e+01
1.456311128197911131e+01 -1.139693699078777733e+01 4.157452914987942449e+01
1.418956746816772885e+01 -9.696932851970673894e+00 4.485979983069934462e+01
1.441995431636426872e+01 -8.370689654449551043e+00 4.629183422854800511e+01
1.855795681995000734e+01 -8.248528740619834210e+00 3.388246739911576100e+01
1.567332465769863070e+01 -1.178205439251310516e+01 3.833190053338098835e+01
1.499930772466253259e+01 -1.170934646721327077e+01 4.051258119124673840e+01
1.456104489030404459e+01 -1.159787116764704784e+01 4.088726946250585570e+01
1.520304757421495445e+01 -1.187467334906936145e+01 3.953027259146669081e+01
1.502594043110561728e+01 -1.188693481910183003e+01 3.990589694954303468e+01
1.829785833502444348e+01 -9.001355161615027356e+00 3.416197552120643621e+01
1.663040353550534789e+01 -3.727447996693833421e+00 4.723789090316346062e+01
1.452010407365235878e+01 -8.641119660446866746e+00 4.614648385525098462e+01
1.405678700774479317e+01 -9.223970687435748772e+00 4.551337723699675308e+01
1.729332044368279142e+01 -1.066164189594827327e+01 3.500782718864441989e+01
1.700177290655616247e+01 -1.091696413013025158e+01 3.541965271375514135e+01
1.790527941009266044e+01 -9.703380923449071105e+00 3.440444084913237077e+01
1.896561912020596452e+01 -6.097292705270429103e+00 3.372026798464040098e+01
1.861966329644621254e+01 -7.053824165185495154e+00 3.348564417179455432e+01
1.582544401506032372e+01 -1.173789852725047567e+01 3.776626235387310260e+01
1.501608340122652230e+01 -1.190974049654791678e+01 3.872440527822597289e+01
1.802219176646760346e+01 -9.504568745764924387e+00 3.423874138316197957e+01
1.478320753739137317e+01 -6.179368358286686735e+00 4.719916172485964267e+01
1.503200110320321059e+01 -4.783287390899098490e+00 4.751177990360825021e+01
1.601421913832451338e+01 -3.914942163383262841e+00 4.738818741950592539e+01
