1.151656769961362059e+01 1.179488675359126049e+01 4.532213929663804208e+01
1.146923080542662809e+01 1.192431733539098637e+01 4.518743410916285796e+01
1.201379282559012829e+01 1.199681220122928060e+01 4.522415683623346894e+01
1.259961774477271490e+01 1.219947405429051379e+01 4.497009342340412985e+01
1.255786102944922256e+01 1.206924132772951630e+01 4.526084626263178734e+01
1.351533194513841174e+01 1.218512471598252844e+01 4.477879327707712775e+01
1.336351909199443355e+01 1.213641524764757840e+01 4.494575968758915252e+01
1.515280589513223752e+01 1.152779892170567955e+01 4.397274024849217255e+01
1.497610000000000063e+01 1.171289999999999942e+01 4.434250000000000114e+01
1.411648404783396771e+01 1.195704074803176553e+01 4.465455759697445615e+01
9.321492459534201913e+00 1.100148231926662312e+01 4.524810428444173027e+01
1.041932517124948987e+01 1.133258216537579344e+01 4.534959028542248660e+01
9.672371769756608728e+00 1.081784188701116634e+01 4.553678598017199874e+01
1.037064985316023247e+01 1.113448848841360928e+01 4.547503861514073975e+01
8.307129824839137200e+00 1.042169645369966524e+01 4.531574206041499764e+01
1.727411427764065266e+01 1.077662861100369263e+01 4.320292850592134215e+01
1.993721681274518431e+01 9.855017558571200098e+00 4.119198573969887178e+01
1.154539828316469041e+01 1.160263961910802699e+01 4.544567527860088063e+01
1.210940000000000083e+01 1.173789999999999978e+01 4.549380000000000024e+01
1.139869999999999983e+01 1.100799999999999912e+01 4.582209999999999894e+01
1.175408578744139731e+01 1.137298675426125705e+01 4.565793346838749045e+01
1.261510968588580539e+01 1.217554546189075815e+01 4.503837516301283728e+01
1.257438572832158030e+01 1.219332658861192265e+01 4.514266952290282831e+01
1.270535204232406556e+01 1.219074595631562374e+01 4.496672478599639078e+01
1.569437126862284870e+01 1.129983205132670498e+01 4.397375922989137820e+01
1.557645523143470534e+01 1.142328708997626308e+01 4.422028935085649692e+01
1.467022896148321642e+01 1.179142554939671683e+01 4.466534461428044978e+01
1.402149999999999963e+01 1.208210000000000051e+01 4.492479999999999762e+01
8.897125720175163011e+00 1.042989397202706670e+01 4.554366973262241913e+01
1.012553882066868383e+01 1.062827755368084937e+01 4.578865151744371076e+01
7.683594439509305651e+00 1.004543307038246169e+01 4.539700643844969363e+01
1.623590286421413253e+01 1.107187981990336034e+01 4.397477955320211862e+01
1.642688776853843891e+01 1.103925109788306003e+01 4.374675733610538231e+01
1.973289880048295331e+01 1.029319973581043612e+01 4.146000189817386428e+01
1.909964219195619251e+01 1.025632050966293640e+01 4.234209337995169875e+01
1.787310070676216256e+01 1.054759907351902903e+01 4.304560049708427272e+01
1.088432978545807650e+01 1.107128728454048527e+01 4.564845237441299020e+01
1.260572988588033461e+01 1.193988424892126154e+01 4.539558472117106191e+01
1.318282873366542063e+01 1.210605096275129178e+01 4.508900640004294047e+01
1.557341151455614536e+01 1.141830472269217722e+01 4.435276979701212952e+01
1.617707351310557584e+01 1.113354728384104320e+01 4.409802515418240887e+01
1.522335735458398531e+01 1.162599485825336210e+01 4.467611910214199611e+01
1.732552400899496803e+01 1.069568941779371229e+01 4.351050980908441090e+01
1.460675089366034385e+01 1.187483475643842823e+01 4.484547502985312661e+01
9.487899999999999778e+00 1.043810000000000038e+01 4.577190000000000225e+01
8.874976287985562706e+00 1.018443175314528482e+01 4.574995613474962397e+01
8.262920048870707745e+00 9.931124403727860539e+00 4.572804121189231097e+01
1.677750007367407292e+01 1.084390015232594351e+01 4.397579903494241194e+01
1.206646847903396136e+01 1.111536330121488092e+01 4.583512852445444707e+01
1.076184592256666228e+01 1.081805638879915321e+01 4.580536939903099380e+01
1.310139987040712839e+01 1.214159992967697121e+01 4.529749926153660766e+01
1.277362603109168049e+01 1.178954867872864831e+01 4.552486260975217647e+01
1.275629357187208157e+01 1.153397321638270512e+01 4.567756919377236358e+01
1.273473596966560883e+01 1.122280541231731021e+01 4.584816771505303024e+01
1.340269957349525498e+01 1.133020013445139007e+01 4.586119987883874671e+01
1.375016599440668230e+01 1.203660295755571497e+01 4.513960155855684775e+01
1.359573060581058179e+01 1.207399852270412133e+01 4.528178452741830284e+01
1.577670042630158065e+01 1.146049909727902616e+01 4.468689840015499470e+01
1.617088436738241342e+01 1.112362897160639008e+01 4.436304027586038501e+01
1.519164964321054789e+01 1.166769422389489641e+01 4.476619778935745586e+01
1.462142507618487031e+01 1.186854171560489668e+01 4.495472767630865008e+01
2.000403492313405707e+01 9.723263971020134733e+00 4.165241373942307490e+01
1.958647852457605865e+01 1.000965523775876065e+01 4.198564759784320444e+01
1.839511862643581708e+01 1.027388087084072588e+01 4.286766257682087655e+01
1.891786308290157592e+01 9.999781154565106078e+00 4.268947774422252195e+01
1.734247486952981987e+01 1.048348236270348011e+01 4.380589943249992757e+01
1.191826480291435608e+01 1.091234595006965158e+01 4.599970990664767356e+01
1.135840737451203886e+01 1.069795674531471974e+01 4.615353933869129577e+01
1.070818740671514213e+01 1.040456365358634550e+01 4.624742534398402682e+01
1.343693792798482178e+01 1.184112597975693504e+01 4.555588264909832930e+01
1.360264276526997840e+01 1.202898034890955437e+01 4.534291240062910333e+01
1.522101218768338704e+01 1.165510245427606684e+01 4.498463564296786643e+01
1.790701157595967885e+01 1.012334376351494747e+01 4.363612634937489787e+01
1.445334687071713908e+01 1.198986798911138507e+01 4.508285232637339135e+01
1.431791129688155628e+01 1.196710562863503569e+01 4.519023312760335642e+01
1.009815066949316531e+01 1.042132825088094172e+01 4.600970506660332404e+01
1.943999918883942257e+01 9.725999420959972497e+00 4.251150122723918656e+01
1.817231192326138611e+01 1.015536882598377666e+01 4.325604355224535169e+01
1.676866597321633634e+01 1.082880146286439249e+01 4.437331568685799255e+01
1.243777932011580489e+01 1.081670115794904241e+01 4.617730262344583281e+01
1.295759999999999934e+01 1.072100000000000009e+01 4.635499999999999687e+01
1.360076676831861420e+01 1.201715828130306107e+01 4.544219037119684401e+01
1.369583767918311601e+01 1.206030836295072994e+01 4.527860063481550412e+01
1.582108919123759705e+01 1.144148945571152254e+01 4.501456841248154461e+01
1.429056398082007284e+01 1.197897712802896564e+01 4.525969540903246013e+01
9.629255849272224665e+00 1.012497628575933284e+01 4.619501717232616755e+01
8.709778210581895053e+00 9.744766454897645147e+00 4.616172608520269449e+01
1.980854878595674151e+01 9.345326692475111940e+00 4.235354042067190505e+01
1.895549992116851357e+01 9.744658346102589519e+00 4.298914639760494083e+01
1.847140005525714912e+01 9.763299997872090685e+00 4.346639994552441522e+01
1.630632447142897234e+01 1.115183797266935883e+01 4.458587726932215389e+01
1.736679993317915560e+01 1.053379993288646332e+01 4.438359904493425745e+01
1.186457137416989838e+01 1.049886236904082892e+01 4.644173395193115539e+01
1.375148126879468258e+01 1.161147521676990557e+01 4.572403770318224758e+01
1.352829370551502741e+01 1.074642711225155978e+01 4.631071083593404580e+01
1.410020011031317999e+01 1.189270013622035549e+01 4.558689870223211216e+01
1.488490067572460696e+01 1.189769942309750483e+01 4.524079928703446996e+01
1.539655330408545453e+01 1.167461356393930672e+01 4.517541948731156509e+01
1.773495458281570691e+01 1.027699834685904179e+01 4.407790437863609867e+01
1.374713865027132442e+01 1.199651481434592526e+01 4.535600429040798076e+01
1.439280940237525286e+01 1.185144503640249702e+01 4.541450119227709337e+01
1.462809359159283851e+01 1.178224238940054391e+01 4.556852911500667602e+01
1.462483150509615371e+01 1.160451015959456456e+01 4.572324519340486404e+01
1.398508177375614459e+01 1.132556575071261129e+01 4.586066656123310281e+01
8.180149709772530642e+00 9.711145440472678914e+00 4.593400479030423611e+01
9.239889198549677829e+00 9.778417575044700882e+00 4.638965537272106587e+01
1.683622640948465943e+01 1.084301484559538586e+01 4.448480402854484339e+01
1.241151356166884057e+01 1.061001679193288005e+01 4.639833507606857665e+01
1.206395493846414979e+01 1.040105097604538820e+01 4.671326680639661788e+01
1.028655178944127790e+01 1.000406954544555305e+01 4.657354998314937689e+01
1.131810008811365797e+01 1.038779961603910884e+01 4.648510066448777422e+01
1.627524999331758337e+01 1.116833278061851509e+01 4.471538917483994169e+01
1.590914041501717868e+01 1.145111948005513192e+01 4.510992124707232875e+01
1.541607072164593539e+01 1.163431337175311953e+01 4.527490423654935370e+01
1.810313413931567084e+01 1.002017914613248983e+01 4.377218896550135696e+01
1.456743745002702894e+01 1.132093170909355706e+01 4.586013314637047955e+01
1.403693719303766230e+01 1.106352577555184169e+01 4.604180182808001121e+01
1.514949966886060295e+01 1.131630018190102760e+01 4.585959991394099688e+01
1.467010079916993348e+01 1.079729944283171150e+01 4.622210054719685957e+01
1.409927260905130986e+01 1.077186693142809659e+01 4.626639953883624656e+01
1.359275576984012091e+01 1.065083831626756350e+01 4.650522501634514327e+01
1.080222153001290764e+01 1.019589560921971483e+01 4.652933434541696300e+01
7.973202736217124276e+00 9.328227137515231249e+00 4.622730734078695747e+01
1.972016162758234614e+01 9.057560848232169448e+00 4.269604178930133997e+01
1.898124660560991472e+01 9.304968207395596380e+00 4.327111051147359433e+01
1.677427369976730986e+01 1.087588689355656513e+01 4.474390308474013267e+01
1.540663601640161673e+01 1.069585880459185923e+01 4.616700479615657571e+01
1.564654671240755057e+01 1.095524342756388592e+01 4.598578724646853289e+01
1.280969993991957523e+01 1.041430124070367924e+01 4.694139740211004153e+01
1.642109994392723493e+01 1.122789978310209946e+01 4.504450078136213165e+01
1.503885555261938478e+01 1.170629161163398280e+01 4.547303164606091741e+01
1.515809169776757770e+01 1.167950148498234952e+01 4.548383446161351173e+01
1.515683959304354111e+01 1.167160551785085332e+01 4.555012953980990886e+01
1.594808049868684563e+01 1.137051125270028784e+01 4.530906457505827234e+01
1.568640000000000079e+01 1.156080000000000041e+01 4.553170000000000073e+01
1.788246803114408934e+01 1.012962530987761944e+01 4.428507444530941939e+01
1.422770000000000046e+01 1.058070000000000022e+01 4.665540000000000020e+01
9.770500000000000185e+00 9.812099999999999156e+00 4.661780000000000257e+01
1.136899308569862121e+01 1.016603066555804169e+01 4.686889697102774477e+01
8.787193765488686026e+00 9.256935715159611888e+00 4.670441523012343055e+01
1.513304112568165571e+01 1.062478299237533363e+01 4.632841180276293613e+01
1.727345230813998711e+01 1.058334959346969484e+01 4.477242355000176133e+01
1.351920091056817519e+01 1.049755968884279866e+01 4.679829722387868429e+01
1.634893263090399529e+01 1.120199693760103088e+01 4.545446705306789426e+01
1.583105788397973512e+01 1.110047916928478529e+01 4.582845420951225890e+01
1.647938368045485547e+01 1.110705816120185041e+01 4.534317373092765280e+01
1.839807358716595331e+01 9.725499378050555421e+00 4.418655528493442830e+01
1.777180027960510600e+01 1.029129969531926037e+01 4.480090030900412046e+01
1.491163450965288462e+01 1.051651553059535793e+01 4.654507669472270948e+01
1.032043007336432971e+01 9.856143406701315612e+00 4.682951719247166267e+01
1.087016457677695769e+01 9.900172507491102891e+00 4.704115711598367966e+01
9.278619735444895156e+00 9.534389543869878025e+00 4.666112770858020298e+01
8.295800258341548883e+00 8.979500145856901483e+00 4.674769997724380488e+01
1.687110463512913228e+01 1.091585805557299693e+01 4.496334007834346380e+01
1.614329981041649731e+01 1.059439995078586882e+01 4.611190011179677128e+01
1.559589916911925123e+01 1.045230030962827605e+01 4.643469980919718409e+01
1.211387735584473901e+01 1.017893830697221524e+01 4.709730608124628759e+01
1.609950523744691964e+01 1.122277753925265387e+01 4.566446954388420210e+01
1.815240798554113866e+01 9.968011313259168560e+00 4.456332293255238852e+01
9.929792517497133986e+00 9.524573254916475662e+00 4.707092094459153486e+01
8.893369794968279507e+00 9.065376431431371174e+00 4.700632927668412719e+01
8.600033892757945608e+00 8.609342156833903914e+00 4.722996519489834100e+01
1.891390000000000171e+01 9.321199999999999264e+00 4.408800000000000097e+01
1.853310954507096042e+01 9.644642999393349569e+00 4.432569182635409533e+01
1.701090072436264933e+01 1.084349872208457555e+01 4.537730088274340545e+01
1.685250060042368503e+01 1.089312471478826261e+01 4.508229587565778473e+01
1.732207597448260827e+01 1.060314683667697366e+01 4.488200814586217291e+01
1.698971257907348331e+01 1.078664544232940337e+01 4.509431691313378110e+01
1.756913365068315258e+01 1.037365584371124250e+01 4.528566089184110410e+01
1.621516316120008128e+01 1.026322856371750625e+01 4.636048208474575461e+01
1.755837124821442785e+01 1.034535511785891693e+01 4.514413786428038833e+01
1.650936556520585796e+01 1.111511240324821692e+01 4.543576504455830900e+01
1.651280041391919795e+01 1.088460069416895948e+01 4.579729849811492670e+01
1.818391965023007728e+01 9.899977977084404301e+00 4.471137687986105647e+01
1.141989986319693706e+01 9.944200775295941597e+00 4.725279867204869788e+01
7.698035428520097589e+00 8.901925398454977767e+00 4.646801130119938250e+01
7.913563445449515399e+00 8.609033290508509850e+00 4.677614101369779576e+01
9.491236017029049066e+00 9.151295595353772683e+00 4.726508673478488021e+01
1.706592254818529852e+01 1.050061519491937290e+01 4.574573824576756209e+01
1.731506580313838484e+01 1.047989202312771262e+01 4.553586249879018766e+01
1.671041629421405617e+01 1.032509380944534350e+01 4.607479349455559969e+01
1.683330000000000126e+01 1.007450000000000045e+01 4.628640000000000043e+01
1.727730012309107366e+01 1.005589910283194044e+01 4.603770067716724412e+01
1.689506206881778638e+01 1.047023685137567384e+01 4.591750383644262001e+01
1.812749887789793135e+01 9.903699828934488636e+00 4.519400193049459347e+01
1.761879965395738523e+01 1.011680068319209624e+01 4.569419929737269115e+01
1.075453127448648338e+01 9.590743800277101272e+00 4.738828263439512511e+01
9.496240371479759190e+00 8.737620547626770318e+00 4.761828117656568082e+01
1.008899959010278202e+01 9.237201209192850371e+00 4.752379822167084455e+01
1.733973388161167151e+01 9.754910171659414431e+00 4.625230108527404838e+01
8.319269453469090081e+00 8.115358368474900885e+00 4.741930116305134391e+01
1.772465077561797742e+01 9.647144056180710692e+00 4.601190478854363164e+01
1.767097812402675316e+01 9.626445537403755637e+00 4.616260578552791571e+01
1.805754139040271866e+01 9.642651677221847351e+00 4.563738759445475779e+01
1.789556042839294392e+01 9.677373698876728270e+00 4.584020909903463803e+01
8.904500000000000526e+00 8.238899999999999224e+00 4.771260000000000190e+01
7.734173436515367150e+00 7.991845136020137019e+00 4.712606974802513804e+01
1.764001446803244022e+01 9.565415304604268698e+00 4.623208276560389862e+01
1.849610008335613287e+01 9.168699770215878786e+00 4.558060009460777451e+01
1.817209906714537127e+01 9.238300189156586129e+00 4.598610114829887152e+01
1.784619999999999962e+01 9.435299999999999798e+00 4.621820000000000306e+01
1.821765510718829262e+01 9.013964721268257207e+00 4.620780357518150794e+01
8.007651627545824269e+00 7.692100072179815839e+00 4.744149334459918776e+01
8.436750875743484812e+00 7.603562832845929265e+00 4.774591713861268971e+01
1.430416659792684264e+01 9.994733860088942379e+00 4.665513333357305470e+01
1.389460164209138249e+01 1.007942907526383003e+01 4.672487251446602841e+01
1.438063337898074323e+01 9.408766316869016322e+00 4.665486666650748049e+01
1.473830693689134819e+01 9.870518983142861913e+00 4.658684395732109351e+01
1.283791970395562565e+01 9.800486071076790040e+00 4.693876475405721749e+01
1.356130325897423639e+01 9.577857810979656605e+00 4.679438674376914520e+01
1.483659406396422220e+01 9.365815063935801987e+00 4.658132045650494746e+01
1.521609431904729881e+01 9.908839853617458004e+00 4.650803969932557891e+01
1.568715005174568411e+01 9.762640310408759348e+00 4.643660034817300186e+01
1.532808174649403199e+01 9.307763796661840061e+00 4.650453368910861229e+01
1.393646973286368862e+01 8.739948229180445338e+00 4.674751258094722317e+01
1.370430743321398914e+01 9.091865287985445576e+00 4.678024618529865819e+01
1.445710000000000051e+01 8.822800000000000864e+00 4.665460000000000207e+01
1.241207782117386849e+01 9.566423933036929839e+00 4.703471185249619424e+01
1.286611304526202204e+01 9.187202530853820548e+00 4.693613219627378896e+01
1.322762183553727944e+01 9.075707225629640718e+00 4.686398088284155961e+01
1.577837152814766597e+01 9.073189412121465125e+00 4.643850027208613795e+01
1.651211472631906929e+01 9.510984320079156618e+00 4.633772565336397520e+01
1.619096259539020011e+01 8.947526788716144708e+00 4.638904601049072340e+01
1.685801230947072327e+01 8.909559751411217476e+00 4.632928737470181346e+01
1.516303867621157053e+01 8.603347109544760229e+00 4.654754720317878025e+01
1.586960023559168320e+01 8.383699825700066555e+00 4.644039998352267418e+01
1.636388337087367262e+01 8.646670562254834991e+00 4.638483502024820382e+01
1.735231844731981710e+01 9.172542820601799818e+00 4.627371982242514292e+01
1.553804754225465778e+01 7.802012636548916191e+00 4.649336934804070864e+01
1.447895050605057143e+01 8.131825002021056292e+00 4.665397492263334556e+01
1.498497028003693288e+01 7.870353502308910620e+00 4.657764835683074267e+01
1.422413121252193946e+01 8.286271472894496171e+00 4.669562393976301706e+01
1.370333623773578857e+01 8.203393036183941334e+00 4.678856591422061229e+01
1.240227906759044352e+01 9.031315056629363625e+00 4.704005336660225822e+01
1.341550895707976387e+01 8.657044176157391746e+00 4.684048413801517086e+01
1.191101242626819001e+01 9.487829181205881923e+00 4.714644338191303063e+01
1.751067841869385333e+01 8.846071869525106379e+00 4.626963420587139808e+01
1.450080063687404142e+01 7.440849960446434430e+00 4.665334990279804828e+01
1.520674077707898775e+01 7.220757488908935429e+00 4.654629940192617710e+01
1.399116327232891699e+01 7.749742078391069988e+00 4.673664772721025429e+01
1.289430045549552517e+01 8.574099966468097023e+00 4.693349991859429338e+01
1.144280001218310616e+01 9.307132994405360904e+00 4.724416666207361715e+01
1.189637671390102902e+01 8.930544058850570011e+00 4.714620678214508587e+01
1.103557146582073933e+01 8.994330527714344825e+00 4.732649719950090628e+01
1.219087527820682837e+01 8.303329373355422760e+00 4.708031996046682366e+01
1.299362596065889797e+01 7.965654289052813475e+00 4.691508409661942380e+01
1.055569198554928079e+01 8.835663497428948077e+00 4.742479967811547681e+01
1.102216171019339797e+01 8.434318225625256460e+00 4.732584650488966815e+01
1.146570031897243425e+01 8.670066985481758692e+00 4.723553326792649898e+01
1.346369383703658329e+01 7.731066477493203415e+00 4.683085297843665984e+01
1.250972532794626879e+01 7.677213000053239256e+00 4.701645045479256169e+01
1.193895520441146552e+01 7.559992168569833026e+00 4.713521555260678042e+01
1.148859999999999992e+01 8.032999999999999474e+00 4.722690000000000055e+01
1.238962745739731730e+01 7.086651341190782993e+00 4.704346655966584478e+01
1.309293098728706184e+01 7.357329046430196584e+00 4.689667206600488925e+01
1.166525380479483331e+01 7.403575442937754048e+00 4.718885456415053170e+01
1.088950790533452917e+01 7.562624582108548488e+00 4.733542140789532482e+01
1.284083385305501857e+01 6.612749504047859439e+00 4.695160882461374285e+01
1.058408150390702218e+01 8.201507984189563061e+00 4.740729485423855749e+01
1.015600544947468720e+01 8.522418911947582387e+00 4.749721082000212391e+01
1.375819491751863310e+01 7.213213138371882494e+00 4.677767158922610236e+01
1.452264977985832317e+01 6.749875013185601347e+00 4.665272503650384550e+01
1.402391126850061909e+01 6.713214360879793396e+00 4.673571499552897990e+01
1.184190788279074447e+01 6.774150065279335386e+00 4.715080907066541727e+01
1.126739445895653979e+01 6.969922020260317375e+00 4.725996949620400045e+01
1.238494917906073489e+01 6.457388107789578946e+00 4.704144470395062427e+01
1.319234372866879212e+01 6.748347850796205805e+00 4.687824006842040347e+01
9.761118802370285508e+00 8.189566499799889598e+00 4.756015180927217045e+01
1.487562087500340269e+01 6.639829597923109006e+00 4.659919962324487130e+01
1.124279154613002518e+01 6.303424224098756135e+00 4.725933225488882528e+01
1.076658423574134638e+01 6.697597501698455247e+00 4.735163928812761469e+01
1.022303181913251358e+01 7.807438396802244718e+00 4.747061382811151731e+01
1.201856208433782669e+01 6.144724443277062242e+00 4.711276355124700643e+01
1.352516992778846650e+01 6.676553767446929299e+00 4.681870542419789416e+01
9.366232166542548754e+00 7.856711329526811838e+00 4.762309273965551171e+01
9.828321282438635009e+00 7.474227858984651363e+00 4.753351629785863963e+01
1.454449978144853795e+01 6.058899007556185268e+00 4.665210006010376986e+01
1.029010044290853720e+01 7.091999633389269420e+00 4.744399991414753259e+01
9.997035445340097581e+00 6.619062537913717570e+00 4.744349989427150405e+01
1.026109780268756211e+01 6.114570943718268481e+00 4.736941487645677284e+01
9.709678373103225013e+00 7.061210549521036661e+00 4.752783923136179567e+01
9.129079420954676394e+00 7.030411775712970268e+00 4.761170408432991508e+01
1.076538350168805280e+01 6.124431604196690415e+00 4.730588648606706670e+01
1.329180000000000028e+01 6.139100000000000001e+00 4.685979999999999990e+01
1.274366029822234658e+01 5.827112778951724970e+00 4.696722838295669789e+01
1.338820902360802734e+01 5.548306199146836981e+00 4.684188594685487317e+01
1.391835542762280475e+01 6.098986848171670694e+00 4.675591593971640947e+01
1.265741466899622658e+01 5.132467113769922484e+00 4.698511212551974836e+01
1.219529999999999959e+01 5.514999999999999680e+00 4.707469999999999999e+01
1.171899826597398508e+01 5.909251435313366052e+00 4.716702533611999115e+01
1.108183496524956979e+01 5.578387762376245007e+00 4.722179160253617169e+01
1.052516105108164268e+01 5.610078307378621787e+00 4.729532966216945056e+01
1.422326676768327935e+01 5.495299676356323104e+00 4.670343333789956830e+01
1.390203276008094768e+01 4.931700374827881816e+00 4.675476676282880817e+01
1.163850905032720995e+01 5.546696718917893953e+00 4.714825347422871005e+01
1.191769632641332777e+01 4.881755675612752476e+00 4.705015409621266542e+01
1.311913662079346032e+01 4.750259314046899384e+00 4.689560038517132767e+01
1.348455083685508882e+01 4.957917536088715771e+00 4.682398436007225229e+01
1.136059103588383223e+01 5.075681728196233422e+00 4.713904884647680404e+01
1.052562407134266564e+01 4.960853043368030235e+00 4.723403618376850943e+01
1.465799979636957850e+01 5.017966543817963476e+00 4.668523335618157688e+01
1.254964506757192488e+01 4.686474052395276146e+00 4.695740878256014383e+01
1.228702058646541317e+01 4.288238578793221123e+00 4.695242345096567504e+01
1.358079999999999998e+01 4.368100000000000094e+00 4.680610000000000070e+01
1.293389742575255497e+01 4.328168633428521872e+00 4.687926319406776088e+01
1.164000001485673508e+01 4.248299953441925680e+00 4.702559999350550157e+01
1.487054909146261039e+01 5.700900997565973682e+00 4.663845003803568545e+01
1.411939894772316784e+01 4.693032698502626054e+00 4.674566678473684078e+01
1.108267290361908231e+01 4.604665282319567510e+00 4.712984409640683481e+01
-8.136977635076810600e+00 -2.304113905877847923e+00 2.183191465792675601e+01
-8.534315364435606455e+00 -1.919577950992849447e+00 2.229610590858172614e+01
-8.320399999999999352e+00 -1.780000000000000027e+00 2.171170000000000044e+01
-8.261998645963407384e+00 -2.481933729680349643e+00 2.226634969550380916e+01
-8.457857531701675313e+00 -2.513555544466686609e+00 2.270861002437976239e+01
-7.991698952614073370e+00 -2.302954990490350795e+00 2.157277796458634356e+01
-8.748300000000000409e+00 -2.059200000000000141e+00 2.288070000000000093e+01
-7.953661904955699136e+00 -2.827923129705838257e+00 2.195205944487391037e+01
-7.953234177301860441e+00 -1.676881992747928152e+00 2.129792600195835561e+01
-8.167292332584505488e+00 -2.968102986403533539e+00 2.253644723568117314e+01
-7.441101393450149537e+00 -2.148219958402023622e+00 2.095224952610937663e+01
-8.579296048368833638e+00 -2.540341265122832759e+00 2.306550357080811864e+01
-7.663156477231006569e+00 -2.825660145954167923e+00 2.143392386942761974e+01
-8.410418552893823119e+00 -3.021120266466581938e+00 2.325016585473558450e+01
-8.938470514519668342e+00 -2.218759065182108525e+00 2.360891989684864356e+01
-7.770252042898099454e+00 -3.352001291817071404e+00 2.207226589118674198e+01
-7.295990468551747377e+00 -2.722687978925942609e+00 2.102020455597504522e+01
-8.776234856556488495e+00 -2.913717241257169466e+00 2.409762066005671599e+01
-8.097382761199044765e+00 -3.384550646116095685e+00 2.289870215311038848e+01
-7.877054179014532309e+00 -3.422139007086177909e+00 2.236447841239586865e+01
-6.966625922549596339e+00 -2.576059240816891638e+00 2.074170279074557044e+01
-7.276580320738425200e+00 -2.074658889958184815e+00 2.081303991375714446e+01
-8.424439141291218291e+00 -3.448522359601752463e+00 2.385896197018892906e+01
-7.334106783773780336e+00 -3.349171049549017454e+00 2.129485494375833809e+01
-9.128499839259834658e+00 -2.378199865133842739e+00 2.433659938447762272e+01
-8.241359249422513855e+00 -3.502417557158021832e+00 2.343502787793248743e+01
-7.586800040732698314e+00 -3.876199883609757979e+00 2.219249997330386748e+01
-7.296101761778723827e+00 -3.873848718280011205e+00 2.167394665387901753e+01
-6.656750436713394059e+00 -3.077331938441687065e+00 2.067038382969665378e+01
-7.150853830343193884e+00 -3.297257777430122161e+00 2.108817162114527832e+01
-6.740720753775105933e+00 -2.016445424436506872e+00 2.061464255168668203e+01
-8.583096470928810007e+00 -3.476309389678969186e+00 2.441084389288743495e+01
-7.829524585809091164e+00 -3.930105836253367180e+00 2.290632282284291321e+01
-6.479688543663925770e+00 -2.569036319496180720e+00 2.056514124249638087e+01
-9.354009839117154002e+00 -1.755474877163292424e+00 2.417721660498695968e+01
-8.935062919828842709e+00 -2.941335383597199815e+00 2.464976799704301769e+01
-7.005799999999999805e+00 -3.871500000000000163e+00 2.115609999999999857e+01
-8.072199912289033108e+00 -3.984000140968149140e+00 2.361999996349061703e+01
-8.231037961105426959e+00 -4.011579045524708675e+00 2.417211448332173873e+01
-9.255911281181701256e+00 -2.468037100055461508e+00 2.486083461795696081e+01
-7.230526819812803652e+00 -4.494169115853845931e+00 2.208805498516641919e+01
-6.008178504894205574e+00 -2.738292210232167179e+00 2.040846044958547623e+01
-6.346997168627345864e+00 -3.578406929490395960e+00 2.059909299750388101e+01
-5.993884119401450050e+00 -2.068103614004830781e+00 2.034890869157092297e+01
-9.373071359017281168e+00 -1.900467068993127118e+00 2.468683100345787551e+01
-8.389874955246941823e+00 -4.039157923155411112e+00 2.472422560551509108e+01
-9.062514967314346137e+00 -3.031231404685594377e+00 2.517421799363005164e+01
-7.715053722591560081e+00 -4.558001762187814165e+00 2.347133911254091387e+01
-7.391560599630563111e+00 -4.486023065600645232e+00 2.251979938412342364e+01
-6.843184759180356735e+00 -4.491151760383893077e+00 2.139720535295608528e+01
-6.022485531152397265e+00 -3.409077906465337815e+00 2.046806524825436568e+01
-6.521640487821074750e+00 -3.975776666864542452e+00 2.084212080758179653e+01
-8.741754877363828058e+00 -3.504095068226169118e+00 2.496272701750925194e+01
-7.515130995017281101e+00 -4.603826526253011586e+00 2.300791283901494211e+01
-5.491209504798621133e+00 -3.508204603487885542e+00 2.035446588876990148e+01
-7.870784479720961180e+00 -4.538251888755517882e+00 2.402036420784792270e+01
-8.029738535247973985e+00 -4.565470046325398101e+00 2.457217056287787571e+01
-8.869248829520666177e+00 -3.593891231871252145e+00 2.548714426699191549e+01
-9.383494834667407858e+00 -2.557996357934117171e+00 2.538577874718840732e+01
-6.874392756071222799e+00 -5.111897456509715276e+00 2.198365150166658211e+01
-6.726160373749207722e+00 -4.391695219967383323e+00 2.114599766529505942e+01
-7.196392794758549982e+00 -5.095622505305901662e+00 2.284697874553540231e+01
-6.036800000000000388e+00 -4.080199999999999605e+00 2.052769999999999939e+01
-5.214850154652671321e+00 -3.055100081675220736e+00 2.025300004234892981e+01
-8.548500000000000654e+00 -4.066699999999999982e+00 2.527560000000000073e+01
-9.189966926110329837e+00 -3.121127766477571619e+00 2.569866826461801423e+01
-7.357916261739958941e+00 -5.131989436256906956e+00 2.332268206666231691e+01
-5.469766603583256170e+00 -2.502866803326080358e+00 2.026513333033073749e+01
-8.188692686027062351e+00 -4.592687529619206011e+00 2.512397595878496404e+01
-9.510999999999999233e+00 -2.647899999999999920e+00 2.591039999999999921e+01
-7.513740697930567869e+00 -5.111976223350472637e+00 2.387150943956057603e+01
-6.759637918153794445e+00 -5.717600615221313909e+00 2.252666761334954160e+01
-6.680652168130288615e+00 -5.110488580575500706e+00 2.163818816326632799e+01
-6.446670071571811711e+00 -4.911612662173979516e+00 2.113590072511088280e+01
-5.987016549686459577e+00 -4.704282240508095292e+00 2.072376802768883408e+01
-4.959933647755549124e+00 -3.607333324285643794e+00 2.024086673806365511e+01
-5.507591700545519942e+00 -4.290856054664050845e+00 2.042393955255543503e+01
-8.696587042921454014e+00 -4.041869041578016741e+00 2.583373071155472189e+01
-7.669564769459912057e+00 -5.091963613365654062e+00 2.442033669604292356e+01
-9.017601414204625243e+00 -3.568934897969887388e+00 2.604608335513843187e+01
-5.749839094084914670e+00 -4.672881733598609699e+00 2.059698869508779495e+01
-4.862369176215213251e+00 -2.615278866307333860e+00 2.015329984933795870e+01
-8.330304833496002814e+00 -4.528615302088945249e+00 2.571998771235450931e+01
-7.828615726300303557e+00 -5.119069243287531101e+00 2.497223828792066058e+01
-9.338407522149113404e+00 -3.096120264156027257e+00 2.625785239938296556e+01
-6.518099961233949635e+00 -5.729900070572834458e+00 2.187920000264158205e+01
-7.001199973784022035e+00 -5.705300042473341549e+00 2.317419999524352647e+01
-4.459329092825981000e+00 -3.227514039673808455e+00 2.011613972057676492e+01
-4.705016976094099412e+00 -4.159565996345087058e+00 2.022873334806122969e+01
-9.432287678597726099e+00 -2.620895772835306836e+00 2.659215672025234767e+01
-7.156801486838967996e+00 -5.685479120743122117e+00 2.372258594461430903e+01
-6.167204146195286896e+00 -5.431485127652786460e+00 2.112580495357682508e+01
-5.937268983588443128e+00 -5.327903250920803302e+00 2.091969050863271917e+01
-4.978601736456886862e+00 -4.501425777859925148e+00 2.032022206543853571e+01
-5.136753842638214884e+00 -4.864628188783944651e+00 2.046305919229733306e+01
-8.844905267715928332e+00 -4.016999307050580725e+00 2.639273270451782949e+01
-8.478270127122014443e+00 -4.504221483351464883e+00 2.627890068555956304e+01
-7.970247753947654168e+00 -5.055043464838571587e+00 2.556854174050371853e+01
-9.165954603543360335e+00 -3.543978094893768915e+00 2.660502384680799537e+01
-9.173466878319926465e+00 -3.293128569497721259e+00 2.711302045531424909e+01
-7.312416293304121240e+00 -5.665656734207674461e+00 2.427101922936682499e+01
-6.355440731845295232e+00 -6.246372559051821760e+00 2.225253251413870004e+01
-6.677834020651493674e+00 -6.229195475295200346e+00 2.311553027478865374e+01
-6.202636741149737176e+00 -5.840907448682006731e+00 2.149725233407520619e+01
-5.462996771730043832e+00 -5.265320282206285896e+00 2.066624926139866147e+01
-4.450099999999999945e+00 -4.711800000000000210e+00 2.021659999999999968e+01
-4.385280146391298928e+00 -2.311180080647718960e+00 2.003842003437748431e+01
-8.111879332222800443e+00 -4.991018059230208692e+00 2.616484393784420703e+01
-7.468299951278470239e+00 -5.645800070037759966e+00 2.482039998846753193e+01
-9.353600000000000136e+00 -2.593900000000000095e+00 2.727370000000000161e+01
-6.254262361471410792e+00 -6.210211059127421329e+00 2.189717814993939982e+01
-6.794779219356403388e+00 -6.205941465929286416e+00 2.363702304911573648e+01
-4.074199971616268456e+00 -4.114433439190859687e+00 2.010143334797810510e+01
-3.853839999999999932e+00 -2.615440000000000431e+00 1.995476000000000028e+01
-7.610278851222677332e+00 -5.581418493412179771e+00 2.541741721164180490e+01
-6.950229669460600945e+00 -6.186505595886409026e+00 2.418579450752082494e+01
-5.887500000000000178e+00 -5.951800000000000423e+00 2.111570000000000036e+01
-3.698299802109463741e+00 -3.517066352186192901e+00 1.998626660603779115e+01
-5.026474585715686949e+00 -5.354496851090744691e+00 2.055846534396504310e+01
-4.596656900308782490e+00 -5.291291652688515867e+00 2.041270947229032018e+01
-3.986409467853399669e+00 -2.021060077890235007e+00 1.998219989110860340e+01
-4.330937592374411338e+00 -1.527851109999778467e+00 2.004018662093617920e+01
-8.993399999999999395e+00 -3.992100000000000204e+00 2.695240000000000080e+01
-8.626235022422832799e+00 -4.479827904110129211e+00 2.683781267186950714e+01
-7.751989078440087333e+00 -5.517159826692363822e+00 2.601330903354861590e+01
-8.259953317559027397e+00 -4.966382907801921931e+00 2.672350220840798229e+01
-9.049061837529313479e+00 -2.932659306405292821e+00 2.785290787036687021e+01
-5.990576127592037281e+00 -6.690246872651663068e+00 2.191514631696939119e+01
-6.193047161858357796e+00 -6.762000706562140806e+00 2.262525395312671961e+01
-6.471198180989594206e+00 -6.730293473749855870e+00 2.357863974974224064e+01
-5.176218750509011812e+00 -5.857624348451837548e+00 2.073549376404201894e+01
-3.506700009427486275e+00 -2.259671966237629448e+00 1.990714000184355115e+01
-7.105680848753982204e+00 -6.167069201404638434e+00 2.473456745288010694e+01
-7.207408907796751585e+00 -6.077972930477835156e+00 2.533241162509064637e+01
-8.910522782943500530e+00 -3.751605136792442785e+00 2.744566204505929363e+01
-5.807305461219780973e+00 -6.560808526734322577e+00 2.152437216956952071e+01
-6.354307198882714225e+00 -6.753352072537925466e+00 2.305683282230081588e+01
-6.588089163096473300e+00 -6.707234874961786275e+00 2.410044667718366540e+01
-3.463604535444608334e+00 -4.478552865122038540e+00 2.012068476408729012e+01
-3.951529013253209044e+00 -4.945924455341419446e+00 2.022254932756222701e+01
-3.322400000000000020e+00 -2.919700000000000184e+00 1.987109999999999843e+01
-4.214153656463952125e+00 -5.295939734140060473e+00 2.035930302909709866e+01
-3.690999953951265233e+00 -1.599644022086868844e+00 1.994317999575224576e+01
-7.893699518628614520e+00 -5.452900394949281804e+00 2.660919888153228285e+01
-7.349394547492567042e+00 -6.013417860645632551e+00 2.592858283483450776e+01
-5.388563738513165724e+00 -6.200693146575956050e+00 2.096020428166909966e+01
-5.602072771028732134e+00 -6.547311958460716674e+00 2.131582560555701988e+01
-4.743157362833852808e+00 -5.870563051294752199e+00 2.060874430178048300e+01
-3.715476515762678567e+00 -5.530127722505822518e+00 2.036525764201137889e+01
-3.452758399513429666e+00 -5.180143206981011161e+00 2.022850114984774805e+01
-8.645650847692232688e+00 -4.300142618893236346e+00 2.742697649139065064e+01
-8.279255207214317736e+00 -4.786948743503177006e+00 2.731225105793590657e+01
-8.827724026656369460e+00 -3.511339660450333078e+00 2.793845539064479055e+01
-6.743703689741733065e+00 -6.687415637192325235e+00 2.464888792680894980e+01
-5.727100000000000080e+00 -7.169900000000000162e+00 2.193309999999999960e+01
-6.030599999999999739e+00 -7.277800000000000047e+00 2.299810000000000088e+01
-2.975680010040274492e+00 -4.011180955792629454e+00 2.001882014838634305e+01
-3.149040033838141461e+00 -3.465441115347644097e+00 1.994496017449935010e+01
-3.078100537705302120e+00 -4.925915690750903408e+00 2.016646331101342682e+01
-3.978194103389299130e+00 -5.880112171547540179e+00 2.050201404747321376e+01
-2.985759023286505887e+00 -1.841103987865359670e+00 1.988134941375346543e+01
-2.848885097360640994e+00 -2.539258542807119490e+00 1.984765668855295218e+01
-7.491380003586964875e+00 -5.948862582313260816e+00 2.652475177685625241e+01
-7.912861045644933533e+00 -5.273753636493919927e+00 2.719752330904832505e+01
-6.845245968879737575e+00 -6.598556574415307630e+00 2.524638909321176428e+01
-8.563124018675535964e+00 -4.059347270097370952e+00 2.791974854851721588e+01
-5.878704225763056179e+00 -7.223798174496980806e+00 2.246508846931681802e+01
-5.316498191564941855e+00 -7.143131538660404622e+00 2.151605467778858838e+01
-6.206294433672365329e+00 -7.242771203767970789e+00 2.378129384261070456e+01
-4.889599999999999724e+00 -6.449600000000000222e+00 2.080470000000000041e+01
-2.725569960186741802e+00 -3.251250022116994653e+00 1.988365000083718215e+01
-2.802320033838141100e+00 -4.556921115347644324e+00 2.009268017449934973e+01
-6.946788209505102785e+00 -6.509697647069331516e+00 2.584389105451465696e+01
-8.744899999999999451e+00 -3.270999999999999908e+00 2.843140000000000001e+01
-8.985248617767767954e+00 -2.736503316412496112e+00 2.836837303051744641e+01
-5.799685730228335778e+00 -7.702276722364779005e+00 2.349177763365539207e+01
-6.381699787666537560e+00 -7.207800042333643908e+00 2.456319905348019361e+01
-4.936697505577097189e+00 -6.879377237729008776e+00 2.110855057384346622e+01
-2.954128671356057723e+00 -5.414295235100484049e+00 2.023445114947191215e+01
-3.392223678931881814e+00 -5.997740959683181217e+00 2.046244884103614226e+01
-2.375334802066408457e+00 -2.158789137809289382e+00 1.982421165018210374e+01
-8.298535291245366707e+00 -4.607623986876105526e+00 2.790068830863722482e+01
-7.599840294490037174e+00 -5.668264112210749772e+00 2.711494743647113381e+01
-7.088714231041985947e+00 -6.445251259480330397e+00 2.644023013904958219e+01
-8.480598248159529007e+00 -3.818551178721540040e+00 2.841251892487167297e+01
-5.536099438903453240e+00 -7.590587732701309598e+00 2.227148288519459740e+01
-5.030899999999999928e+00 -7.738999999999999879e+00 2.171630000000000038e+01
-5.592071456574112531e+00 -7.855335138861104127e+00 2.297333991912902817e+01
-4.198017313516514193e+00 -6.748765406633399522e+00 2.079600034874483683e+01
-2.628959999999999297e+00 -5.102659999999999307e+00 2.016654000000000124e+01
-2.252037410008461915e+00 -2.870794538403298457e+00 1.986020582357794240e+01
-7.136790546770535926e+00 -6.221111990183675999e+00 2.708720504075318303e+01
-7.932020020944992922e+00 -5.094624465042988604e+00 2.778579125179799902e+01
-6.483033673913418227e+00 -7.119187110283495379e+00 2.516011256286256881e+01
-8.743399879670263886e+00 -2.933922435518353744e+00 2.887840214406716655e+01
-8.215771107792646077e+00 -4.367190799365694431e+00 2.839360031726325317e+01
-4.983793253378212995e+00 -7.309141496733122523e+00 2.141239183692474413e+01
-5.916908187780989259e+00 -7.678668590795949989e+00 2.401336651767487851e+01
-2.167115548401253200e+00 -4.235635248667708019e+00 2.000071507491188783e+01
-2.128740041835972985e+00 -3.582800165605967369e+00 1.989620002862351100e+01
-3.742187385440374214e+00 -6.464401583878441215e+00 2.064475365436357990e+01
-2.455600164559186283e+00 -5.648400219146047618e+00 2.024040008563842363e+01
-2.464817931710927112e+00 -1.422537029297111122e+00 1.985555878365532934e+01
-7.618997566747028216e+00 -5.489127849725307762e+00 2.770324969531992920e+01
-6.584505164781695008e+00 -7.030453899626261993e+00 2.575784030985093054e+01
-8.528413617715377981e+00 -3.568464383703798148e+00 2.897089848600001716e+01
-5.569138320241537876e+00 -8.126078672489500221e+00 2.398466928738143267e+01
-6.034130160319575609e+00 -7.655060930256706087e+00 2.453495474613809080e+01
-4.670650648553957396e+00 -6.899815164256129840e+00 2.101515334508970057e+01
-2.315045027096457986e+00 -4.705937227824261271e+00 2.008391751606060538e+01
-2.806253030895583755e+00 -6.115370136776448362e+00 2.042288372118830964e+01
-1.803015396463701459e+00 -2.347871811411587295e+00 1.982955821472928903e+01
-1.901534622525546059e+00 -1.778117989236982055e+00 1.980075418958772104e+01
-7.951200000000000045e+00 -4.915300000000000225e+00 2.837470000000000070e+01
-7.305975886419607157e+00 -5.883631028370487570e+00 2.762070544805146355e+01
-6.685999996119019073e+00 -6.941700004420541248e+00 2.635569999962230625e+01
-6.694051158530069046e+00 -6.784853767039161987e+00 2.692492674639990469e+01
-8.263939390400356189e+00 -4.116312603062012521e+00 2.895222684038471428e+01
-5.345010523279793091e+00 -8.011469960344072661e+00 2.261002213665311089e+01
-5.092376875010558024e+00 -8.085567544033381182e+00 2.233221517279151414e+01
-5.246031979466456718e+00 -8.491488442609522735e+00 2.371335041881598116e+01
-6.155767367974073423e+00 -7.485261571415110282e+00 2.498175368693702580e+01
-3.506500166077352709e+00 -7.047900394417327519e+00 2.078730028172197919e+01
-4.451644808346340021e+00 -7.350149423531588511e+00 2.122566275011968173e+01
-3.156437588743074230e+00 -6.581716878545213589e+00 2.060512385472564745e+01
-1.948777027256683780e+00 -5.180915705631953472e+00 2.013403690671454882e+01
-1.679759178301430067e+00 -3.059896374990520584e+00 1.986555370420323641e+01
-1.991100302913945796e+00 -1.041861300890301933e+00 1.983210781328731898e+01
-8.527018869189399553e+00 -3.231248894673936611e+00 2.941762881819494169e+01
-4.748857540039147729e+00 -8.205351061704492466e+00 2.211652914331282105e+01
-5.153899964367839814e+00 -8.432400025964405188e+00 2.294859999886823587e+01
-5.686373232562737634e+00 -8.102562609788936498e+00 2.450669428856858545e+01
-1.531910041835972791e+00 -3.914350165605967380e+00 1.990875002862351195e+01
-1.441900751938765213e+00 -4.713382245938309012e+00 2.002766262722204260e+01
-2.298245884457492672e+00 -6.156936480246118393e+00 2.047543051121174074e+01
-1.941889461521390192e+00 -5.850777170420180084e+00 2.034620232430104636e+01
-2.648746097339758521e+00 -6.623331834870858081e+00 2.065767084773188245e+01
-1.230695483214515384e+00 -2.536955483056855698e+00 1.983490482711704317e+01
-2.554302081209449682e+00 -6.862848894000604938e-01 1.988690603755103581e+01
-7.540082162767280494e+00 -5.381800377998620100e+00 2.846059128537806160e+01
-6.984412277821204995e+00 -6.258865391697739256e+00 2.763500545877650083e+01
-7.371143001444979248e+00 -5.687583883031491538e+00 2.806656913148005117e+01
-6.257171708750772332e+00 -7.396586368440585701e+00 2.557907105573496764e+01
-6.702104053190951483e+00 -6.627971038301746276e+00 2.749428656815279126e+01
-8.741899725772485752e+00 -2.596938390218663351e+00 2.932528170151714875e+01
-7.999465326360345685e+00 -4.664160918075553219e+00 2.893355334610957286e+01
-4.522235328788192454e+00 -7.995181914282921909e+00 2.168165930756443061e+01
-5.808105758058850654e+00 -7.932640675431771093e+00 2.495349828637891676e+01
-3.675554864288184120e+00 -7.449388607058708978e+00 2.107407281308380220e+01
-2.947254078726157633e+00 -7.258727850885037469e+00 2.091799803214611941e+01
-1.323420947928060976e+00 -5.364158929744491822e+00 2.024289528397375904e+01
-1.329240880725680807e+00 -1.967267501695779908e+00 1.980610442375355973e+01
-2.029793637127212502e+00 -5.850009571534653396e-01 1.988038832297088021e+01
-1.427799999999999958e+00 -1.397499999999999964e+00 1.977730000000000032e+01
-7.012098972835746125e+00 -6.099007325906379506e+00 2.812648413614802934e+01
-6.283127102548055731e+00 -7.400583032152313834e+00 2.631649290570974031e+01
-6.345798462406403218e+00 -7.124373488708600988e+00 2.692718954329449943e+01
-8.312067897266775418e+00 -3.865735714724638505e+00 2.951004613985713121e+01
-7.664975395396798952e+00 -5.105233293753573598e+00 2.892813113513612322e+01
-8.047664329170482134e+00 -4.413365274772679925e+00 2.949164485705489369e+01
-4.232371016167227218e+00 -7.801034600240349448e+00 2.143642976298340130e+01
-4.857127976496117050e+00 -8.798357730499285267e+00 2.346182730622793855e+01
-5.338199999999999612e+00 -8.550599999999999312e+00 2.447840000000000060e+01
-5.929837817705413627e+00 -7.762719357262793274e+00 2.540030169591169340e+01
-1.132156933542209476e+00 -3.106603974870861151e+00 1.986370323423023621e+01
-3.294804007665906198e+00 -7.537697253385849727e+00 2.108619044819301180e+01
-2.141054563653937315e+00 -6.664947964810723491e+00 2.071021836154548268e+01
-2.354904911793132882e+00 -2.073710721242304489e-01 1.992976531023577280e+01
-1.522771799725287423e+00 -8.230500940274922961e-01 1.983950361975210086e+01
-6.398038262026818579e+00 -6.871667392968416443e+00 2.769778544712333712e+01
-4.466511242932207360e+00 -8.672205308595534845e+00 2.251719069371849713e+01
-4.013300374335331711e+00 -8.251499811471248336e+00 2.164700002549276547e+01
-4.669266051120573913e+00 -8.785542568091370796e+00 2.293320686230227068e+01
-5.384610885816634607e+00 -8.473193034774981314e+00 2.506426252346866690e+01
-5.503179337894430478e-01 -2.794414444385338037e+00 1.988659968042103898e+01
-9.350798225953704801e-01 -4.245900097679618845e+00 1.992130004045200664e+01
-2.440713498591712494e+00 -7.039703569048596066e+00 2.085543751395028522e+01
-8.017440270157001336e-01 -4.798387879215936458e+00 2.010669492899632260e+01
-1.835254075288442976e+00 -6.307208397923517396e+00 2.055621029144569079e+01
-1.428428305233747864e+00 -6.053056665776567868e+00 2.045195347871763403e+01
-9.358805247239236902e-01 -1.756154199253937787e+00 1.982158175313117354e+01
-7.129071854176523892e+00 -5.848178741947791082e+00 2.854646010572922066e+01
-7.253871034774061144e+00 -5.571699341002825712e+00 2.901408935710529491e+01
-6.710151806026930288e+00 -6.471185848237636762e+00 2.806329284975641158e+01
-6.023658880123393011e+00 -7.677775879260882341e+00 2.588945533908949415e+01
-7.713166044512490771e+00 -4.854293761342997726e+00 2.948668299880191768e+01
-3.844494307009056921e+00 -7.850603133220404040e+00 2.136064985346425615e+01
-4.560295270191971007e+00 -9.164390338744311748e+00 2.397515981267242680e+01
-5.645536200985660003e+00 -8.128979700451667512e+00 2.536355674638196689e+01
-4.439825496165753504e-01 -2.114792722922365087e+00 1.986586157085378801e+01
-1.033618570118107316e+00 -3.676251389989412033e+00 1.989250158691141479e+01
-2.386596429649480378e+00 -7.470089174433768520e+00 2.104902661769759931e+01
-1.983946775420199815e+00 -7.172686432792185762e+00 2.094488008532309209e+01
-8.169834101478369304e-01 -1.094996953953062402e+00 1.984740190054017361e+01
-5.892799066905753946e+00 -7.640410197685960192e+00 2.688293225458996005e+01
-6.005876760063300068e+00 -7.306896748455917745e+00 2.749820891383592425e+01
-5.880327108008903458e+00 -7.859383025932261013e+00 2.627729290624118264e+01
-7.378669115474611573e+00 -5.295220957163446762e+00 2.948171968373480567e+01
-4.098699478750936542e+00 -8.694987039948331997e+00 2.228202355373856491e+01
-3.442582377272478844e+00 -8.383625975678553388e+00 2.166500287835633998e+01
-3.660006303283027229e+00 -8.645337724088134834e+00 2.205217404852027130e+01
-4.800645866529784200e+00 -9.040690341328042834e+00 2.448350048434648230e+01
-4.210593583111912785e+00 -9.269468280155480855e+00 2.344127273171961789e+01
-5.069314874951387218e+00 -8.774896015915853553e+00 2.492013969827761244e+01
-5.419236022365054861e-01 -3.412451525968144050e+00 1.991185159040111330e+01
-3.083304804634900087e+00 -8.027039198860173030e+00 2.138480305247244573e+01
-2.791051524097818870e+00 -7.697689589045305425e+00 2.118572054091879053e+01
-6.682587143833451648e-01 -5.351494284367954712e+00 2.029229741620632410e+01
-9.978235650421969360e-01 -5.758906861825526136e+00 2.039413277634301735e+01
-1.498437910384712746e+00 -6.675195186040904005e+00 2.073234713471429558e+01
-6.718200039298234394e+00 -6.314399713620283627e+00 2.863230087688384984e+01
-6.140482463762296561e+00 -7.014316441406426073e+00 2.811381135484092653e+01
-4.184199999999999697e+00 -9.138999999999999346e+00 2.291779999999999973e+01
-5.431085522306332791e+00 -8.395679671717507730e+00 2.565093100252754965e+01
