9.955588116302255486e+00 3.037105207612163849e+00 2.397161367660624265e+01
9.760977878055244972e+00 -3.263843011509124370e-01 2.349029656673695143e+01
7.892806506794077137e+00 7.095239202993720795e+00 2.329921367889541628e+01
8.696613527356314322e+00 6.475586896072981880e+00 2.364881411002091127e+01
7.593119544926126174e+00 7.534741469146042370e+00 2.323744116484662925e+01
8.515515861329687297e+00 -1.480478676817646999e+00 2.245386826691467519e+01
9.600894571010966771e+00 -8.455878034926195275e-01 2.331755949039508380e+01
5.341899287475005309e+00 9.215655496387501699e+00 2.285373615067763353e+01
4.206654550286152094e+00 1.023874101837299655e+01 2.300785788830925327e+01
7.273312211606342892e+00 7.973118448115788404e+00 2.321320577461183277e+01
1.024606097755217426e+01 2.442784728020773510e+00 2.419228194077756555e+01
1.031564968810131866e+01 1.274216457995394292e+00 2.414193054513508585e+01
1.053666882793637249e+01 1.848641134334488845e+00 2.441309818494369566e+01
9.298093588427198242e+00 5.369574352088742231e+00 2.382855479879217597e+01
9.004973251424294389e+00 5.956576923820348313e+00 2.369040272880067377e+01
8.388640639175083180e+00 6.993948907036640072e+00 2.360727801727650288e+01
1.007504810401922590e+01 -8.869122394169376422e-01 2.374259194090879888e+01
1.023517960713980912e+01 -3.680247325058333963e-01 2.391536799818830872e+01
9.391629940540566324e+00 -1.795639392299427595e+00 2.308728611517670970e+01
8.876471723623497567e+00 -1.835255660404366607e+00 2.273989737771551845e+01
4.768860499969892253e+00 1.004590090293431537e+01 2.308089003485850554e+01
3.635476221514831074e+00 1.061130122342592408e+01 2.303119466627537548e+01
6.807297091252466181e+00 8.533752618227754994e+00 2.322447786544064030e+01
9.883804458376006963e+00 4.196631398099838428e+00 2.410460933400984018e+01
1.043258511626894069e+01 1.725110903802042905e-01 2.415490106352903510e+01
1.046703882586120748e+01 3.016883795187395911e+00 2.446337615128295795e+01
1.082773769572558997e+01 1.253992592626598901e+00 2.463430863315185704e+01
1.017646617394452946e+01 3.610548155466415388e+00 2.424254532063985224e+01
8.080015433748702236e+00 7.513409466766371558e+00 2.356565339118276725e+01
9.591104644669346868e+00 4.782791154673573075e+00 2.396665541810914135e+01
9.918180568441252731e+00 -1.599762011199943545e+00 2.356995833564822362e+01
8.378389609690223949e+00 -2.198554657915395172e+00 2.244023178013299358e+01
9.131376095645389768e+00 -2.341496607493906534e+00 2.297037933538363319e+01
5.308319694537466660e+00 9.845350022872302986e+00 2.319143317983211006e+01
5.857552322910358100e+00 9.464960890550495165e+00 2.320559488252088087e+01
6.341061717567066047e+00 9.094505806991351804e+00 2.323566009870233628e+01
7.305180634375777693e+00 8.593030418074649290e+00 2.353507742902656830e+01
1.075768681210122324e+01 2.423068226465367569e+00 2.468426437415358166e+01
1.062998857800826258e+01 7.131854869761033999e-01 2.439443171130965382e+01
9.163346711283280044e+00 6.537275774938052564e+00 2.402011179041324951e+01
8.872467293953514300e+00 6.968457390150519792e+00 2.395962485930814978e+01
7.771664469928223795e+00 8.032411089091992196e+00 2.352406578780565383e+01
1.040984020151139156e+01 -1.561907874820493980e+00 2.401424108598943619e+01
8.871120930772232072e+00 -2.887393416734858498e+00 2.285347066398810156e+01
4.739910703675860759e+00 1.058560678408278299e+01 2.337026262466790172e+01
4.173346968127466639e+00 1.086822376123600442e+01 2.334528642599951098e+01
1.094432933451195389e+01 1.521526975336737753e-01 2.464693465697385122e+01
1.104857926526316980e+01 1.828751035854685680e+00 2.490533805377843990e+01
1.063096190007760988e+01 3.719772438051565988e+00 2.470832613050680848e+01
9.727263279313710598e+00 5.333010879182961794e+00 2.419971217477045755e+01
9.553346394989661761e+00 6.122003722230546785e+00 2.420818965714414261e+01
8.799810705142029121e+00 7.678529185331473883e+00 2.416374090719835621e+01
8.277950205700312480e+00 8.239257616502404957e+00 2.397775863536638141e+01
1.074668630909678768e+01 -3.884552043809426647e-01 2.440718203271284636e+01
1.054921270084168583e+01 -9.280482833333333348e-01 2.416763443620784813e+01
9.761201215703632528e+00 -2.312166318378711782e+00 2.339722280434942547e+01
9.500926365453327804e+00 -2.858220077959864991e+00 2.328032118111920212e+01
1.038040233272983137e+01 4.211259872221472911e+00 2.454576515437557660e+01
1.008774231136794874e+01 4.797440573647063111e+00 2.440785083342604622e+01
1.095079181788139877e+01 3.066585723618124426e+00 2.495142139110955171e+01
1.114197791084228584e+01 6.927282123651486989e-01 2.488669354230733433e+01
7.855425462789612290e+00 8.581198614292178561e+00 2.385342151918365516e+01
1.027046102092308466e+01 -2.195586612667743243e+00 2.386083872871314071e+01
5.819000806204342346e+00 1.018426333702828757e+01 2.359127168626094573e+01
6.372674552795590586e+00 9.713805826661237930e+00 2.355708744922257480e+01
5.264824253593408443e+00 1.065496337788567871e+01 2.362548527387572150e+01
6.838704646643777529e+00 9.153670555423431665e+00 2.354608840678934811e+01
1.133979811344398314e+01 1.233771068761624790e+00 2.512666017609133462e+01
1.019201841349644688e+01 5.524187215239532378e+00 2.464900602656162931e+01
9.321673732054561512e+00 7.117805511096977789e+00 2.434972478728095169e+01
1.084592941273254674e+01 -1.397733407555295848e+00 2.447162536629958041e+01
1.075606827697352763e+01 -2.109761183743074309e+00 2.436895666318865494e+01
4.710939277206061426e+00 1.112539006893264215e+01 2.365967579857116476e+01
1.058437938070504458e+01 4.812092480392698768e+00 2.484904583439347547e+01
1.122651304724930199e+01 -4.030849111862838674e-01 2.492608087124850869e+01
1.142438293826688067e+01 1.374572906248112125e-01 2.516607764350637311e+01
1.127069860536347257e+01 2.413331186113089721e+00 2.519458527242785451e+01
1.156185076925618738e+01 1.818940830549880872e+00 2.541590943394069768e+01
1.108537904269603480e+01 3.828977975228498920e+00 2.517402647909210245e+01
9.713947235982617556e+00 6.937053911650161275e+00 2.461900362145751231e+01
7.427556257160431663e+00 9.357052137512150480e+00 2.399700626483599919e+01
9.480000515028908836e+00 7.698338182255860751e+00 2.467933883468490208e+01
8.784300930505750671e+00 8.446136453080940854e+00 2.443150944300136729e+01
1.102864317538772099e+01 -9.435068016486464204e-01 2.468608365460253395e+01
1.013102148234088240e+01 -2.829048214194065380e+00 2.370736839513225291e+01
6.826850005839548707e+00 9.979318421338446043e+00 2.396032445327013605e+01
1.078443517593355772e+01 4.266179288126155988e+00 2.495262698419914926e+01
1.162221723974319865e+01 6.780688015092991572e-01 2.540603933453043339e+01
1.149425466273067542e+01 3.164913380017480016e+00 2.550463480480834377e+01
1.010142722936587312e+01 6.287344506491981733e+00 2.472570051687496928e+01
8.317323963133890885e+00 8.731121504742613837e+00 2.424816866216076150e+01
1.114261983630447439e+01 -1.867276952267717505e+00 2.477558906694487462e+01
1.066630360091264329e+01 -2.821623222223296867e+00 2.426638527697412329e+01
6.393859285509144286e+00 1.023761937225304486e+01 2.387172837383585744e+01
5.855085088176335439e+00 1.091373343357259351e+01 2.403222621058184671e+01
1.179616948874394389e+01 1.322461148479256110e+00 2.562160086845540974e+01
7.939141718643615953e+00 9.129694136771936641e+00 2.418260193269397362e+01
9.180722055447798624e+00 8.129846694726973411e+00 2.461269399155151305e+01
1.078868191764763651e+01 5.413884258430551100e+00 2.515281050704158261e+01
1.054496832049301958e+01 5.938800997961341643e+00 2.504550909231708999e+01
1.150851903068089577e+01 -9.588000399326358503e-01 2.520501461754964723e+01
1.126970289559138116e+01 -1.375988906406721224e+00 2.493116570910228802e+01
1.048082123060713933e+01 -3.211986973644448629e+00 2.408516168340410957e+01
9.669484287813236989e+00 -3.544308545623398476e+00 2.356348462554160150e+01
5.152832175309067786e+00 1.142741972463009859e+01 2.402733031253925944e+01
1.110557874245223076e+01 4.626203330393008351e+00 2.533004929114954251e+01
1.190443654599133616e+01 1.227612728248782537e-01 2.568522071893082526e+01
1.170647736513191894e+01 -4.179797659762161666e-01 2.544511745756715015e+01
1.178370814264730981e+01 2.403595079184139394e+00 2.570490414850218386e+01
1.196588671481683619e+01 1.855507298026803920e+00 2.585034317689494543e+01
1.153980766213924092e+01 3.938186403719647455e+00 2.563973865793862927e+01
1.029937485164573729e+01 7.012957823913787969e+00 2.513773260636274642e+01
9.988660181359415802e+00 7.718453556661949655e+00 2.511455072601956573e+01
8.656698277167429012e+00 9.165815714508092071e+00 2.469858874655349723e+01
1.120125300613057640e+01 -2.814120548865346016e+00 2.482505502032153544e+01
1.009333557713024376e+01 -3.455657152782047881e+00 2.383394921923213516e+01
6.813354317076319333e+00 1.044543113233917175e+01 2.422252099141474346e+01
6.415046162130190410e+00 1.076147736195200899e+01 2.418639481861104557e+01
1.210678138685705818e+01 7.114371372994180431e-01 2.592887620386623126e+01
1.225262599954587017e+01 1.411166791149468747e+00 2.611663403459072441e+01
1.182390762298769893e+01 3.515666455267526747e+00 2.587396720197814659e+01
1.064966372572423836e+01 6.452733401674733749e+00 2.524335807621020678e+01
8.022935527872439465e+00 9.678698808466947412e+00 2.451208778536584987e+01
9.638461061072728597e+00 8.279352547354209335e+00 2.500922839221665939e+01
9.290462722485042235e+00 8.652941596271480407e+00 2.488509042661316073e+01
1.099304628913648330e+01 6.015857689620756510e+00 2.545666700818502903e+01
1.167074283439247573e+01 -1.614634327445358730e+00 2.535655442842948304e+01
1.143934875155535380e+01 -2.336858416083902323e+00 2.507959188998793820e+01
7.281231596239159387e+00 1.024498316386151586e+01 2.436374317114616517e+01
1.005566227403524415e+01 -4.082091135743507238e+00 2.396048841133192298e+01
1.200549117772513341e+01 2.988051981246595989e+00 2.599380171408461138e+01
1.230109233721890760e+01 2.188385538454221013e+00 2.623780082133415448e+01
1.130610006006201118e+01 5.400298245326315971e+00 2.565952007486046327e+01
1.198895838822374671e+01 -9.738658440242871084e-01 2.572455506768669764e+01
1.119061062888781244e+01 -3.395771713343242570e+00 2.483265782232552965e+01
1.083039519193717304e+01 -3.594679482453072339e+00 2.446271065725205318e+01
5.594891891299830888e+00 1.172961457318485401e+01 2.439514931644088236e+01
6.436233848014095038e+00 1.128536425339294347e+01 2.450107679357715540e+01
1.165026982595514049e+01 4.723800729801092224e+00 2.588257765055043080e+01
1.218701409071219288e+01 -4.332524721167380632e-01 2.596475629444959310e+01
1.199437015186399869e+01 4.047427310881443141e+00 2.610558812657674466e+01
1.084725220014239611e+01 7.178505242847863954e+00 2.565514127513507248e+01
1.049732049241698384e+01 7.738570756764769243e+00 2.554976320632933451e+01
1.014712344244453668e+01 8.299061364755459635e+00 2.544430509909602378e+01
9.395425484345548028e+00 9.338758076250121221e+00 2.529688315694574641e+01
1.198019275327934530e+01 -2.201165989710464732e+00 2.567004819167987861e+01
1.173606161844277374e+01 -2.806406540931299709e+00 2.538357793024280795e+01
8.476662226093525376e+00 9.831678882685746856e+00 2.490267229386694936e+01
7.086223323050538703e+00 1.089818171789844925e+01 2.463438892199528141e+01
1.222463237221849752e+01 -1.595768954362501102e+00 2.595687918944939554e+01
1.238917979613241549e+01 1.557786934517172983e-01 2.620823498404919860e+01
1.222719987664403973e+01 3.572314431662704681e+00 2.628260245159999187e+01
1.270851442172913792e+01 1.499762825944462419e+00 2.661105134039178921e+01
1.119746430639610324e+01 6.617991188467454045e+00 2.576060359666397659e+01
1.151029620482600180e+01 6.002735913494328557e+00 2.596329037637113402e+01
9.796766081539139748e+00 8.859807735064045175e+00 2.533879814944710418e+01
8.993550916053346000e+00 9.818350336831096925e+00 2.525491309411609819e+01
8.106756083934435253e+00 1.022787412395962114e+01 2.484167645621489484e+01
7.736217657139419224e+00 1.051102609467770677e+01 2.476769767311249737e+01
1.163281710806212921e+01 -3.583430642405063704e+00 2.530071089427314135e+01
1.264022837421560297e+01 7.891111338392565733e-01 2.650626130551939141e+01
1.254935375452868485e+01 2.890271201498456843e+00 2.656544735957882963e+01
1.182351810194264630e+01 5.386712381826371576e+00 2.616622960382872165e+01
1.246944363684148271e+01 -9.889812493533277626e-01 2.624414522495490587e+01
6.457416810781790417e+00 1.180914060504492902e+01 2.481569027091567037e+01
7.049188683874671568e+00 1.181437847074095515e+01 2.514398656653005304e+01
1.248246985814731680e+01 -2.192315876288605470e+00 2.624925566169429558e+01
1.204228985447954337e+01 -3.254763937701031562e+00 2.574770591188401170e+01
1.216873080859206269e+01 -2.832401864286403281e+00 2.588223967683554960e+01
1.213629449775209324e+01 4.771567154822505152e+00 2.636888057552348030e+01
1.269958943745332292e+01 -4.556498608127926842e-01 2.651527451469482699e+01
1.274170560779479544e+01 3.536637468817187990e+00 2.682846908612160419e+01
1.284206504355678113e+01 2.270345371732005013e+00 2.682242279824162878e+01
1.298470625994469074e+01 1.101301033373330185e+00 2.689066021927545336e+01
1.244894361498691460e+01 4.156670638150984587e+00 2.657144884538638507e+01
1.130152158259701700e+01 7.198663326539416651e+00 2.606331594940110818e+01
1.097014869224273426e+01 7.671889522963747154e+00 2.594277624476894673e+01
1.043249158790106002e+01 8.571184069519306448e+00 2.579494924302302650e+01
9.852657348567829487e+00 9.416767954652828010e+00 2.566221851035571433e+01
1.271932500265077159e+01 -1.469248359340081356e+00 2.652831020411088758e+01
8.592025169610479907e+00 1.029752677172438169e+01 2.521297779121352889e+01
6.036837356223850648e+00 1.203151512162146375e+01 2.476287427773851135e+01
5.344088913069016122e+00 1.219793307882670952e+01 2.459787201153923775e+01
7.619958538742301002e+00 1.129542456284157126e+01 2.515751856874766901e+01
8.190518732103122090e+00 1.077668241530975202e+01 2.517104339623248777e+01
1.293006761272113891e+01 7.844533163859973568e-02 2.678679511711229111e+01
1.316431239277582854e+01 1.588340609820470428e+00 2.710537069119018128e+01
1.162691169635779787e+01 6.832526289597434577e+00 2.624633867207618820e+01
1.020218520813050667e+01 9.108663247047843470e+00 2.578692720143969197e+01
9.478182016898950124e+00 9.815103871662591573e+00 2.559838465570849309e+01
6.478608461513957195e+00 1.233316953362191626e+01 2.513045208497712579e+01
5.849917055339201255e+00 1.275672563447593255e+01 2.515556624533437358e+01
5.183450722952301248e+00 1.269384809847790763e+01 2.485372513008740469e+01
1.260238226300581310e+01 -2.858456130282692964e+00 2.638203367380306474e+01
1.303441404366471090e+01 2.916716958961072415e+00 2.708544220066189823e+01
1.316011473060273751e+01 6.115377089710568592e-01 2.705780759797615431e+01
1.193991137171231642e+01 6.216872466469681058e+00 2.644912092832634443e+01
1.084837555129799114e+01 8.236838673007321532e+00 2.604050244596292174e+01
1.230040383615857991e+01 5.226051471890684752e+00 2.662747542387490896e+01
1.291348427550904532e+01 -9.280928199648579291e-01 2.674121460416228047e+01
8.857296633482675929e+00 1.058924686624942346e+01 2.555044108024314653e+01
8.184313904423444086e+00 1.129451296759018675e+01 2.551212362427585489e+01
8.178112648409717522e+00 1.181206512636552652e+01 2.585301927667719113e+01
8.578621518256445810e+00 1.106184407043213547e+01 2.559264238398339586e+01
1.309151558938690130e+01 -4.404119786972690020e-01 2.695296995485079705e+01
1.296959557903775462e+01 -1.950042882701685132e+00 2.681291733292806612e+01
1.259812937025760782e+01 4.745751954003444517e+00 2.684099313998052239e+01
1.289478606069454258e+01 4.326537729432358148e+00 2.705509881400291405e+01
1.332712858080960316e+01 2.296784215082461333e+00 2.734242066419111694e+01
1.338999609227289866e+01 1.144246861618671174e+00 2.732862458961214713e+01
1.234360160324558287e+01 5.775806666544275103e+00 2.677980788826432246e+01
1.140549277802647943e+01 7.778854388209490267e+00 2.636577754418834374e+01
1.169140797963966882e+01 7.354134685553663786e+00 2.649055133778700011e+01
1.071786038974636668e+01 8.843307539842465204e+00 2.614559379791465332e+01
9.908593161964684981e+00 9.974173743495267530e+00 2.598589704967455916e+01
1.022455206873991251e+01 9.607389461651239415e+00 2.605444036965499421e+01
9.365220336249063138e+00 1.037450893985151446e+01 2.580280355368562795e+01
7.495776893288766729e+00 1.222742820255706242e+01 2.570026487750783417e+01
6.813443523482290765e+00 1.264281189307395081e+01 2.554750363617045039e+01
8.966828383583678175e+00 1.134709137079165586e+01 2.601435521694942921e+01
1.342476076526655326e+01 -1.465104704497834642e-01 2.733268975834516112e+01
1.283630383104472550e+01 -2.443169587572314061e+00 2.665516838982928505e+01
1.324331762184793782e+01 3.727612810048660741e+00 2.737260637380495254e+01
1.205630412856341138e+01 7.047034625699758692e+00 2.673201174419806136e+01
1.247647541349261857e+01 6.485765022231523957e+00 2.705617853190141275e+01
1.060739876817140015e+01 9.357395564482366979e+00 2.623482934912484410e+01
1.316603850842014012e+01 -1.432471895222335645e+00 2.702858303308547860e+01
6.403406778421484091e+00 1.290222033889052966e+01 2.553267842237773166e+01
8.763709804872195974e+00 1.198111184361718884e+01 2.631522417576776007e+01
9.058894130624986829e+00 1.087384152531938852e+01 2.583892930448385528e+01
1.368350373647863982e+01 4.944863516942081816e-01 2.763862223429098819e+01
1.335711372712902012e+01 -8.672611101697859093e-01 2.723782393146779057e+01
1.361983694260174182e+01 1.676864545179102661e+00 2.759939366187786902e+01
1.360974549248383703e+01 3.031110555970448761e+00 2.770088473160340214e+01
1.111369247745530409e+01 8.601343644348993678e+00 2.640700408369274754e+01
1.274729104649880362e+01 5.334741339816529759e+00 2.711049431737534832e+01
5.749360043897102202e+00 1.324553444854212358e+01 2.548400673913669223e+01
1.336273377092212122e+01 -1.939580428498947295e+00 2.725338164148388742e+01
1.304398943019402424e+01 4.915582987280674665e+00 2.732465357729912370e+01
1.289664589583009757e+01 5.924494347575738118e+00 2.738034448308446756e+01
1.199753193953373120e+01 7.810423097037932472e+00 2.694296086361272557e+01
1.150952444399191243e+01 8.359380503402334739e+00 2.666841414331949522e+01
1.115577271171507512e+01 9.221499328036410148e+00 2.666936678050436882e+01
9.964589845994179740e+00 1.053218790354873313e+01 2.630992830313298469e+01
1.048840643935980488e+01 1.006903921556557790e+01 2.649611536620197327e+01
9.465709560219451646e+00 1.093963838710562264e+01 2.616214273862351902e+01
7.148482229488109851e+00 1.295264978886740259e+01 2.596480713662134221e+01
6.328196234161460154e+00 1.347125958050810368e+01 2.593493939970540652e+01
9.355510217993906252e+00 1.163269245659835427e+01 2.643658411659073693e+01
8.171912827334459450e+00 1.232954229585978645e+01 2.619386382256941914e+01
1.395022633824773095e+01 -9.596168007991072446e-02 2.792033016986144389e+01
1.380077847179276596e+01 -8.064235043922929336e-01 2.773447301334510584e+01
1.365282929626319053e+01 -1.482102212621547510e+00 2.757451262091968758e+01
1.379630889424771389e+01 2.231432600832703450e+00 2.783117746687052829e+01
1.388656163761977957e+01 1.086411462076807943e+00 2.788110447068477882e+01
1.334068640993608312e+01 4.496426662596147317e+00 2.753881164121771974e+01
1.378746140557544742e+01 3.919881157739835587e+00 2.796164762885786104e+01
1.248553782088354502e+01 7.261465859548926538e+00 2.721750587077157846e+01
1.304583601619907718e+01 6.513597531722425948e+00 2.764989699478447349e+01
1.101222316119316069e+01 9.605891553899205348e+00 2.668230184583284981e+01
7.687002880295215945e+00 1.270851905112917812e+01 2.614113031402003529e+01
5.648763629578652079e+00 1.373442511228479468e+01 2.581244207723479889e+01
9.197396911130377717e+00 1.206441163914474934e+01 2.662962865894047937e+01
1.414928017311983410e+01 3.340657076630513256e+00 2.829478108168585138e+01
1.415328369168141620e+01 4.959639699460413054e-01 2.816281224694472129e+01
1.280789305215415652e+01 6.946121985733908488e+00 2.748878705271897260e+01
1.161378079734148727e+01 8.941163482207832303e+00 2.697170548015331804e+01
1.312176159142929244e+01 5.454683567584494241e+00 2.751211988975335387e+01
1.002050874354028664e+01 1.108942573764742434e+01 2.663350837160599127e+01
8.807745808326590264e+00 1.250759068845801103e+01 2.669205606719157586e+01
1.424387171641013872e+01 -7.456647107214263714e-01 2.823048262802657149e+01
1.403173569970653922e+01 -1.214391706783926939e+00 2.799680770616277314e+01
1.407262207013773470e+01 1.813752755149021345e+00 2.809457899583710727e+01
1.344234759972734849e+01 5.159533728497172511e+00 2.777544575480914801e+01
1.397278944512788179e+01 2.786029185352870918e+00 2.806297264676894088e+01
1.347853449089782174e+01 5.939063599108026281e+00 2.796966116874753894e+01
1.204512410033241565e+01 8.633695278136643836e+00 2.727657713360220271e+01
1.141702097163079266e+01 9.854371515174502605e+00 2.712974461848940777e+01
1.050755914039140571e+01 1.073453464726708084e+01 2.684454777604997844e+01
1.099460869717181666e+01 1.037964348908202972e+01 2.705558535854896007e+01
7.483480904478571283e+00 1.326246532413660262e+01 2.638206203032446950e+01
6.937993957121209476e+00 1.344367218299668387e+01 2.623506579233983516e+01
6.252886514679920182e+00 1.404091194005464516e+01 2.633762808953892076e+01
9.743657944906995994e+00 1.191790416350366755e+01 2.685823294661187433e+01
8.165716617545443867e+00 1.284687225825086898e+01 2.653460928771308502e+01
1.442000689703225191e+01 -9.448442149155066028e-02 2.844452105479899018e+01
1.436602820156547011e+01 1.164225081175252807e+00 2.840447020434499592e+01
1.378685723069919788e+01 4.666419472058950468e+00 2.802281797628181437e+01
1.424909819019747204e+01 2.368334590135259710e+00 2.832636833900917139e+01
1.432594239529484170e+01 3.895822800532462438e+00 2.852681461888347414e+01
1.253438575359855989e+01 8.078760939785643913e+00 2.755023141767337691e+01
1.291464805543624550e+01 7.475835326269783643e+00 2.770286045672004960e+01
1.319487254000539345e+01 7.102094697342281826e+00 2.791917197179627763e+01
1.171785393197894187e+01 9.521923050070357775e+00 2.727446351930217716e+01
1.007640230742933696e+01 1.164641180510526297e+01 2.695694162324767618e+01
9.384030382013802907e+00 1.233863782229891370e+01 2.692364644508209182e+01
1.410405553411250779e+01 4.330102217106956530e+00 2.832906522033293584e+01
1.464609329603709931e+01 5.442393360711211825e-01 2.870027066627427814e+01
1.452540695863082121e+01 1.950640437628484714e+00 2.858976408761673582e+01
1.442040387249184796e+01 3.128134784881344110e+00 2.856850470935575359e+01
1.046029280440743925e+01 1.124333130839144168e+01 2.706152977921022540e+01
5.347197826325510661e+00 1.439165276189080878e+01 2.617455410278710559e+01
7.015319901695004745e+00 1.391127089325945576e+01 2.663893455608648964e+01
8.614522035912358433e+00 1.301926393738835763e+01 2.691736390968706161e+01
8.159515616591139775e+00 1.336446703714988082e+01 2.687552261600410120e+01
1.387753362991796635e+01 6.617739429148473462e+00 2.850907245710772386e+01
1.182197359032964279e+01 1.010294823390892915e+01 2.757735914197790095e+01
1.139966810546473752e+01 1.062794392406641997e+01 2.750314738197644004e+01
1.387698248005935397e+01 5.419572647751684791e+00 2.826604962870219850e+01
1.055433926928032839e+01 1.167882629779285608e+01 2.735459352168547653e+01
1.097699504891446765e+01 1.115339581500247235e+01 2.742886963374625964e+01
7.818270416739195205e+00 1.357209261193282934e+01 2.679905262105710051e+01
9.143123291394999796e+00 1.304244794388575457e+01 2.724841442611661790e+01
1.013230431384820562e+01 1.220348504237054499e+01 2.728042440134244728e+01
1.423327165270849726e+01 4.836504787050810883e+00 2.850708857355330750e+01
1.489684590392896801e+01 1.291108873246605171e+00 2.898449520542131097e+01
1.470560583660909515e+01 2.628101211345150734e+00 2.883504663888808039e+01
1.450258955940316774e+01 4.450942614669290975e+00 2.875882844608946343e+01
1.485014541799540666e+01 3.386216054182142443e+00 2.904840620009343510e+01
1.334381860905475392e+01 7.690235059201741663e+00 2.818828350309749808e+01
1.361061684824233531e+01 7.154106079795520934e+00 2.834864241214770786e+01
1.220232739294337598e+01 9.499940814772010356e+00 2.773004760779540234e+01
1.258323410046888213e+01 8.896055990554101456e+00 2.788295752353967671e+01
1.296367388305168511e+01 8.292911569515911907e+00 2.803567981916543417e+01
5.724598268664707668e+00 1.478579322417891717e+01 2.665834108433985250e+01
6.177509723380793183e+00 1.461062583191062458e+01 2.674006634741900612e+01
9.637862840903867578e+00 1.262283820789442323e+01 2.726442656519118302e+01
8.648031984785303550e+00 1.346236245844285762e+01 2.723238588816811401e+01
1.497819227979209522e+01 2.087528549396491240e+00 2.908494968971455208e+01
1.479605770922718655e+01 3.984384345903366320e+00 2.903680784141137750e+01
1.414474006496963376e+01 6.080790014526926690e+00 2.866967616827807674e+01
8.153317124103944380e+00 1.388196429338357696e+01 2.721636159584996761e+01
6.786022488273191655e+00 1.474699451684341511e+01 2.716692272638306349e+01
7.469574537269608072e+00 1.431454000123458670e+01 2.719164056139201691e+01
4.993593810302353830e+00 1.497410609435538298e+01 2.651568944315930310e+01
9.597855761765229587e+00 1.309497664968843722e+01 2.759303736634052839e+01
1.004766011813704729e+01 1.275026000028094408e+01 2.763528403010428747e+01
1.524158122238049096e+01 1.668156132695775229e+00 2.936557438243409379e+01
1.409420749398923256e+01 7.358218159516162871e+00 2.893501958858199430e+01
1.441192054629031283e+01 5.543894384325119162e+00 2.883026439286826204e+01
1.244489655691563534e+01 9.802031193787389185e+00 2.812052569706740002e+01
1.179423769693962143e+01 1.069934795697163743e+01 2.792627304361632667e+01
1.338776954946191466e+01 8.324603236916990667e+00 2.850645283634904459e+01
1.074923782732793676e+01 1.198479252100765535e+01 2.773402817088402728e+01
1.140670570569604081e+01 1.113769276811115994e+01 2.783083295279359604e+01
1.043690673573529359e+01 1.249938663218765278e+01 2.775866580127391714e+01
1.515924317013565492e+01 2.778761612413374049e+00 2.933220987801936985e+01
1.467936627968426322e+01 5.006468212298561760e+00 2.899101234776447455e+01
1.492044977046673360e+01 4.477114717923009302e+00 2.920806784832637248e+01
1.516159631353502490e+01 3.947622936429866503e+00 2.942518006900964878e+01
1.374357301311343349e+01 7.931378185068060027e+00 2.869121665661344522e+01
1.444725764676043944e+01 6.724065492624690776e+00 2.916615625708663373e+01
1.303287542627053419e+01 8.834358162102860845e+00 2.834140931970868849e+01
1.217870656391805539e+01 1.038172506059027711e+01 2.808097305441726022e+01
6.102056250000000404e+00 1.517993164062500000e+01 2.714219748279972322e+01
8.447343812933812757e+00 1.420239925446987606e+01 2.765485612840948804e+01
8.043482418471620932e+00 1.438096377297385686e+01 2.755368836534022137e+01
5.415931204976256907e+00 1.552053850849497074e+01 2.714514470602939156e+01
9.330670318470765778e+00 1.356527503233674636e+01 2.776784543737775479e+01
1.088817634621317332e+01 1.228472874852662677e+01 2.805603180921614381e+01
1.543097713144084260e+01 2.224416601768885560e+00 2.958013483449122916e+01
1.453426531223634299e+01 6.101130026993160982e+00 2.910576327694927556e+01
1.122973948392747801e+01 1.174021686696523226e+01 2.804057347186297022e+01
7.933553029523756628e+00 1.488040168549554387e+01 2.789130531907439803e+01
9.963044373214220428e+00 1.329686042018201242e+01 2.799002689911278807e+01
1.074174248716095015e+01 1.279551464320297072e+01 2.823727302778166504e+01
1.540238172800849803e+01 3.418924621313524703e+00 2.964196715299407003e+01
1.542047179154725356e+01 4.649497941958951053e+00 2.982253777690463536e+01
8.892890836259285336e+00 1.398337846243694038e+01 2.778889809620872597e+01
7.157084646309962217e+00 1.519957696273773706e+01 2.772651216386942963e+01
6.380984380581013582e+00 1.551851501781980680e+01 2.756171842758433144e+01
1.479033640602129829e+01 5.655353334539747756e+00 2.927697507381261488e+01
1.564314552908634504e+01 2.890273817069895834e+00 2.985873476788388814e+01
1.509727538797219815e+01 5.218414982351983866e+00 2.951335221410404230e+01
1.457783368910908983e+01 7.562506044255404625e+00 2.952148058323654212e+01
1.490131688849240632e+01 6.304293925694210543e+00 2.956296292890662514e+01
5.950510096510016389e+00 1.572306313711017012e+01 2.753662675542242511e+01
1.124863807509019331e+01 1.242999223939248843e+01 2.849296970202290424e+01
9.878399409596273273e+00 1.384366117997786461e+01 2.834489446929273271e+01
1.576027762470623017e+01 3.818501762222112905e+00 3.011750004491871735e+01
1.501215023559058537e+01 6.952376886395116529e+00 2.984857220918811294e+01
8.741728971809292759e+00 1.452322664821442011e+01 2.809388233112141364e+01
7.823648288566977804e+00 1.537969722220223545e+01 2.822881851217616500e+01
1.046250843475735337e+01 1.346766923261905724e+01 2.853041922666879771e+01
9.310062779428989188e+00 1.418344236673084602e+01 2.821939331669196349e+01
8.414021940369325492e+00 1.504166993282682796e+01 2.831434679620445038e+01
6.660054693442273965e+00 1.585811840968353437e+01 2.798144992913690743e+01
7.254987129614113073e+00 1.568764284775204310e+01 2.816716558617461175e+01
1.104661765309166910e+01 1.309168096146317772e+01 2.871594187820564770e+01
1.520814353500886007e+01 5.867274093460975060e+00 2.979919382732148847e+01
1.551496921972949394e+01 5.430253569027777338e+00 3.003542340403568645e+01
1.591921226369794162e+01 4.853584904503771114e+00 3.043959061797668753e+01
1.527068649006714551e+01 6.511903604004778856e+00 3.002967351137975882e+01
1.083849439247774349e+01 1.354979595735073339e+01 2.890119326802348354e+01
1.042033049014041524e+01 1.402367366936926807e+01 2.892710698468775377e+01
1.559483681591804682e+01 6.176481202992664343e+00 3.031062091237198430e+01
1.593262232798520728e+01 5.642073026073764375e+00 3.055744436490087423e+01
1.560545892606863561e+01 7.074847375845621400e+00 3.054580255718756021e+01
1.602164254247521313e+01 6.441976729650982669e+00 3.085626705548526516e+01
1.635027089206220552e+01 5.853889973482808706e+00 3.107946014763870579e+01
7.322805958203371102e-01 -3.648249725815454259e+00 4.630169737046090717e+01
1.295917353800853267e+00 -4.130727297486139982e+00 4.635154237189328796e+01
1.579603989402917907e+00 -3.567215450325026627e+00 4.664025938169290697e+01
1.476932928933596845e+00 -3.012467891548932464e+00 4.678382011231040138e+01
8.536073099472175629e-01 -2.902870671830144467e+00 4.659007921034496746e+01
1.218032113108815429e+00 -2.405398375591591531e+00 4.685938490214859087e+01
6.461713557443379274e-01 -2.344211474126790762e+00 4.667069668162447016e+01
2.290866189740540793e-01 -2.793064831625961197e+00 4.639596705299783963e+01
1.790173404534445512e+00 -2.284391903222385167e+00 4.709876068938081062e+01
1.322770277472515410e+00 -1.810332153678171130e+00 4.706230749450980966e+01
2.257457284965505018e+00 -2.758244747457275547e+00 4.713520330011998283e+01
2.209298544583646051e-02 -2.234233678047486737e+00 4.647678796217530817e+01
4.387390836052197374e-01 -1.785529339990175490e+00 4.675131184815012375e+01
8.554279341848487483e-01 -1.336329933611114740e+00 4.702585818388897110e+01
1.589659901492548100e+00 -1.431154172324251350e+00 4.724435566811624199e+01
2.657858881561622866e+00 -2.189579041842048213e+00 4.740829903416334190e+01
2.324079560498963470e+00 -1.526095130299231384e+00 4.746290936553218387e+01
-3.580608754350830814e-01 -1.521351935595044669e+00 4.640208314209222351e+01
2.155862036805747950e-01 -1.043405880092908689e+00 4.675805986563214134e+01
3.080783757998906580e+00 -2.726628241307474276e+00 4.741446134861168105e+01
4.766738596218916824e-01 -6.708726099683954835e-01 4.691570655730032513e+01
1.344770198945350215e+00 -8.602592561971230678e-01 4.728307557019267904e+01
2.079165877224162351e+00 -9.552365207053886698e-01 4.750163765930923887e+01
3.058261070795209591e+00 -1.621191403137264730e+00 4.768139277962205114e+01
2.638037822620026063e+00 -1.078497465303316138e+00 4.765741335490077546e+01
3.436870893810002769e+00 -2.221168914679009010e+00 4.765726034679801160e+01
-4.240726672908253780e-01 -7.505489529427467055e-01 4.649034915133135826e+01
1.834259275005938328e+00 -3.843502941435104070e-01 4.754036351256089432e+01
3.860532759951471160e+00 -2.643632061487114715e+00 4.761845144479040925e+01
-8.746798219910573158e-01 -1.092183878494767946e+00 4.621601869580961619e+01
-1.174513005385924291e+00 -1.558888308403926226e+00 4.599597590840011208e+01
1.027300988997005948e+00 -1.357801062565709982e-01 4.720511272785810064e+01
9.751206783490851127e-02 -5.213918907009043938e-03 4.680543328321612506e+01
2.813440751909053628e+00 -5.111645974251080027e-01 4.783173638095571079e+01
3.303140002827466670e+00 -1.113695105651486328e+00 4.786587249003056144e+01
3.792886733633439089e+00 -1.716283708580430334e+00 4.790000932001632350e+01
4.260944343625276964e+00 -2.075693268934591718e+00 4.789152481371855430e+01
-1.063739287530364397e+00 -4.576663150924354939e-01 4.622264169895392882e+01
-1.564300176681392873e+00 -9.965764845410364225e-01 4.589295891175101616e+01
-5.450135888268856643e-01 1.392473164377643416e-02 4.650947203189224410e+01
2.323650954918765166e+00 9.147948259114861702e-02 4.779759139437548043e+01
1.577942466932039434e+00 3.994492670230094244e-01 4.749451568781010735e+01
3.761757029498559834e+00 -4.253332898612490198e-01 4.816424445024168932e+01
4.236199965631708864e+00 -1.101443853654092697e+00 4.817767843659470373e+01
-1.938494845749567874e+00 -1.405176684923390207e+00 4.554352699986868203e+01
8.327410287011869361e-01 7.071990957752399831e-01 4.719165795795997553e+01
-2.808856403113947908e-01 6.591836530352538359e-01 4.669537825709637957e+01
3.023359382171252996e+00 1.005394847071374026e-01 4.803138742384470561e+01
4.475948246599983804e+00 -1.606884483404253050e+00 4.808972648347769052e+01
-1.142037734814782768e+00 2.338324908435135407e-01 4.625437038622600738e+01
-1.703837815987000459e+00 -1.645565605802165043e-01 4.595475771118954356e+01
8.639973229954428513e-02 1.015414329736596954e+00 4.688834255327450506e+01
2.046389122189543830e+00 6.935376145726596109e-01 4.770285338111818163e+01
2.768451804807448458e+00 5.164649976960332678e-01 4.801683382317879989e+01
-1.954328367011829437e+00 -4.336483992607509941e-01 4.578987781042506100e+01
1.301208332961581116e+00 1.000769932025445064e+00 4.739998465535830974e+01
3.723405891293803283e+00 1.096073376123304632e-01 4.826529703878815525e+01
4.862044238083439218e+00 -1.946936030316357868e+00 4.806883276196040811e+01
4.679343073581380352e+00 -4.868152188112503942e-01 4.845524008294540153e+01
-2.536208302767185341e+00 -1.069991942624105130e+00 4.524634167530851414e+01
-6.590937139529797761e-01 1.323275710806759431e+00 4.658537451400203366e+01
-1.220317994638957071e+00 9.252179435816717534e-01 4.628609246347589590e+01
3.386374508141352546e+00 4.926525895493510943e-01 4.821794236515275855e+01
4.422842800004325170e+00 1.186718549331437500e-01 4.849900443540480666e+01
5.166023161042905265e+00 -1.018112403404621835e+00 4.841728401163446449e+01
-1.782450107417572482e+00 5.263138895007815066e-01 4.598630874817932579e+01
7.119349729477121302e-01 1.406137302003463097e+00 4.716646958818704860e+01
-3.455931999927294718e-02 1.713814670830335007e+00 4.686307314487712716e+01
2.491254215214786072e+00 1.117687980948545157e+00 4.792208256447533188e+01
3.212806381218577645e+00 9.410275584675190652e-01 4.823585419478902026e+01
3.977459548701311132e+00 7.051446146736467524e-01 4.844994650807094416e+01
5.159331864898256015e+00 -1.497407860944172775e+00 4.827953328210464434e+01
-2.343738564578158545e+00 1.285003202509960030e-01 4.568695947598509122e+01
-2.759723921366103117e+00 -3.260702473371065446e-01 4.529858717217475572e+01
1.769678940770754494e+00 1.294350266708278685e+00 4.760831005902455360e+01
5.122426152290208812e+00 1.277422940339769108e-01 4.873276456993351502e+01
5.589792498493001638e+00 -3.407332385191955693e-01 4.870817536154603289e+01
1.493049009657681170e+00 1.894959377844692261e+00 4.751379739777312494e+01
-8.767871213725203505e-01 1.943138687748229509e+00 4.645909126881314677e+01
-2.027608698867985115e+00 1.359169297961549505e+00 4.587264375799387039e+01
-1.287682352776664541e+00 1.758081855025809048e+00 4.626508470766165004e+01
3.657007346326338393e+00 1.365443111612016258e+00 4.845479579772712952e+01
4.782252980382772023e+00 6.816058310216069893e-01 4.871313305948779515e+01
5.842000859212922670e+00 -1.388035347186667323e+00 4.846914195140220016e+01
-2.635517246227174759e+00 8.009167470970757208e-01 4.554630237106356816e+01
-3.175661693867109392e+00 -7.801053441556434764e-01 4.491025239477720277e+01
2.214389482177621105e+00 1.718652983867706485e+00 4.782747704432340896e+01
5.911219827452767195e-01 2.105082302798062521e+00 4.714127798583160711e+01
-5.299522463195167621e-01 2.436101406307518147e+00 4.660254358925305951e+01
4.441930601296965264e+00 1.235694327581501328e+00 4.869349259007089614e+01
6.057510197672542951e+00 -8.095608597600129075e-01 4.868356689536216919e+01
-2.963120568918220510e+00 5.320901554353613117e-01 4.531036970714801271e+01
2.151776976479474746e-02 2.568549365075822877e+00 4.685603561217529034e+01
-1.094480813541704123e+00 2.562982916989980708e+00 4.633281230841472365e+01
2.935814854760922188e+00 1.542085568124606176e+00 4.814118552720872657e+01
5.587074560978551929e+00 7.659659543036048124e-01 4.898373008924780692e+01
5.893696669228084772e+00 3.166740782027411272e-01 4.894646877333905621e+01
-3.533187122838434835e+00 6.353321433357417281e-02 4.480703462764748934e+01
1.937361966941214320e+00 2.319548284603579980e+00 4.773280046194867055e+01
-1.917556494441862158e+00 2.193748010489326994e+00 4.594414968573430258e+01
2.659103428308998485e+00 2.142960583364040605e+00 4.804664383844983178e+01
3.380377990513916853e+00 1.966486550298675917e+00 4.836028690498204696e+01
4.101427967130454100e+00 1.790063459275810898e+00 4.867384091129758161e+01
5.246887664150516883e+00 1.319863402992343504e+00 4.896409192547974953e+01
6.525383003013252470e+00 -1.278543092091591005e+00 4.865894951736925123e+01
6.361161992602598403e+00 -1.521727770359602439e-01 4.892180535774243566e+01
-2.927288354451325958e+00 1.474756686209186096e+00 4.540564687662772769e+01
1.216217768848505187e+00 2.495989006145465261e+00 4.741921755683468831e+01
6.234560238306561253e-01 2.881775040388832920e+00 4.712614532805218204e+01
-5.777578729171664040e-01 2.960562527824661672e+00 4.655966758464922606e+01
-2.490059480035027306e+00 1.915771882198434639e+00 4.564103113365703734e+01
4.906679437406109123e+00 1.873758138530069894e+00 4.894445247426228462e+01
-3.583103057075156528e+00 9.353193323572532858e-01 4.493342173972894216e+01
-3.961392405341130907e+00 -5.587669064094693550e-01 4.437830682564800355e+01
2.982415547736116945e-02 3.268119503762957123e+00 4.683264671433967408e+01
-1.312237955120685973e+00 3.182991724496578634e+00 4.620649943753895172e+01
2.404673223986573127e+00 2.648052201363578106e+00 4.793557022800256107e+01
3.886930174972112351e+00 2.482017544285823885e+00 4.857991825178367407e+01
6.828631591303305548e+00 -6.210239365316300164e-01 4.889714020076489476e+01
6.664536823996932924e+00 5.053882881907628688e-01 4.915992603679679007e+01
-4.029574166924696499e+00 6.050534381159515807e-01 4.454598543659257359e+01
-3.591489334434776914e+00 -1.233862465026762223e+00 4.452201387396561216e+01
1.776871534845611666e+00 2.838460927011358770e+00 4.766254184902829394e+01
-1.704493580747651116e+00 2.738577026998193720e+00 4.603006354970889191e+01
-2.546041505789820913e+00 2.628439884319727859e+00 4.562392895116904157e+01
3.064379311644803039e+00 2.722135927883137629e+00 4.822220366676833692e+01
4.565309619307493350e+00 2.223320011680994579e+00 4.887499432847578618e+01
1.036714180491516313e+00 3.184091123144935143e+00 4.728283792427611587e+01
5.710628845297390122e+00 1.957316498592062359e+00 4.921463091064228479e+01
7.188798250155539193e+00 -9.765896757731931110e-01 4.884565175618689636e+01
6.357897284822085382e+00 9.543675996490335045e-01 4.919714482720584670e+01
6.051261243670481349e+00 1.403346548521857917e+00 4.923436349047382521e+01
7.132286672959492257e+00 3.632880623867150438e-02 4.913527010678309637e+01
-3.219058090170727304e+00 2.148180715965589016e+00 4.526498977391168665e+01
-4.331841077149053199e+00 1.173041263090743302e-01 4.423438781906049400e+01
-5.627485845392610209e-01 3.653769917886503737e+00 4.653967370940467418e+01
1.597133928128506186e+00 3.526218688303916160e+00 4.752607879375474198e+01
-3.655653522986913373e+00 1.697898190356909254e+00 4.494376158029716350e+01
-4.203704542721559356e+00 1.338455125314397476e+00 4.455610269645517008e+01
-4.546521355448990498e+00 -3.717457623690542112e-01 4.401892212504591839e+01
-2.002916060564753575e+00 3.321282634690864821e+00 4.586570329646727373e+01
-1.155472898268607995e+00 4.039515392682930361e+00 4.624662667849217712e+01
5.028703089432261741e+00 2.656115764023894155e+00 4.907593392088831763e+01
8.572825371075207812e-01 3.871836692207707653e+00 4.714652763203132224e+01
2.336980492354039374e+00 3.180601939220653041e+00 4.790562955095221298e+01
4.395249838405769438e+00 3.012713974271024053e+00 4.880029208145631969e+01
3.672453322292990041e+00 3.173744332337477658e+00 4.848602527548852947e+01
5.601616626263058230e+00 2.523327713940544559e+00 4.924585072559581533e+01
7.421238362077606787e+00 -3.896392836095853296e-01 4.905257508413136236e+01
7.435714201615544638e+00 6.943227772667592834e-01 4.937363211981043776e+01
-4.702536456581738022e+00 7.944159427097730042e-01 4.409037121972492201e+01
5.759999483447772461e-02 4.106458844003109121e+00 4.677498732527346448e+01
-1.530362161226810569e+00 3.804033936337673616e+00 4.607997526543146449e+01
1.639954694243033195e+00 4.110198614209841672e+00 4.750378436042414165e+01
2.896986904392134576e+00 3.522682241370824308e+00 4.814867253757130783e+01
6.822803194141780381e+00 1.591972024611709724e+00 4.944792730691112581e+01
7.128969292381325928e+00 1.143020625339898011e+00 4.941076939218770292e+01
-3.174450874331659289e+00 3.063067594491386991e+00 4.530375119398935624e+01
-5.057423325083370891e+00 8.974271165130123795e-02 4.374983199172650927e+01
-5.425844232643566301e-01 4.333121498715875930e+00 4.649191925296533157e+01
-2.632272853084351549e+00 3.424584856700494395e+00 4.555590570693010477e+01
2.305561580867892424e+00 3.799343070785944132e+00 4.784523907455970715e+01
6.328917875505911894e+00 2.535292826058339166e+00 4.948274851554366904e+01
6.516026802797517448e+00 2.040960520900621855e+00 4.948508805728340576e+01
7.852055762378072679e+00 -6.749288821402291694e-01 4.903217226103518556e+01
7.975268005768228363e+00 1.605359026406630030e-01 4.929619140086987272e+01
-3.849617813699880209e+00 2.305139742284441962e+00 4.486237300296293284e+01
-3.511470476778562499e+00 2.823058641943278602e+00 4.512401999598382929e+01
-4.264133246128479549e+00 1.937240883829179916e+00 4.456192964449868299e+01
-5.072617207577952314e+00 1.470585193381333200e+00 4.394659265445664431e+01
-2.434008695071260497e+00 4.116516397705219710e+00 4.562979834566439763e+01
-1.748659592674143726e+00 4.425559298859092827e+00 4.595335125905709361e+01
-3.118475057827463814e+00 3.807845161197636941e+00 4.530664962443869115e+01
5.492561278343824682e+00 3.089339013964446767e+00 4.927707123773480902e+01
4.950881478972586791e+00 3.200020845838634109e+00 4.904156636371544664e+01
4.082439250144260789e+00 3.779605319435396016e+00 4.866359955734143483e+01
3.457984206024376839e+00 3.865369459133610519e+00 4.839214522932833518e+01
6.142383343198513757e+00 3.029148045772219966e+00 4.948041090919502949e+01
7.739561551092680070e+00 1.377309142559818289e+00 4.958948551325352838e+01
-4.823242405841705605e+00 1.740922503070334137e+00 4.417943380243191598e+01
-5.265684128122241070e+00 8.756448705801275212e-01 4.372973184440309069e+01
-4.903500331489075492e+00 -7.323222002789860907e-01 4.372849382989063827e+01
6.779514946117597418e-01 4.559151384634160920e+00 4.701030269561051966e+01
-2.510356781270246529e-01 4.973095960390707226e+00 4.656690167017608672e+01
-9.995482526058481199e-01 4.699435637363479579e+00 4.626024936037137536e+01
4.706483999847965727e+00 3.693899572687930899e+00 4.893487316945634547e+01
8.142120916953464516e+00 8.482681737588324555e-01 4.951549406126228803e+01
-3.804163515766199044e+00 3.498589668149889143e+00 4.498291264575853887e+01
-5.558891731398909464e+00 -4.817741120271333277e-01 4.333209773621508276e+01
2.865447587908999783e+00 4.142011966671746315e+00 4.808818496779630891e+01
2.274126970477580389e+00 4.418084883430133836e+00 4.778484826327377988e+01
1.682764030727338822e+00 4.694178396974755252e+00 4.748148900351740309e+01
5.331294752894645939e+00 3.608089095049285877e+00 4.920647526906150659e+01
6.995942062383131876e+00 2.678680117466595956e+00 4.970388467844878022e+01
7.279844611347896510e+00 2.050533098614878647e+00 4.964527854381756100e+01
-4.896689352461181421e+00 2.595421357616945812e+00 4.419607552920208349e+01
-4.350725480332222617e+00 3.046864296887604517e+00 4.458928581959222726e+01
-5.442714815558726826e+00 2.143361025935913489e+00 4.380280749823658937e+01
-5.635815660314959175e+00 1.551708039758017410e+00 4.358590088884306368e+01
-6.021837432834736603e+00 3.634318394247215145e-01 4.315228909520205036e+01
-2.317914324634111622e+00 4.930442220085939020e+00 4.558457046405282398e+01
-1.762097645282544089e+00 5.092679514792508577e+00 4.583401855323165819e+01
1.090505453800877378e+00 4.970691174178218041e+00 4.717766924936209705e+01
5.956135338025479342e+00 3.522277496759681714e+00 4.947807612862432336e+01
4.042404704626144429e+00 4.203515716368623423e+00 4.862453892674128042e+01
3.389339288180543530e+00 4.444636857653534001e+00 4.828796312148387671e+01
6.716039755862355243e+00 3.419520403635769590e+00 4.970033983358428742e+01
8.043141060208418125e+00 2.060067290067882251e+00 4.980504935903055497e+01
8.445694830900860595e+00 1.531118306065201384e+00 4.973106068060568674e+01
-5.828833909354250054e+00 9.570103767679934981e-01 4.336908671934726556e+01
4.984411029841837593e-01 5.247111266177196143e+00 4.687394834626346096e+01
-9.450005721991123764e-01 5.475774577267130461e+00 4.615448391774778258e+01
-3.132887451676333423e+00 4.671408633323809845e+00 4.518556867488251072e+01
-3.859170333409596143e+00 4.235394698975787797e+00 4.485691790046370642e+01
1.667374796430828976e+00 5.208178507363312448e+00 4.740972110863967259e+01
2.392841124515328932e+00 5.184160313992412839e+00 4.774221377042018588e+01
5.271210617067251469e+00 4.243912863094231547e+00 4.914787565769263011e+01
4.626415856260600812e+00 4.541425549934801964e+00 4.885677028395723909e+01
-4.330391588718015328e+00 3.938223300255264014e+00 4.454848728235977262e+01
-6.215100071379603186e+00 -2.309071377250079271e-01 4.293520019700558521e+01
-7.770859609405653123e-02 5.709475314892751285e+00 4.652392469709364065e+01
2.726735685996948710e+00 4.653997835511695769e+00 4.796066382290857888e+01
1.169468627501893954e+00 5.481482708017688665e+00 4.714915561087273232e+01
5.902771931914486458e+00 4.087574602747996444e+00 4.942600643876122035e+01
3.973609176882558547e+00 4.783279995796189787e+00 4.852022826922827647e+01
7.759696727424561402e+00 2.688105817144972765e+00 4.986375445945991913e+01
7.476039542160997975e+00 3.316616512350735402e+00 4.992250400065689320e+01
-5.013021004005093317e+00 3.373311124801011029e+00 4.405690779138562618e+01
