1.604046018034292231e+01 2.146465140366827562e+00 4.691802714565182697e+01
1.588667584380759301e+01 2.972434685439496072e+00 4.688407111185223641e+01
1.477996762466762348e+01 1.000450512696207106e+00 4.716324634694396423e+01
1.593718297373559878e+01 3.639277628985745139e+00 4.682490309252433036e+01
1.586912186433884209e+01 4.233330502659431005e+00 4.679021596684516027e+01
1.425644593292666507e+01 4.918258223279845076e+00 4.700280047162372199e+01
1.424382838351827729e+01 4.590106979122820618e+00 4.702149206032127182e+01
1.479313803533606020e+01 5.243413491227935985e+00 4.690146386193060124e+01
1.531082795775431293e+01 5.076337448924614471e+00 4.682864717985254543e+01
1.582053357060405396e+01 1.197934138391603343e+00 4.701789750583704830e+01
1.583169613983101698e+01 4.581019870915640446e+00 4.676981003819955163e+01
1.644704307365442375e+01 3.882131211858387498e+00 4.671945494528323906e+01
1.648112865855052078e+01 3.585129956792197703e+00 4.673696749302821019e+01
1.637196811759732640e+01 4.577892353366916467e+00 4.667809062681840970e+01
1.588413883487900691e+01 4.877616149544052426e+00 4.674554385731811834e+01
1.591275433655235361e+01 5.616119464182705023e+00 4.670342337652066078e+01
1.532981589574341541e+01 5.568540920656591453e+00 4.680044366344113627e+01
1.499438599460546406e+01 5.925094304539787693e+00 4.682832867340548688e+01
1.565136875839951358e+01 6.032718098078811764e+00 4.672143031174257288e+01
1.511454921760335068e+01 6.603325651925237239e+00 4.676551090466806215e+01
1.465886944726961794e+01 6.281637783480083392e+00 4.685654676148609354e+01
1.588277336394094341e+01 5.903545166357851315e+00 4.669441753424636232e+01
1.420634435072197199e+01 7.529076951404497509e-01 4.721883067314457350e+01
1.627441470212892582e+01 1.319232175381064964e+00 4.694494131680241367e+01
1.640517200004822129e+01 2.584552767981373567e+00 4.682925201237738122e+01
1.522311422706957096e+01 7.256195310012185651e-01 4.712390035746957295e+01
1.458425494479750917e+01 3.244431815801954166e-01 4.721325950375875635e+01
1.492872931947678872e+01 4.962189610041496390e-01 4.717156568469687272e+01
1.671517359002384495e+01 3.058049087022100654e+00 4.673911550357564693e+01
1.691214073715110189e+01 4.574751155554107385e+00 4.658975706557417595e+01
1.702481703692711790e+01 3.530991914758288885e+00 4.664737373564882006e+01
1.647707891692701665e+01 5.171377035621124385e+00 4.662863850535177335e+01
1.649619057028418112e+01 5.663724473536014159e+00 4.660015705002377473e+01
1.707014035431715371e+01 5.465180479891249554e+00 4.652360737307110128e+01
1.498150987092535402e+01 6.861786372564903758e+00 4.677149659170950002e+01
1.597305040640537221e+01 6.497068980494067780e+00 4.663951591590536339e+01
1.643626800610930871e+01 6.238858445919309048e+00 4.658254915336323165e+01
1.557031414150013759e+01 6.925057427170933089e+00 4.667458869365455598e+01
1.629494642398749704e+01 6.961721022771122591e+00 4.655653646989528482e+01
1.656112896713703009e+01 2.032724528769375816e+00 4.684767047186542754e+01
1.363269760620469562e+01 5.053640192045207868e-01 4.727446868859674822e+01
1.596494071420205429e+01 6.870028557139949976e-01 4.703178606866192268e+01
1.438853991218545048e+01 -3.515670395972319007e-01 4.726328203156415952e+01
1.381940902795980364e+01 -5.617153878275707966e-03 4.728741044652134207e+01
1.507748925544534124e+01 -8.014554665314196219e-03 4.717989090547566633e+01
1.723880380018086456e+01 4.051472597521421193e+00 4.657632204703538292e+01
1.707970828097947802e+01 5.711323360204689337e+00 4.651039964562151852e+01
1.755785880549673550e+01 5.165253304087333852e+00 4.646522033083202530e+01
1.766305904075759514e+01 5.758892484091758135e+00 4.642072127875866272e+01
1.745264899498704381e+01 4.571592436659893011e+00 4.650961409138893998e+01
1.698975977478168886e+01 6.574155166935672590e+00 4.648278959292446189e+01
1.680327286118665953e+01 7.000175665419041238e+00 4.647890944437834548e+01
1.755603151954500873e+01 3.536361607283697861e+00 4.656000303596053413e+01
1.760325443990693017e+01 6.334204438302204920e+00 4.640224250515391446e+01
1.754340726211659174e+01 6.909530441671305034e+00 4.638375381275849918e+01
1.602639151670661377e+01 7.246994729810677605e+00 4.658310955875901271e+01
1.530413791875084861e+01 7.441919623003587780e+00 4.668644838947944464e+01
1.648256274005138877e+01 7.568985170415533759e+00 4.648634784212909921e+01
1.605479958295937237e+01 7.795681251395836675e+00 4.654708518114978233e+01
1.644448567275896878e+01 8.247034961650426155e+00 4.645478011490579462e+01
1.562693702575688448e+01 8.022367278562571258e+00 4.660135875858675547e+01
1.594997145576311937e+01 8.603234202374736128e+00 4.651624184304721865e+01
1.697485486510914754e+01 2.592499808215898316e+00 4.672891548396616201e+01
1.756944342836785111e+01 3.069539784864089071e+00 4.658859998643877987e+01
1.566623303831426739e+01 4.507894639771445888e-01 4.708468366429901408e+01
1.697055082179257823e+01 2.161571191981037199e+00 4.676702511733279266e+01
1.671701328640311246e+01 1.481150357367928549e+00 4.686607214272037680e+01
1.754438699359564069e+01 2.600426947153814172e+00 4.662657424057297106e+01
1.806814518988586116e+01 4.928638385340372352e+00 4.640012607698947278e+01
1.784090719482116327e+01 4.230075166707643497e+00 4.647089120522092287e+01
1.808675886825604451e+01 3.541709794053400806e+00 4.647689291424000402e+01
1.822914930796053667e+01 3.888559160222839317e+00 4.643213211734058632e+01
1.797644062470999771e+01 4.568535490476553385e+00 4.643140662165179577e+01
1.820845602122773244e+01 5.720225762705277717e+00 4.634065885137957252e+01
1.783084077295197645e+01 7.384794706513756246e+00 4.631453633367852518e+01
1.724120884918942309e+01 7.400054454039467267e+00 4.639145974381531090e+01
1.815278221475390907e+01 6.859418717822697076e+00 4.629548038689598854e+01
1.809031870526553476e+01 7.218211709334774184e+00 4.628535787617359176e+01
1.661672694454318133e+01 7.426196215106999787e+00 4.647485269616498726e+01
1.693869117877100550e+01 7.890930085031716779e+00 4.639911703951658950e+01
1.876200010407055174e+01 6.809301397624357932e+00 4.620113160947224884e+01
1.752406386397264626e+01 8.197848924165780815e+00 4.630169376021883920e+01
1.868356323714036193e+01 5.285616120367770066e+00 4.629031485927649925e+01
1.875374467733279360e+01 5.681553912615006752e+00 4.625938121486047550e+01
1.823244000811925147e+01 6.092242551257496253e+00 4.632034441794631618e+01
1.850018606881748440e+01 4.565464708666400639e+00 4.635301156259914990e+01
1.682953530666635089e+01 8.593502940084626118e+00 4.637743686604085980e+01
1.880177742406702635e+01 6.425557450688025085e+00 4.621464733919249568e+01
1.863718942592831951e+01 7.526875071343866352e+00 4.618136941722576694e+01
1.811827603380629981e+01 7.860055724625846452e+00 4.624108912208222222e+01
1.726721875348670565e+01 8.478981806925029119e+00 4.631864558345559857e+01
1.644353273778495605e+01 8.865969640263672957e+00 4.642132490148075874e+01
1.840571024397588573e+01 8.335310264968169847e+00 4.616748118013973823e+01
1.759547985342762288e+01 9.066550942468083463e+00 4.623433526236963331e+01
1.693692195102037701e+01 9.128606139604412917e+00 4.633264963114678636e+01
1.810856465719108854e+01 8.504319399359269838e+00 4.619779146371803336e+01
-3.726350723140282817e+00 -1.689416578720396522e+00 1.995327216296804096e+01
-3.203387430385158829e+00 -1.154391369398814815e+00 1.993538594112449402e+01
-3.012677675548485645e+00 -1.936133933053568512e+00 1.989552798612783135e+01
-2.489675132549244552e+00 -1.517879861926866525e+00 1.987365340572947048e+01
-2.585151790916452974e+00 -7.767168112199276386e-01 1.990554408573726519e+01
-3.917022183030148597e+00 -1.024412843086202729e+00 1.998914284729886148e+01
-3.587215173361417264e+00 -6.503229145726984184e-01 1.997911413382091794e+01
-3.156220876664029173e+00 -4.159278872434555852e-01 1.995732472095604493e+01
-4.370226914636726079e+00 -1.611168882813404757e+00 2.004586642747929304e+01
-4.108061927987610495e+00 -3.593649113882460000e-01 2.002501352943288637e+01
-4.511234114913572846e+00 -7.845635208960027862e-01 2.007680163733918022e+01
-2.387409511175465404e+00 -2.963819194134405532e-01 1.994948336985440918e+01
-3.727573111178265730e+00 -5.511229094343442908e-02 2.000910467911720048e+01
-5.059314376645045463e+00 -1.333413471700672037e+00 2.014751585858232019e+01
-4.955152204120104820e+00 -2.086978174418030463e+00 2.012278163968088407e+01
-5.491868793013323646e+00 -1.776156384582740166e+00 2.020319811907483043e+01
-2.483545289278297208e+00 2.770754531371645291e-01 2.001060872364863030e+01
-3.117493542237804949e+00 4.604274571405695959e-01 2.004588119162286119e+01
-4.731489961080703743e+00 -1.370270177140075207e-01 2.011656738370220410e+01
-5.163477236307878471e+00 -5.797885574523770069e-01 2.017225004190840920e+01
-4.418437388597224569e+00 -2.397776573567900193e+00 2.004236500905777163e+01
-4.299606220842111526e+00 3.057376187766746023e-01 2.006088421336206551e+01
-5.596031514849332922e+00 -1.022547125444582150e+00 2.022793234703266663e+01
-5.509083209810713200e+00 -2.580961991054683935e+00 2.026089214161200402e+01
-4.896990037321986122e+00 -2.699436534913406849e+00 2.015321988856858226e+01
-3.735825633326239625e+00 7.218602198943535608e-01 2.008870932788848407e+01
-2.527883838796929794e+00 9.392678278384616330e-01 2.007944035358785939e+01
-5.376111645699196195e+00 2.158622686355527454e-01 2.026999075553251473e+01
-5.754958069428613321e+00 -4.105041692916386320e-01 2.030233087986236029e+01
-6.028586187509216821e+00 -1.465302873601896927e+00 2.028361436330756362e+01
-5.768834285592191691e+00 -2.023162687637741985e+00 2.027225324876899393e+01
-3.172045866819512838e+00 1.137982742688575577e+00 2.011653379077961645e+01
-1.843197240001882120e+00 8.139779401231288514e-01 2.004877888851939716e+01
-4.443342412990330281e+00 8.813825968836985769e-01 2.016306651132932259e+01
-4.836524355066610603e+00 6.861608245296187958e-01 2.019467506297398884e+01
-6.187095468960440492e+00 -8.532717678087269331e-01 2.035801307364599921e+01
-6.035248775282097355e+00 -2.136200989585014920e+00 2.034055744098540686e+01
-3.882974928187469033e+00 1.403260347991535539e+00 2.020807777407987871e+01
-6.041917049061699352e+00 -2.807509814073311460e+00 2.039754164034468786e+01
-6.417517931069518511e+00 -1.029323880303187666e+00 2.041707122393497897e+01
-2.608266167733292562e+00 1.554105772286877185e+00 2.014435752905703580e+01
-1.943636428458206167e+00 1.392090046897492162e+00 2.011047973234613195e+01
-4.587056590883676677e+00 1.457047092191393167e+00 2.026524850285253621e+01
-5.937077761231574158e+00 1.403147235448532759e-01 2.037696331938832728e+01
-6.346550941206623442e+00 -2.411950952271123549e-01 2.043241167388059054e+01
-6.559841412891326939e+00 -1.515170051185322109e+00 2.047813720090400480e+01
-1.533269949272294097e+00 1.593821038256013845e+00 2.015928371216765669e+01
-3.215293089618102229e+00 1.885140509595330860e+00 2.023927703613631124e+01
-5.373428142479152569e+00 1.066617969461120419e+00 2.032846502502443542e+01
-6.806821270137665358e+00 -5.928731406872900234e-01 2.055065517667327768e+01
-3.835103494021393722e+00 2.012001723758275684e+00 2.030235008062407687e+01
-4.251703719215790045e+00 1.800283934007391284e+00 2.029714093338014536e+01
-5.939849985159154855e+00 7.188035829529322296e-01 2.041764196782851215e+01
-6.778056698018869675e+00 -2.072335418834031273e+00 2.060167653853273251e+01
-2.044487398528989974e+00 1.970228707858073358e+00 2.017218036189865060e+01
-5.293995562956002487e+00 1.965318912147238306e+00 2.044243804857952540e+01
-6.506264636422478098e+00 3.709896832303235525e-01 2.050681833803874810e+01
-7.184045253311658996e+00 -9.320651331191591726e-01 2.069453525811182359e+01
-7.196268992475792103e+00 -1.562001508278472450e-01 2.068428833971535141e+01
-2.563829281756875744e+00 2.268584342148613153e+00 2.025581549494780020e+01
-1.535191011858444421e+00 2.291265691325602205e+00 2.026552477405994068e+01
-3.510537524154343725e+00 2.347129694144067802e+00 2.033368587819094131e+01
-4.730754090062315953e+00 2.032728017708321566e+00 2.036743069863817013e+01
-5.910450121066809004e+00 1.447156154429832586e+00 2.046228646466412826e+01
-7.091829150892854372e+00 -1.565099701009656119e+00 2.067292820775982420e+01
-2.207434709245675641e+00 2.572130367199617407e+00 2.030076175861158561e+01
-3.083149600312216965e+00 2.566956504121075344e+00 2.033945026434924586e+01
-4.354833705869467053e+00 2.310441835220123696e+00 2.038602300803502487e+01
-7.309953925571107902e+00 -2.121988351537297479e+00 2.079641084398866369e+01
-3.978660464878247538e+00 2.587900169422879149e+00 2.040455666187399686e+01
-6.666099703341513916e+00 9.837119490965263724e-01 2.058129277504736976e+01
-7.623296529825403844e+00 -1.614971108344499084e+00 2.086752870022539597e+01
-7.919750672784513057e+00 -5.070288241874456592e-01 2.095456022713744204e+01
-7.126124618832038848e+00 6.320376945898136256e-01 2.069960187787348360e+01
-2.726820201590005599e+00 2.870749049007235598e+00 2.038444994597409732e+01
-1.677119678131846481e+00 2.973755483759953133e+00 2.041309999836061806e+01
-3.602487681085193127e+00 2.865359210803272827e+00 2.042309011373347971e+01
-4.874553224044401389e+00 2.608863335470152478e+00 2.046969583770964363e+01
-5.961178903516969996e+00 2.312884251952841197e+00 2.059112013631993676e+01
-7.771501827200790302e+00 -1.061112498634323886e+00 2.091103829162083017e+01
-7.586106301184505796e+00 2.804225988517534685e-01 2.081791133836595264e+01
-2.370489600392782670e+00 3.174542772623905940e+00 2.042944955768550486e+01
-4.498531467596093236e+00 2.886504384833667558e+00 2.048826901733910688e+01
-6.448350633131426868e+00 1.828731509224747143e+00 2.059632835922749194e+01
-7.468147594887384777e+00 -2.190509211171837833e+00 2.093357886117158628e+01
-8.019488084040160558e+00 -1.074753206985838982e+00 2.108180547727541665e+01
-8.067881608269473759e+00 4.687173732835207829e-02 2.099804707947868820e+01
-1.829720072144662257e+00 3.616458581889046897e+00 2.055128046796452779e+01
-3.246386487073960936e+00 3.169517097678140605e+00 2.046817395691569530e+01
-4.122509524087497823e+00 3.164144503013326393e+00 2.050684172189329146e+01
-5.489809348636936370e+00 2.749114670095879731e+00 2.058157270070527645e+01
-6.825926193782236417e+00 1.596976791973435672e+00 2.065577241179947521e+01
-7.976198220783984993e+00 -1.706319493110627139e+00 2.127913359338257138e+01
-7.285873826399536846e+00 1.245108074198493009e+00 2.077402829787898142e+01
-7.975971283546563484e+00 7.182245927717791911e-01 2.095152485527026442e+01
-3.712652635702586856e+00 3.410118587584586969e+00 2.053776952885901963e+01
-6.529847295348083946e+00 2.598571602122541346e+00 2.071624897762151463e+01
-8.416167802831388656e+00 -5.332753509003200776e-01 2.129634506242699388e+01
-2.890001888977998146e+00 3.473412806197354818e+00 2.051319214296957938e+01
-2.533616738187583373e+00 3.777309494054956751e+00 2.055821036623295583e+01
-1.077025673835367847e+00 3.365413704101666958e+00 2.052609468953496119e+01
-3.409606623478368626e+00 3.772078953789998135e+00 2.059689751256117773e+01
-4.642360351131078922e+00 3.462805485704194997e+00 2.059056702592938493e+01
-5.018430897116012090e+00 3.185349503701822904e+00 2.057202489314835958e+01
-6.985695827596857477e+00 2.210716110117440625e+00 2.073023304137516476e+01
-6.074053955622153111e+00 2.986389954986556461e+00 2.070226670803775093e+01
-8.549064484103849892e+00 -1.211299682543882428e+00 2.169938106816353951e+01
-8.215951426545826664e+00 6.013068617698297258e-01 2.104151541944325388e+01
-8.514143560928184584e+00 3.036089160983091451e-01 2.127606141290757336e+01
-2.041454033370107890e+00 4.202217443721487200e+00 2.067419634266306261e+01
-4.006625870895046404e+00 3.888702077026814585e+00 2.064747471768600562e+01
-7.445730389661929571e+00 1.859009292230552557e+00 2.084850882160347751e+01
-8.329227932285368396e+00 -1.797727873267584764e+00 2.169088540337819637e+01
-8.812335931649062815e+00 6.042246640297287662e-03 2.151060700427688133e+01
-8.769036113795479537e+00 -6.252483393313780224e-01 2.170788157323559631e+01
-7.905645263390389310e+00 1.506404661398482947e+00 2.096676400917153771e+01
-1.330951376064341218e+00 4.162353009217574673e+00 2.069474598205862392e+01
-7.119634984009855394e+00 2.847406777867923733e+00 2.088630520557728332e+01
-5.618100936248603183e+00 3.374349500210398478e+00 2.068827920479478877e+01
-8.644729493112544461e+00 -1.341309781553404079e+00 2.193214921647374283e+01
-8.365381262061177381e+00 1.153915944602272647e+00 2.108498336408867146e+01
-3.010496653463432537e+00 4.009662029800693972e+00 2.062662551143233003e+01
-2.696702089242339007e+00 4.379996234591900794e+00 2.068695207896545440e+01
-6.402295801376629569e-01 3.963178822097837450e+00 2.067865119566215171e+01
-5.162214154008909262e+00 3.762257943390052706e+00 2.067429376590304102e+01
-4.626626404775315393e+00 4.218109860641890307e+00 2.074182897264664760e+01
-6.692730221981660677e+00 3.221675005882083109e+00 2.087534463318171518e+01
-7.394560313588279143e+00 2.585342939133976614e+00 2.092474942699502449e+01
-8.532430745053856569e+00 -1.928811308794744939e+00 2.227756673706453228e+01
-8.960106448506323318e+00 -8.856748534818469354e-01 2.217331518235568666e+01
-8.786183542778605471e+00 8.494351377739849385e-01 2.140486724970561738e+01
-8.988697877700682071e+00 -4.034209753561357470e-02 2.171637016238901907e+01
-1.763621039602307317e+00 4.613763254871887654e+00 2.077827399015483323e+01
-3.383728924981502129e+00 4.429493843503852446e+00 2.072808937826993514e+01
-6.116693820535048509e+00 3.701383557579659644e+00 2.085552562513985109e+01
-8.038513641366629159e+00 2.091446131426362154e+00 2.109028165072748706e+01
-8.836231052971884381e+00 -1.367666995874213143e+00 2.238613802263325425e+01
-9.208494747545527659e+00 5.449200746709258469e-01 2.172486351274725536e+01
-9.275471036651429912e+00 -4.304941847022975554e-01 2.241446915628469227e+01
-8.498341028154355214e+00 1.738902667244151878e+00 2.120851105337462528e+01
-2.283110469090551486e+00 4.741026319708923964e+00 2.078531018835957056e+01
-7.165645908012154841e-01 4.620264253237958307e+00 2.082322941025353202e+01
-4.091810502822969653e+00 4.673313753605586207e+00 2.080926604170829108e+01
-7.253464621721619210e+00 3.482680596546520402e+00 2.104226757736438813e+01
-5.661007357384431060e+00 4.089422955766364609e+00 2.084161968409058119e+01
-8.949426845049005763e+00 -1.538614546494880164e+00 2.281221414688518223e+01
-8.756834518935606937e+00 1.634563379635352920e+00 2.135385057557929755e+01
-1.293050844527605436e+00 4.861163167822626363e+00 2.085344894536889626e+01
-4.724648860647491233e+00 4.907868819589890741e+00 2.093483229909995558e+01
-5.313600415251094944e+00 4.407177968466038820e+00 2.086071239101012509e+01
-7.803204974390442139e+00 2.958814850847519384e+00 2.111915977753036699e+01
-8.217263423822533497e+00 2.641389023330558139e+00 2.122560619093061618e+01
-9.163271877675422061e+00 -1.016977903329924438e+00 2.275996500030205638e+01
-8.735700246129042057e+00 -2.059300865241041389e+00 2.286443497560890492e+01
-9.399681552545111174e+00 2.846024789646797726e-01 2.219038788880561697e+01
-9.111790822029114167e+00 1.483591990150675111e+00 2.162014761662227968e+01
-1.869518314188758801e+00 5.102058768138787670e+00 2.088366841025419873e+01
-2.859571263365938254e+00 4.981926872827004971e+00 2.081553325648273756e+01
-3.557113493328256659e+00 5.128426116467840856e+00 2.087668769445183159e+01
-6.766188992443975536e+00 4.005031700537058370e+00 2.104905244808840692e+01
-9.590712234707961414e+00 2.452917524077816505e-02 2.265552642935152861e+01
-9.377039371284315195e+00 -4.961266111139192025e-01 2.270773512352581136e+01
-9.389144068600582926e+00 1.178523411335922422e+00 2.183410735872757158e+01
-8.631293147290460155e+00 2.323978193106152279e+00 2.133205264926120392e+01
-9.370631180759724232e-01 5.189931251023081948e+00 2.094405509476487026e+01
-4.189888583311470960e+00 5.362992036251394978e+00 2.100226125259679932e+01
-8.212012698416019774e+00 3.332506137370820909e+00 2.131364622179626522e+01
-6.159317448601184353e+00 4.415207096943950305e+00 2.100878387343567155e+01
-9.095031581677096355e+00 -1.538685576453161064e+00 2.319646755782433800e+01
-9.506854482648815718e+00 9.682413141120779221e-01 2.201817513508695612e+01
-9.148818529399045829e+00 2.115903799135616214e+00 2.162307884949360215e+01
-9.461133197204670608e+00 -7.016148452214170383e-01 2.317319899515502257e+01
-2.445974332709005328e+00 5.342938792245813140e+00 2.091388791892993382e+01
-5.464814205299943772e+00 5.051527060855565132e+00 2.104693175028722862e+01
-5.767726849468528094e+00 4.666979301115709688e+00 2.100362334506777984e+01
-8.004339080927097783e+00 3.912431384838956028e+00 2.135332292191158743e+01
-7.387315200397708281e+00 4.118176129741788927e+00 2.119826775093894256e+01
-9.454479874770393977e+00 -1.016193051456446561e+00 2.352860436373861930e+01
-8.920254108956767070e+00 -2.211031884602633113e+00 2.359273893777939080e+01
-9.793609453072129156e+00 5.782023284947175323e-01 2.271619303629585573e+01
-9.702322110988610859e+00 -2.355233146143028977e-01 2.325803687488604510e+01
-9.569666003316294578e+00 1.811672279641293182e+00 2.194327163759796306e+01
-8.764324838058017875e+00 2.909500224046008388e+00 2.145568555269918676e+01
-1.390564175131127511e+00 5.590796940185709829e+00 2.101618949742315934e+01
-3.479172212482957161e-01 5.106088758979630882e+00 2.095032004915353241e+01
-3.022420409550945486e+00 5.583762875903510725e+00 2.094410737567198311e+01
-4.874955998103784438e+00 5.663940607974852881e+00 2.115064330101403556e+01
-7.068257690468100485e+00 4.494472211483812707e+00 2.120965797828411681e+01
-9.259835484537521921e+00 -1.559510789153397470e+00 2.369445626290017159e+01
-9.805366794405927067e+00 1.391780008802243396e+00 2.231163284316573936e+01
-9.915490897136731263e+00 5.026720893982580263e-01 2.306075985791079930e+01
-2.085667211409335753e+00 5.818394076852756669e+00 2.103824118039318947e+01
-7.196709988675515923e-01 5.617027236136284962e+00 2.105117338064866317e+01
-3.601198883447248811e+00 5.863545589055545015e+00 2.107636149147164772e+01
-8.621336873857240235e+00 3.706697936349751199e+00 2.150837694326901683e+01
-6.657668054468895313e+00 4.740118672903903096e+00 2.117596196648439744e+01
-9.813975817564177362e+00 -4.949487588949335048e-01 2.386078166121808053e+01
-9.996247987394889734e+00 1.131174258616729711e+00 2.277678037686023060e+01
-9.541118908046037461e+00 2.597649061089743583e+00 2.189252076791349566e+01
-2.678835283803327361e+00 6.037259906568504420e+00 2.106270527511098933e+01
-4.180503358564798155e+00 6.143943094652755121e+00 2.120873636692676101e+01
-6.096427109959886792e+00 5.153491395325586311e+00 2.118166414620802485e+01
-7.972464737809434432e+00 4.444463141947867513e+00 2.143911342597428416e+01
-8.897296145442908255e+00 3.494842333714446081e+00 2.157927733286253869e+01
-7.521330717730035254e+00 4.754538512542493933e+00 2.135447325657459672e+01
-9.577502029678955253e+00 -1.117101077275825194e+00 2.401404653417367641e+01
-9.341079052817047312e+00 -1.741102210912626402e+00 2.416727899667311874e+01
-1.006407569100751509e+01 1.562994870325681573e-01 2.386400098527132130e+01
-9.219246898341612706e+00 3.046242261393279360e+00 2.173589893076508872e+01
-9.750622735202243874e+00 2.445524858781314759e+00 2.205255390887167977e+01
-1.010361075230288108e+01 1.814939951243450533e+00 2.260482160428577814e+01
-3.206855047090265476e+00 6.117616880616785657e+00 2.111866769095167129e+01
-1.034279202654163843e+00 6.203987755695650641e+00 2.117188896644304563e+01
2.073080856923923895e-02 5.591912156299932768e+00 2.107741016932127565e+01
-4.760460351001865043e+00 6.424416610687351259e+00 2.134126092620465798e+01
-5.616085248409705244e+00 5.694859720392350333e+00 2.123323101740503915e+01
-8.572194799654871744e+00 4.517154457229566766e+00 2.163887108473503673e+01
-7.156488316516593784e+00 5.065407620266544342e+00 2.134329783533128833e+01
-1.023988494136588301e+01 9.802933426154012420e-01 2.346550600156555433e+01
-1.019905261443673794e+01 1.684599916298158639e+00 2.283741569268701355e+01
-9.833663676074738902e+00 -6.377462632787236352e-01 2.437114053923776780e+01
-1.725359645052142232e+00 6.293839612786761073e+00 2.116259417494277884e+01
-3.101560849321917668e-01 6.157000842136366892e+00 2.119241931769738230e+01
-5.242033555923522492e+00 6.127516170595793454e+00 2.131071072055938487e+01
-6.722268206796129242e+00 5.463201431918013995e+00 2.136712401129134165e+01
-9.030349039106701170e+00 4.080616588852675974e+00 2.170295750123138134e+01
-9.597262373515242473e+00 -1.261473211063023347e+00 2.452441313333811834e+01
-1.031428129427709450e+01 8.076883567713474266e-01 2.386721869500114934e+01
-1.010381698082460389e+01 -8.991384592651721630e-02 2.425432072844064990e+01
-9.933162852648592889e+00 3.079085025859046088e+00 2.216178245739371633e+01
-2.334708299414274268e+00 6.491445383435987537e+00 2.118148948764946482e+01
-2.875967332478833072e+00 6.492207477819054162e+00 2.121387394742079735e+01
-3.786042553355872364e+00 6.398235392666299148e+00 2.125112367356989296e+01
-4.141143811540506370e+00 6.649759549141867510e+00 2.135596498974508606e+01
-8.113554640361600789e+00 4.954129435103291179e+00 2.157472141333572679e+01
-7.655293948420170302e+00 5.390713862376847132e+00 2.151062860880490391e+01
-9.481652225783182786e+00 3.580027174604078599e+00 2.193228770697190910e+01
-1.016641350682895073e+01 2.658735929000516585e+00 2.252983275935587670e+01
-1.026007403911134297e+01 1.378755063120369995e+00 2.321227627016740414e+01
-1.040191609690601560e+01 2.238186492846385711e+00 2.289806601215174808e+01
-9.360933472442743764e+00 -1.883819637628559196e+00 2.467776504313591701e+01
-9.853351317822884425e+00 -7.820331328630489853e-01 2.488149005626774724e+01
-9.490554424325841509e+00 -1.970560773058707360e+00 2.520504936889112102e+01
-9.617022878066254776e+00 -1.405349167535373089e+00 2.503478000332296460e+01
-9.234232374926014231e+00 -2.449400574819298626e+00 2.484757602927801656e+01
-3.391582447845575388e+00 6.652580176105418630e+00 2.129351098840288259e+01
-1.348868941877528815e+00 6.790951534543646417e+00 2.129260491710975245e+01
-5.767401507888965995e+00 6.338285815014184088e+00 2.141959556838282097e+01
-6.244838221179673354e+00 5.900737989393268101e+00 2.139335973709220440e+01
-9.107560091812969105e+00 4.642711567376449189e+00 2.187877337975387348e+01
-7.221033269651547570e+00 5.788546231641527484e+00 2.153445947394288140e+01
-1.012359286580504758e+01 -2.326305941482773310e-01 2.476460532083511268e+01
-1.035399591858357837e+01 5.615219445678776289e-01 2.425757105313961048e+01
-1.048321513265226912e+01 1.847903962910002251e+00 2.338450968924323448e+01
-9.873032618597031629e+00 -9.268732382495041833e-01 2.539167925286254857e+01
-1.014336999357315250e+01 -3.757479550039216076e-01 2.527489281962705547e+01
-9.363968908241899314e+00 -2.536272337318013381e+00 2.537536171592247669e+01
-6.411431554027544610e-01 6.722302438115168144e+00 2.130747118540955398e+01
-5.339746306446444990e+00 6.703062394629518472e+00 2.147363247827147958e+01
-4.262795489364439305e+00 7.167012459135659874e+00 2.152018068135056694e+01
-8.683378307093933657e+00 4.974667464963536290e+00 2.180069850940235199e+01
-9.365032685032788962e+00 4.478881468103518060e+00 2.199783202394526427e+01
-1.056442791500586509e+01 1.458810331582367503e+00 2.387043199090479462e+01
-1.039371010919499305e+01 3.152123996742642320e-01 2.464792148340337263e+01
-1.004242179967469895e+01 3.728217210515045288e+00 2.234219416311430351e+01
-1.027608960968580831e+01 3.579373897178328878e+00 2.259746377342056789e+01
-9.746600540283450798e+00 -1.492142250692007011e+00 2.556200769747610124e+01
-9.620174838051239519e+00 -2.057318547426750133e+00 2.573233046980287853e+01
-1.990642154683188725e+00 6.945533675856884415e+00 2.130025197177987550e+01
-2.783436883892572045e+00 7.066011297869313701e+00 2.138426731458407914e+01
-3.576229017848959302e+00 7.187349851728642491e+00 2.146828257465873691e+01
-4.866117441823646139e+00 7.253764733909562779e+00 2.159726400799801382e+01
-6.786857324226510890e+00 6.186299346420847556e+00 2.155828542565965122e+01
-8.095534318055104706e+00 5.766087710191215798e+00 2.177854940302738740e+01
-9.703758835086548018e+00 4.103547108738920812e+00 2.217001318965104772e+01
-7.739176812462594590e+00 5.973161686980836826e+00 2.171696825159895994e+01
-1.054195883394552880e+01 2.824673286948866213e+00 2.304119124117043071e+01
-1.062401129276810430e+01 1.089721645864604627e+00 2.445596791998958608e+01
-1.041356009024088181e+01 1.726302860586670651e-01 2.515816768010059690e+01
-1.066986183155910517e+01 2.669549537302077002e+00 2.336052374220771100e+01
-1.010169236618445510e+01 -5.216460578170998286e-01 2.575591816124090627e+01
-9.493625902211634937e+00 -2.623094738924050429e+00 2.590282137249247185e+01
-1.516542149586703192e-01 6.668810583789007040e+00 2.131148014412876535e+01
-5.918683154494421395e+00 6.981634429345635162e+00 2.160592451307060458e+01
-6.352452512395874606e+00 6.584257815347618781e+00 2.158212255690704495e+01
-8.640150271331165754e+00 5.485365457685985824e+00 2.191654309028406189e+01
-9.184740301679227059e+00 5.204644703028202812e+00 2.205453512549351558e+01
-9.699792394211735669e+00 4.877243738320980349e+00 2.229276728548297370e+01
-7.304915673246057395e+00 6.370663792226363142e+00 2.174069456848467041e+01
-1.068359542834194897e+01 7.203312962280021825e-01 2.504150560232286438e+01
-1.072460503299911849e+01 1.976714491422979059e+00 2.397402244004172900e+01
-9.892904414990862705e+00 -1.097359258562885520e+00 2.612686198987454489e+01
-9.739389183759820767e+00 -1.684003596015379189e+00 2.604083872663917987e+01
-9.633478092018295413e+00 -2.170954579369908988e+00 2.622301803885245164e+01
-2.268726489062506069e+00 7.569766442229269643e+00 2.150809733016151881e+01
-1.646678517239908768e+00 7.399476525183124487e+00 2.141897859430864770e+01
-3.478444732437909748e-01 7.177121651440153904e+00 2.141823019481275381e+01
-9.723769736719033441e-01 7.288057239379121199e+00 2.142261472638319120e+01
-4.392666684737491778e+00 7.804599041462970455e+00 2.172093295057483786e+01
-1.033459019739221674e+01 -4.246513934155736469e-02 2.562067322453936669e+01
-1.080071891415786034e+01 1.797556367041290626e+00 2.433676772697285173e+01
-1.068177515296108382e+01 3.410205818970641456e+00 2.318407881640577983e+01
-1.015158499966537242e+01 4.376934755147834366e+00 2.252248542772856510e+01
-1.088481604834918670e+01 2.494712885524436263e+00 2.407762744673854272e+01
-1.014921564564826184e+01 -5.647139042812634457e-01 2.626453087839158229e+01
-1.062128658720423324e+01 5.052307527482194915e-01 2.576294256444315067e+01
-2.998806551238781815e+00 7.748308003419310808e+00 2.160607331749126558e+01
1.927171402420805313e-01 6.936552491859589331e+00 2.138226404841568851e+01
-3.760734911777144696e+00 7.721756341901325982e+00 2.164292494872946193e+01
-5.471635446818620352e+00 7.433622583622694791e+00 2.170243455098356478e+01
-5.024598541443452859e+00 7.885610099054754407e+00 2.179894081690875751e+01
-6.811240916970052517e+00 6.700304279480534753e+00 2.172855430760442275e+01
-8.535589806561732829e+00 6.141314112202581832e+00 2.204635192996786941e+01
-7.822973741388572044e+00 6.555042499701404957e+00 2.192310323293811081e+01
-1.087141731194652472e+01 1.617552317483027968e+00 2.476595534830110168e+01
-1.093772366126713891e+01 3.100777631403948131e+00 2.382281992616258748e+01
-1.033049122955256038e+01 -1.162343134008359952e-01 2.612036300070111494e+01
-9.431270384712398425e+00 -2.598185184375790158e+00 2.659347843356912122e+01
-9.773112186559284709e+00 -1.719532359592850668e+00 2.654269999924447987e+01
-1.012813351612108548e+01 -7.497522152843058008e-01 2.673644060612047113e+01
-1.303079846053569968e+00 7.852930012454136133e+00 2.153757835542205257e+01
-4.577539489438434472e+00 8.337644722392910879e+00 2.189545070908129887e+01
-6.457302140315168693e+00 7.311617658171457812e+00 2.183982654986078131e+01
-9.605988383247888507e+00 5.462913821100180201e+00 2.236995527643361115e+01
-9.262040867090460594e+00 5.767509842390082575e+00 2.223058470542920873e+01
-1.088027466620428818e+01 1.305553225167240816e+00 2.511759709189849943e+01
-1.061954545911042480e+01 4.080440562797351234e+00 2.303380415650456214e+01
-9.640934954493674880e+00 -1.920471752322729042e+00 2.707312917464815172e+01
-9.912788398727567341e+00 -1.267984280936454766e+00 2.686246318900477803e+01
-1.868034771784671477e+00 8.039961111140387473e+00 2.162843175509997451e+01
2.935563938763206815e-02 7.761717062682457424e+00 2.156059892835346403e+01
-6.368660463996110854e-01 7.807324573682668856e+00 2.154908894037167855e+01
-6.033280080204288964e+00 7.557692216296925558e+00 2.183921417387552921e+01
-5.586316522907179838e+00 8.010065046319743587e+00 2.193588352700423982e+01
-7.256849799796206923e+00 7.024356430282835184e+00 2.193839282895358522e+01
-1.026069598822597762e+01 5.025483854007650741e+00 2.270272241570989635e+01
-1.003487957076058379e+01 5.276004421791080645e+00 2.258798492420631021e+01
-8.441485348869345984e+00 6.827259200961054653e+00 2.222194571750992154e+01
-1.103725848489155581e+01 2.136641816864556453e+00 2.480357772378210868e+01
-1.104511640939382744e+01 3.013001075808317886e+00 2.418128256327476322e+01
-1.082149517998849575e+01 3.995334044890068714e+00 2.332686058594682876e+01
-1.099609979808720972e+01 1.145974248905428539e+00 2.560447457702333551e+01
-1.034374037959757331e+01 -2.309766355532492654e-01 2.661026687961886594e+01
-1.055898380966822536e+01 2.885818960135324573e-01 2.648430128512610793e+01
-1.093354834594260616e+01 9.304330415859901615e-01 2.632618333645461917e+01
-2.432991189080448979e+00 8.226891889107289302e+00 2.171928524010255401e+01
-3.433356500988696602e+00 8.126821322478884113e+00 2.174771834057320063e+01
-3.945094064865021899e+00 8.255787562396134760e+00 2.181743134432902664e+01
-5.253967843702740836e+00 8.591259129888943136e+00 2.209906022729429864e+01
-8.976086996160505649e+00 6.516922642367583229e+00 2.231441630147046951e+01
-7.906862729387082567e+00 7.137598002084486026e+00 2.212947303327312909e+01
-1.107686642908339714e+01 1.890432094205322988e+00 2.519364468139671942e+01
-1.123951273310199994e+01 3.003136466295199369e+00 2.477769119446196555e+01
-9.368937104578376918e+00 -2.573321678828174086e+00 2.728390692910246074e+01
-1.027083401030172638e+01 -3.322435135719140065e-01 2.710821169758787974e+01
-1.048620108396222506e+01 1.859590865499792245e-01 2.698223733362380372e+01
-1.041341851987877298e+01 8.500593650037423232e-02 2.748012304764586133e+01
-1.067444982953434796e+01 6.193724341107583742e-01 2.734320571699521452e+01
-1.074722660429466714e+01 7.231307778069373526e-01 2.684508398698165621e+01
-9.781972094927555261e+00 -1.394934004728996424e+00 2.734177570819424830e+01
-9.651315755942007968e+00 -1.521739277206562546e+00 2.782045127757027103e+01
-9.444781966928124106e+00 -2.110899092215657635e+00 2.779171920930477668e+01
-9.067212040431535058e+00 -2.911221277727157553e+00 2.787567522216102489e+01
-1.005538572646535656e+01 -8.507068686672538682e-01 2.723439151335792374e+01
-2.998099266310013000e+00 8.414480781148844457e+00 2.181016360217736150e+01
-2.058743043539469131e+00 8.552318469346531060e+00 2.182491627856957095e+01
-6.148034098094179001e+00 8.134559323544324982e+00 2.207282624183516617e+01
-9.339286415903671923e+00 6.330034442732463518e+00 2.240652286010271865e+01
-9.657047384046350658e+00 5.924116207703871595e+00 2.250672970362309044e+01
-8.404058171524438237e+00 7.360843050361117079e+00 2.237103734616368200e+01
-1.129112546354481417e+01 2.023613064543793971e+00 2.571872976463957627e+01
-1.120553071013918256e+01 3.531917797830780081e+00 2.428500130951639591e+01
-1.108348100043217777e+01 4.056393972786979774e+00 2.387749586865914253e+01
-1.096273754079992813e+01 4.581126276220033766e+00 2.346979337107362085e+01
-1.066648084977224364e+01 5.127728774937189371e+00 2.317655600690536488e+01
-1.019792821949704198e+01 -4.335941958862792323e-01 2.760610939094141969e+01
-9.924581496880923837e+00 -9.777209595133473652e-01 2.771336306107805214e+01
-1.006694992115287768e+01 -5.608905162893413898e-01 2.808525587042986871e+01
-1.554318981724695403e+00 8.421213074047321001e+00 2.175704379503424946e+01
-2.455115680489003527e+00 8.931208364748183470e+00 2.198008877837719410e+01
-1.035161762420002907e+00 8.433710997119915120e+00 2.174044509927412605e+01
-2.916396109690144733e-01 8.432479383746029455e+00 2.176972655607329443e+01
-5.770361973037164027e+00 8.499887840738280076e+00 2.214820245756832762e+01
-4.720695654806815078e+00 9.059009065998527177e+00 2.218754660383234878e+01
-4.129659234568666015e+00 8.790478417968749625e+00 2.199213580633497145e+01
-6.996117355200757615e+00 7.641748697078373453e+00 2.207381203542539438e+01
-6.483194358631518384e+00 7.779411657022865967e+00 2.201502819135202671e+01
-1.036989582504527974e+01 5.674680655207415825e+00 2.288313173690462321e+01
-1.005204636758649706e+01 6.080725619936358406e+00 2.278286974461288494e+01
-8.969141914493080847e+00 7.362600493724350770e+00 2.256900047695337364e+01
-7.537202694917121804e+00 7.499186568020076216e+00 2.215709905852619954e+01
-9.416514557327456458e+00 6.892475166842507051e+00 2.258243029000277602e+01
-1.127344667607574635e+01 2.475210534959737085e+00 2.526967582801960788e+01
-1.060167349628320999e+01 5.185751061702749132e-01 2.784123803311988254e+01
-1.093562658924564523e+01 1.157755324110453898e+00 2.720610554565008243e+01
-1.130880397480524735e+01 1.571887890381983288e+00 2.616776714140386773e+01
-9.520608644395458953e+00 -1.648599483816964195e+00 2.829921782698137633e+01
-9.268892382459647195e+00 -2.182248560427446193e+00 2.835505318349041914e+01
-9.793777330165067241e+00 -1.104746177878193070e+00 2.819223645468114370e+01
-1.034061253024678884e+01 -1.607012047936191845e-02 2.797808360623134050e+01
-3.563714034950988818e+00 8.602365987522670565e+00 2.190112329686706971e+01
-9.734272693747383798e+00 6.486631275436953281e+00 2.268264244252943129e+01
-7.990731776439709222e+00 7.720039019085513488e+00 2.233579826095346021e+01
-1.144881207332757889e+01 3.127169468530777596e+00 2.550230977559349199e+01
-1.140357167559259288e+01 3.831738692206137387e+00 2.484582731991124760e+01
-1.121649695451669970e+01 1.581957191687151099e+00 2.686760973158697752e+01
-1.129702602821742197e+01 4.087381028276212191e+00 2.448176432233555033e+01
-1.086272233237780505e+01 1.054226571694532266e+00 2.770439860347466876e+01
-9.017283456457475310e+00 -2.715672741032104653e+00 2.841085954031755634e+01
-9.808371423755662732e+00 -6.679429477056693099e-01 2.860757959669759387e+01
-9.535203310077063676e+00 -1.211699827133163820e+00 2.871465987927069818e+01
-1.008180684699863683e+01 -1.234977737487264887e-01 2.850056176173475819e+01
-1.805705057183412565e+00 8.989840198431867435e+00 2.197663993776771463e+01
-3.132385974882573532e+00 9.126336921609363273e+00 2.207812096090477638e+01
-7.670990854056064512e-01 9.014801435945866359e+00 2.194342010110851859e+01
-5.787005233110724234e+00 9.019333506925024224e+00 2.234458805075390231e+01
-5.311252768939172419e+00 9.327383401145008079e+00 2.238279798256550279e+01
-6.781234252363551818e+00 8.251457409827038347e+00 2.224945831653706563e+01
-8.521964116907286169e+00 7.832501945246308495e+00 2.255557776829872907e+01
-9.031582103528126737e+00 -2.380169585794502218e+00 2.887714227530233302e+01
-9.283144131045052205e+00 -1.846716633471136237e+00 2.882147835978897987e+01
-1.100903416628310083e+01 5.189620368484776591e+00 2.369175887654149903e+01
-1.147169359866937910e+01 2.659895460401925149e+00 2.580807586407185639e+01
-1.145216054618347279e+01 3.545640483527553677e+00 2.522928555286672392e+01
-1.149532615525404644e+01 2.057500040735328994e+00 2.640717742792461564e+01
-1.116591123584020728e+01 4.972457015167632832e+00 2.400431193678407027e+01
-1.041250356231363661e+01 4.794767838269530236e-01 2.836307382686758061e+01
-9.297901071701625497e+00 -1.409706260004111478e+00 2.924063807493810785e+01
-9.549792798078346578e+00 -7.750019833704152594e-01 2.913448666281658461e+01
-1.067355821818470218e+01 1.013989572754562030e+00 2.822622047840487980e+01
-1.112419034285614394e+01 1.591954684619313332e+00 2.756733931415264394e+01
-1.093493888486432830e+01 1.552328549036037231e+00 2.808916565327472270e+01
-1.297732304562632333e+00 8.919529708924631706e+00 2.193001460071988262e+01
-2.057181378593485377e+00 9.558682133706168926e+00 2.219631636639707040e+01
-2.700693614661084041e+00 9.650768417781716124e+00 2.225517132420660360e+01
-6.262757331414140261e+00 8.711288835742099224e+00 2.230637752365399251e+01
-4.274391377083984089e+00 9.333131516470652755e+00 2.224420831262582965e+01
-7.535443189027083655e+00 7.972202394379664270e+00 2.230801625086916573e+01
-1.062936071537225757e+01 6.122046120708765748e+00 2.337501485951646174e+01
-1.039516231322940243e+01 6.325837748322891585e+00 2.313916892043046403e+01
-9.434571697313595351e+00 7.433495360706753985e+00 2.281480295644321288e+01
-8.074609934488357510e+00 8.302565452024277093e+00 2.254214928149901098e+01
-9.045881970684368056e+00 -2.044666419482977560e+00 2.934691978572883997e+01
-9.767986869440003161e+00 7.354561410482136630e+00 2.302398391592114280e+01
-1.164724331710882943e+01 3.312122839413110142e+00 2.604112205607338382e+01
-1.146610772526183020e+01 2.136054383534220946e+00 2.687482577189228650e+01
-1.137218311030785500e+01 2.070953494022066188e+00 2.734057157084577128e+01
-9.312659762040292222e+00 -9.726951748431238443e-01 2.966610562042235699e+01
-9.823008067267604559e+00 -2.309341862406723567e-01 2.902724505434177260e+01
-1.015369148835660695e+01 3.719917214183320886e-01 2.888944614178490866e+01
-1.048439525416992701e+01 9.749847886137263941e-01 2.875176040803741628e+01
-3.737130353753453260e+00 9.266635961760107065e+00 2.215300068438800452e+01
-4.858443255783899239e+00 9.808508949638499175e+00 2.252727061232523909e+01
-6.773218644762198259e+00 8.897135872910842735e+00 2.248200165738444767e+01
-8.999460184291855569e+00 8.116727757089730488e+00 2.289530469715750272e+01
-8.780188802608227761e+00 -2.913205464057834870e+00 2.893285367115135642e+01
-1.042037677150124964e+01 6.975940616694127350e+00 2.339477934978295082e+01
-1.138849946224579490e+01 4.642711605420454468e+00 2.467845998806691910e+01
-1.147348929145242913e+01 4.341398262395281371e+00 2.498342864619819537e+01
-1.162423706188730854e+01 3.779334491042098065e+00 2.573497782948897949e+01
-1.160164412354760977e+01 4.131854363616270120e+00 2.540669286643995406e+01
-1.167025004290525203e+01 2.844857690017752461e+00 2.634726723057798026e+01
-1.168190291245784884e+01 2.543225309995155392e+00 2.664661534041936619e+01
-9.060733668453643475e+00 -1.607601492979858326e+00 2.977204146777567217e+01
-9.564383226935701643e+00 -3.383040033983697459e-01 2.956024236106624414e+01
-9.894879925138246435e+00 2.644838549715460840e-01 2.942299202037014183e+01
-1.022576286444629012e+01 8.679426090451894948e-01 2.928555235108855115e+01
-1.074563622855092859e+01 1.511371407138673906e+00 2.861472957810119766e+01
-3.344205593878228910e+00 9.743368849897400708e+00 2.231402631492828803e+01
-6.377446799426202517e+00 9.287863603832366977e+00 2.253986093880978459e+01
-5.901664775270676344e+00 9.595728426454888549e+00 2.257799927939541362e+01
-8.432779943708323955e+00 8.626642256127468045e+00 2.284288269669461258e+01
-1.105532151673492969e+01 5.798280186825027549e+00 2.391376894399306963e+01
-1.136881399461818454e+01 5.363270804011235349e+00 2.453807789022576102e+01
-8.794514139322712865e+00 -2.577797379724840798e+00 2.940150836789447197e+01
-1.155613008102699446e+01 4.757693199175188958e+00 2.517388663151089645e+01
-1.162036306044193879e+01 2.550177835104686874e+00 2.711363381016120400e+01
-1.134600435650328976e+01 2.108689965714989345e+00 2.792106800248607712e+01
-1.159427760070697033e+01 2.588195306930514583e+00 2.769430564312474630e+01
-9.018811286326112509e+00 -1.155085342934986103e+00 3.024576863005256300e+01
-1.055631702070678912e+01 1.470591602316602575e+00 2.914822402834484905e+01
-9.814224320271403457e+00 8.047010607102698110e-01 2.988065798667801332e+01
-2.952019516619734496e+00 1.021932917651287553e+01 2.247474581625735013e+01
-3.881693423721497727e+00 9.809924696399180633e+00 2.240520306021119268e+01
-4.419181478213859648e+00 9.875927503087735815e+00 2.249637956017515705e+01
-5.491908993896911007e+00 1.000571454336672161e+01 2.269786881172116821e+01
-7.228458960553157731e+00 8.576778875133248548e+00 2.246227639309991631e+01
-7.679135120897536027e+00 8.692789547896735414e+00 2.259988877037949706e+01
-1.088854200890207657e+01 6.568932351673011816e+00 2.386633293370817910e+01
-9.452638948421132170e+00 7.974930042819838860e+00 2.304734714167713960e+01
-1.147998855431887399e+01 5.198137018274984200e+00 2.487516335476297868e+01
-8.808838382171510162e+00 -2.242434833215244172e+00 2.987794883057405926e+01
-1.011955829927101291e+01 7.816784189384882175e+00 2.346563890636001304e+01
-1.184581823375682497e+01 3.497459129512693998e+00 2.658012208475433269e+01
-1.186882596190859473e+01 3.029828471927380029e+00 2.688643677170570712e+01
-9.270745631728482650e+00 -5.203682419055516428e-01 3.013997523531584832e+01
-9.483608948653390769e+00 2.015345532159031616e-01 3.001696519735132185e+01
-1.014483998350051586e+01 1.407818058844810816e+00 2.974440415584559361e+01
-1.096765986045395991e+01 2.030244227238109378e+00 2.897822602797104707e+01
-1.115683171477485658e+01 2.069490908431175669e+00 2.844402544677335598e+01
-6.887846368047744861e+00 9.473563432653806515e+00 2.271541413629901029e+01
-7.283680704145383267e+00 9.082990471278639788e+00 2.265762429805686295e+01
-8.108655212322000594e+00 8.842159998154595968e+00 2.280186183828273272e+01
-1.044563447970833536e+01 7.627400380980101424e+00 2.365090854836021350e+01
-1.182283751693437956e+01 3.964499906983386168e+00 2.627416020508795214e+01
-1.179982669663335493e+01 4.432101030129496522e+00 2.596779877482175891e+01
-1.184255070161292345e+01 3.067570256294826159e+00 2.746754287389761373e+01
-1.156803881907415743e+01 2.625902882972250385e+00 2.827450986291663426e+01
-8.766982687608070535e+00 -1.789826778612073621e+00 3.035126524158218686e+01
-9.402772366797037762e+00 7.418060504135846056e-01 3.047061610205608773e+01
-9.734052786065031881e+00 1.344883787917869000e+00 3.033403835690282691e+01
-1.057101915467482200e+01 2.040324214671839886e+00 2.956313409077073118e+01
-3.605916564546952863e+00 1.039893129894743851e+01 2.262847718239935446e+01
-6.492062523780465888e+00 9.864081929122047399e+00 2.277319425097825700e+01
-4.563840941739288226e+00 1.041825104824553350e+01 2.274832062287394407e+01
-5.118201992858086413e+00 1.055111916068751654e+01 2.288062665969725984e+01
-1.110157106868168597e+01 6.406704923140034147e+00 2.413567280006320459e+01
-8.790932441919334650e+00 8.950706773247816272e+00 2.314358949063717219e+01
-9.470692085709078611e+00 8.516030039285022113e+00 2.327973971580015444e+01
-1.157183621656253081e+01 5.754317934379939992e+00 2.507210060728744949e+01
-1.164772030085384635e+01 5.313324591907785610e+00 2.537083798836047777e+01
-1.172375998249690632e+01 4.872807861997952017e+00 2.566926622652275114e+01
-1.194491528575172978e+01 3.509520890334856258e+00 2.714776536616792058e+01
-8.725128022006336082e+00 -1.337223644280220114e+00 3.082222455585791110e+01
-8.976890094104785334e+00 -7.025685419670580911e-01 3.071686038748051573e+01
-9.136642620410055926e+00 -1.609874475410489336e-01 3.062441176037084745e+01
