1.126613460228663932e+01 1.816014166865794977e+01 3.379058985483195698e+01
1.156507992210431368e+01 1.750329966259243974e+01 3.337522922453587881e+01
1.197501031150248707e+01 1.104721362513153338e+01 2.931057359209071222e+01
1.244679949099352001e+01 1.164760860384009433e+01 3.004387681306663893e+01
1.150748244730842451e+01 1.075586497795083751e+01 2.873330721072611738e+01
1.265079468980779964e+01 1.531603721003384244e+01 3.257507217170786618e+01
1.280593518905066475e+01 1.372689788347611284e+01 3.162210533066986073e+01
1.284594544012941419e+01 1.214290795357595520e+01 3.074294380246558234e+01
1.067247530795938459e+01 1.080739114397724521e+01 2.797971395862573374e+01
1.253241900404089826e+01 1.310141080224542165e+01 3.097648392422405195e+01
1.303004797532923043e+01 1.500135978531067060e+01 3.272805699413206071e+01
1.096719569281436257e+01 1.881698399538139910e+01 3.420560287486375728e+01
1.226894460057442693e+01 1.691460842179705892e+01 3.367661883164772973e+01
1.249782624599674996e+01 1.082391959557014793e+01 2.968183000836377516e+01
1.285926239344810185e+01 1.161513561982028797e+01 3.045017903069490472e+01
1.102837067760426493e+01 1.036339391595346449e+01 2.809521757590010438e+01
1.281928342755896644e+01 1.319887250045912097e+01 3.132920263163564911e+01
1.283261520030473690e+01 1.267102512450962060e+01 3.103622469792166072e+01
1.239744895693965532e+01 1.638129345600079034e+01 3.330911574354339422e+01
1.279255615826015635e+01 1.425512734399828396e+01 3.191503070648195717e+01
1.301162076758571651e+01 1.557840435009455149e+01 3.327234488135808732e+01
1.044375390007851756e+01 1.923586893679223664e+01 3.410282196277090350e+01
1.178943753939666550e+01 1.774147689833920083e+01 3.389296287604960156e+01
1.149028050175786220e+01 1.839838848399766746e+01 3.430815306389878572e+01
1.214126863653777022e+01 1.744728323010430415e+01 3.404367764302104860e+01
1.287257481392743763e+01 1.108740826116955880e+01 3.015817315573770330e+01
1.311740647247335900e+01 1.385379323907751115e+01 3.202911279848095916e+01
1.313197733753226792e+01 1.430489167825497532e+01 3.230709972068735425e+01
1.292183554802640444e+01 1.609624966569080229e+01 3.366753185754291167e+01
9.920433854113593242e+00 1.965465953059076654e+01 3.400171107793038061e+01
1.212303589791421565e+01 1.056040199794075995e+01 2.920459151891755312e+01
1.319345822767406595e+01 1.187590939824306169e+01 3.095935854953328459e+01
1.137417751603181060e+01 1.003387381494857955e+01 2.825043271241999676e+01
1.328069495129793864e+01 1.521982344431945933e+01 3.324856478563727791e+01
1.201368522018968399e+01 1.797954196152809203e+01 3.441045374968985726e+01
1.122157166989464017e+01 1.876568878577940680e+01 3.471587449165532036e+01
1.250794068763406486e+01 1.709696913950346442e+01 3.414676500227709255e+01
1.278279558537449390e+01 1.662506271149975845e+01 3.401869329662427788e+01
1.343344298652584534e+01 1.450152576479603361e+01 3.287914760225085331e+01
1.174870594338070262e+01 1.029720766149672428e+01 2.872757749542840600e+01
1.279824393165796970e+01 1.046941400574356962e+01 2.987017315218531621e+01
1.320685059526049621e+01 1.134821995533663852e+01 3.066679285235500529e+01
1.337691632889738358e+01 1.211784746740148933e+01 3.129663549701359315e+01
1.332859463942714839e+01 1.327357032532608905e+01 3.191757156012497632e+01
1.334477938637950167e+01 1.263111943207220911e+01 3.156105603059451070e+01
1.072896714659762551e+01 1.925460816373831108e+01 3.490699557161582334e+01
1.002738691117796499e+01 1.977475459732999141e+01 3.464615343961551730e+01
1.168068552192265841e+01 1.841058256917924396e+01 3.484321334196165765e+01
1.223634646761280997e+01 1.007462722487174567e+01 2.915464114694511011e+01
1.318379597909215661e+01 1.057116538124627425e+01 3.029486948837455174e+01
1.348496864701564313e+01 1.382655251113217965e+01 3.240648647836437846e+01
1.353199699025621250e+01 1.543829815347178247e+01 3.376909613128275112e+01
1.241830772500495961e+01 1.755839130553442118e+01 3.449028375400102675e+01
1.187594722308509354e+01 9.750606211565759907e+00 2.867117094246433240e+01
1.354096903234032645e+01 1.160890998730695323e+01 3.117576762546276825e+01
1.378542647748885308e+01 1.471191288181175594e+01 3.353184192779001194e+01
1.331396381284160491e+01 1.613812913654743753e+01 3.418734635218112317e+01
1.213932501374123696e+01 1.807257558208744541e+01 3.506808067991046585e+01
1.134741598623791425e+01 1.884198350631743324e+01 3.527606290299183911e+01
1.282259313733917772e+01 1.713759916769827285e+01 3.457005752963427625e+01
1.272398924854631197e+01 9.852048520872973114e+00 2.958179628152873164e+01
1.309357797988923799e+01 1.003935868386638042e+01 3.002049510831768231e+01
1.359647891083016802e+01 1.073088815298082821e+01 3.085079855023089834e+01
1.387506953958505562e+01 1.186958850350208117e+01 3.168519529818815883e+01
1.376901653721667707e+01 1.270209281562031478e+01 3.205631961606177072e+01
1.383790228902052277e+01 1.334826934443185387e+01 3.250585694357365441e+01
1.390066720046093707e+01 1.393660738469843530e+01 3.306554041252545062e+01
1.322692492423895594e+01 1.671676532991559228e+01 3.464984474734557551e+01
1.180628854083948376e+01 1.850386920838123217e+01 3.550096381876379326e+01
1.261343410887331551e+01 1.750777333999188912e+01 3.496006556326122450e+01
1.226283194754178929e+01 9.492568492550757853e+00 2.898198354109825559e+01
1.161630653820529346e+01 9.462041789828148808e+00 2.830398599914335378e+01
1.387860197512431348e+01 1.513528571967314740e+01 3.400169452643132217e+01
1.378471517193910856e+01 1.565661185097560626e+01 3.428924865359192609e+01
1.101418008625095446e+01 1.927334736227200551e+01 3.571113437868683604e+01
1.308566460676836307e+01 1.706458115945009268e+01 3.518990217524873287e+01
1.349488448892840786e+01 1.005514240607018728e+01 3.043150154342947289e+01
1.202582888784822579e+01 9.106305510571560902e+00 2.860458560280015661e+01
1.410240322661856460e+01 1.132856591252252265e+01 3.171118329124985280e+01
1.401035504104165241e+01 1.079206524536031431e+01 3.136439281538009993e+01
1.419084814980621267e+01 1.286995520487562139e+01 3.260522857512881956e+01
1.428918980506965575e+01 1.413315488889615779e+01 3.375703392682707715e+01
1.363136864711099072e+01 1.629578888907300538e+01 3.472966186901039265e+01
1.056141807953871314e+01 1.962412018290613247e+01 3.558843978360461335e+01
1.271146166972052605e+01 1.762588314725803329e+01 3.560179790399325128e+01
1.157661651080138832e+01 1.889536492529620304e+01 3.610334673192850374e+01
1.226516174368570589e+01 1.816575415992731024e+01 3.572638782804229862e+01
1.345115794446298807e+01 1.661308291099473422e+01 3.506093105589042835e+01
1.264971548423093672e+01 9.234531472770125760e+00 2.929281531599152189e+01
1.322500736877138827e+01 9.476020160454686092e+00 2.995875518541240723e+01
1.398611692232152670e+01 1.011372792101084350e+01 3.103487500531401366e+01
1.420956246127619238e+01 1.213057597389750164e+01 3.219507958428271621e+01
1.422838143327036420e+01 1.167231471601045456e+01 3.201285392309938516e+01
1.413771551847073482e+01 1.337242992196123126e+01 3.293671616008862912e+01
1.420364933137774877e+01 1.471408724093384457e+01 3.410804619193940113e+01
1.200651091674350290e+01 1.852679616293313813e+01 3.614677297467100203e+01
1.437418879473970534e+01 1.355258044997673217e+01 3.340623008085252366e+01
1.257533739804222073e+01 8.616145940455268715e+00 2.900354810187068466e+01
1.445907618722723242e+01 1.297201757640008069e+01 3.305542991996955493e+01
1.411966280681106412e+01 1.529459170795260903e+01 3.445879768672426735e+01
1.403673845107706875e+01 1.587494837888679378e+01 3.480945478436675700e+01
1.068105159824794193e+01 1.970457728859139834e+01 3.614492902121025963e+01
1.115852035975965606e+01 1.932223132239277419e+01 3.628122039507135810e+01
1.352922953533719586e+01 1.670061383868657146e+01 3.555377167822481255e+01
1.378256486695131500e+01 1.628766511231065905e+01 3.518149919801251713e+01
1.380545147185505961e+01 9.539983311229669027e+00 3.056790076206662476e+01
1.171373877553411091e+01 8.575220795383298622e+00 2.809996530947476501e+01
1.451063293870020843e+01 1.128154964774384439e+01 3.217053939528402395e+01
1.449399169279665145e+01 1.072691452334219875e+01 3.190391687931155573e+01
1.454392205782906444e+01 1.239146046060670159e+01 3.270463792485328725e+01
1.470269105134342702e+01 1.437426282628826613e+01 3.445701635956820041e+01
1.263383287348681172e+01 1.788593733392014329e+01 3.609292642045036814e+01
1.197434535926974419e+01 1.879767806274018582e+01 3.692646140547103784e+01
1.239078674791913670e+01 1.825877618872798536e+01 3.638327537726104310e+01
1.327568471602947753e+01 1.711392619314971242e+01 3.592620324535608489e+01
1.415530981120737408e+01 9.498032057151553076e+00 3.096049199230779791e+01
1.316426419931247871e+01 8.861892050948044997e+00 2.968459577613588252e+01
1.216582912235398695e+01 8.503940643533059784e+00 2.854220922526434379e+01
1.452726681916741036e+01 1.183607558651641689e+01 3.243751624084472951e+01
1.447734827932900359e+01 1.017231357038505735e+01 3.163824564397410555e+01
1.444682615173602969e+01 1.493339931106294394e+01 3.458046540643880462e+01
1.476035088065233403e+01 1.373971855973512923e+01 3.402973015594793083e+01
1.441645070751490287e+01 1.538658547158054546e+01 3.489593250182635131e+01
1.089056342965876212e+01 1.968920663229566514e+01 3.669406785398031445e+01
1.143250617556529747e+01 1.924339897464399840e+01 3.681085455511143323e+01
1.302259718249956144e+01 1.752651861760602614e+01 3.629765736933492803e+01
1.396833311031748615e+01 1.631812644723291328e+01 3.570583691602767118e+01
1.366073395170943883e+01 8.873689993004600041e+00 3.019121218651882188e+01
1.446070792207317979e+01 9.617822524297460873e+00 3.137260780838128582e+01
1.482289346962487642e+01 1.259951156125750771e+01 3.321214411595818916e+01
1.487065223313477524e+01 1.315507747937286709e+01 3.370701755527439047e+01
1.420982956675836029e+01 1.596373686438963801e+01 3.544486404152743830e+01
1.034839010105086032e+01 2.013520549959110539e+01 3.657743511675012371e+01
1.382203641532007055e+01 1.663314924038820308e+01 3.610401011354607448e+01
1.411609363612835821e+01 9.024698788084767997e+00 3.070433081685330023e+01
1.306708443779063522e+01 8.256395331753319411e+00 2.937668810903331718e+01
1.250100222686459084e+01 7.998111415151004877e+00 2.871449182284725765e+01
1.483214071828075298e+01 1.138525102944718626e+01 3.257834013920123795e+01
1.501129745064981691e+01 1.075966920706467000e+01 3.249948676614674525e+01
1.476624406930195654e+01 1.030799148480022609e+01 3.202279492650686876e+01
1.487259250928556220e+01 1.185773127624207923e+01 3.283523932475561935e+01
1.517856555497633941e+01 1.383342787797283435e+01 3.461955037164280924e+01
1.479602663063089274e+01 1.489747063580206188e+01 3.498254134039827079e+01
1.459104387287588622e+01 1.547503675513010890e+01 3.553167952513165773e+01
1.276959443758877910e+01 1.793898818081463276e+01 3.666867838231878807e+01
1.165202069617236980e+01 1.901041402631766175e+01 3.731610188589837662e+01
1.251639768312459999e+01 1.835178367023856794e+01 3.704184074279969963e+01
1.444406664120009509e+01 9.063373304004540998e+00 3.110698131956142021e+01
1.207037510351783638e+01 7.977697625357041744e+00 2.826290601702333660e+01
1.520055360372706410e+01 1.132514920534630143e+01 3.296545198738544258e+01
1.510177758239022694e+01 1.280750694964029357e+01 3.371952350222548489e+01
1.514636986132421548e+01 1.338981185914023797e+01 3.423152987625087462e+01
1.517592135055519975e+01 1.440884073911142416e+01 3.506905570994343435e+01
1.116288010482478477e+01 1.937928344404830838e+01 3.750353582931363405e+01
1.033085956449544973e+01 2.007628343687808581e+01 3.721476362259372195e+01
1.206884053330943196e+01 1.866122084811654602e+01 3.746062231922244479e+01
1.356069218832286083e+01 1.709634827869538753e+01 3.657649402306648767e+01
1.438402168116778590e+01 1.605260269657123473e+01 3.608082981578816373e+01
1.362655397048851214e+01 8.056908980064607206e+00 2.987383713654034878e+01
1.282643535162227799e+01 7.605926776911644538e+00 2.890810398088608224e+01
1.476851581183749218e+01 9.830757877595683425e+00 3.181279470463134018e+01
1.479591400233375609e+01 9.306679038405659909e+00 3.161011017052131322e+01
1.067969938894173509e+01 1.977107940806553898e+01 3.744922382762732127e+01
1.250518531691176349e+01 1.824795627170652068e+01 3.766764539303013493e+01
1.316212847357392057e+01 1.757547768430624657e+01 3.675343705451889775e+01
1.411484095066479050e+01 1.656568614716776011e+01 3.665404668703139635e+01
1.538066667535639986e+01 1.301552169664838310e+01 3.422695228879666729e+01
1.402702700922228907e+01 8.282633442905865451e+00 3.035730673236218280e+01
1.442740554336502079e+01 8.508304508379398001e+00 3.084083081822534211e+01
1.322632513257843456e+01 7.831322290807738007e+00 2.939074340638682514e+01
1.508006597714815733e+01 1.005030203093465246e+01 3.226011433001956163e+01
1.477932547704349808e+01 8.751963578892068440e+00 3.134442403788507647e+01
1.520254255036744873e+01 1.202893557495361598e+01 3.339061941308417403e+01
1.552860180586964489e+01 1.079242211804729301e+01 3.309564340520887527e+01
1.555764782752837583e+01 1.391999183053602351e+01 3.515560938651854883e+01
1.565962397097030490e+01 1.322361415574493471e+01 3.473457112240732414e+01
1.506723757967765387e+01 1.486416048758524511e+01 3.563952661201816596e+01
1.295957016514388549e+01 1.792737401340343695e+01 3.710296765342282299e+01
1.162153542610673007e+01 1.897048684611021940e+01 3.787756096581919252e+01
1.455801378275462987e+01 1.614136947248436726e+01 3.671612140221211007e+01
1.074377362176836925e+01 1.964852882047794225e+01 3.807350069752676802e+01
1.558737843663149647e+01 1.223129883010946450e+01 3.403995178560720802e+01
1.564272625046643661e+01 1.138509251466314787e+01 3.360807538353099488e+01
1.539754368170969734e+01 1.431801434314444599e+01 3.548803701951844403e+01
1.486268095168466097e+01 1.538620539875767257e+01 3.608988878870582795e+01
1.031331089368730858e+01 2.001730626617936082e+01 3.785272338796205815e+01
1.205775675746143705e+01 1.855733623240071850e+01 3.808538160543589157e+01
1.340253342090647592e+01 1.750316765522802243e+01 3.716434190717449582e+01
1.384570137617190078e+01 1.707876951339011029e+01 3.722667036750676317e+01
1.117423666250585335e+01 1.927975127234391195e+01 3.829429683614124968e+01
1.365076610028477511e+01 7.245757945668939826e+00 2.972770240418177323e+01
1.394762487251567862e+01 7.728229409386969451e+00 3.015304334973047418e+01
1.545358896947989358e+01 1.016464583860071791e+01 3.273008614181803466e+01
1.510926759426964949e+01 9.510159712517635811e+00 3.205230862314591889e+01
1.513112012462649858e+01 8.995537432491277130e+00 3.184761338528558028e+01
1.573614143745779792e+01 1.389808639449921301e+01 3.559356924585162574e+01
1.593844309715295715e+01 1.343165464645980123e+01 3.524206656544566840e+01
1.475401413299126396e+01 1.573958117941227997e+01 3.647373081506442816e+01
1.294825242889374373e+01 1.782367698538752876e+01 3.772860555450210285e+01
1.249398003750091313e+01 1.814418474801856718e+01 3.829310034372585392e+01
1.428857796075920561e+01 1.665465469293370049e+01 3.728875244861288252e+01
1.154472570643022777e+01 1.889769698909680784e+01 3.864224160815313525e+01
1.029575076740544404e+01 1.995828453031631255e+01 3.849116947770158959e+01
1.571805598981100793e+01 1.266858100909593077e+01 3.448162044893798850e+01
1.430985064183708744e+01 7.891450707195803105e+00 3.058164541946537796e+01
1.316818960643773728e+01 7.056460671965361087e+00 2.916283379753902594e+01
1.518060624135317127e+01 8.544484272734781172e+00 3.178235229152351238e+01
1.584126048589538982e+01 1.079404302177943720e+01 3.352557953832476301e+01
1.606209820458688498e+01 1.157929733911710279e+01 3.429996701016072791e+01
9.733429563833063014e+00 2.036204543556508284e+01 3.821982799493488159e+01
1.204530215519259428e+01 1.844323500104659175e+01 3.877246392568874711e+01
1.473193050861716280e+01 1.623009166941753278e+01 3.735081142118588104e+01
1.383649937680204012e+01 1.699588120859309726e+01 3.772604173794349691e+01
1.338777510225406253e+01 1.736833519197034903e+01 3.797776438850890912e+01
1.072624462867288742e+01 1.958949602563210846e+01 3.871181147620068685e+01
1.602095228184735021e+01 1.219664858648777361e+01 3.461395775877517167e+01
1.597975301517645796e+01 1.281416995657416180e+01 3.492803025584602494e+01
1.470182058034843742e+01 7.961718751212993439e+00 3.102682181169034692e+01
1.539660011810458862e+01 9.681690441934090785e+00 3.245107584703877990e+01
1.419253121294464037e+01 7.275836159975929363e+00 3.032312852926595070e+01
1.585710970635334505e+01 1.025894692259908858e+01 3.322593808539960492e+01
1.553675745733445979e+01 1.436460128178330820e+01 3.594513489249028737e+01
1.533601488836083959e+01 1.483085047856179628e+01 3.629651500169417488e+01
1.513452768059091369e+01 1.529737520611448431e+01 3.664812916164083845e+01
9.900223236507450508e+00 2.032380000660687003e+01 3.756409718456272628e+01
1.248277288687457443e+01 1.804038770782940659e+01 3.891761410644865293e+01
1.493325992346813003e+01 1.576361361370269520e+01 3.699939718918897569e+01
1.293470299205420204e+01 1.769915378065243061e+01 3.847966204519448041e+01
1.110164533861711078e+01 1.924725629633110557e+01 3.881722433418740081e+01
1.509846515048294435e+01 8.056346696713459821e+00 3.154396728506347003e+01
1.583400141942946782e+01 9.482195313599728337e+00 3.285295981028862400e+01
1.407520664845847946e+01 6.660194235188542144e+00 3.006466407765892157e+01
1.548248706639798478e+01 9.238815590937150546e+00 3.235018702569242777e+01
1.546657467281198528e+01 8.715140503701034547e+00 3.218372296356626805e+01
1.610325514050212448e+01 1.096143186656335011e+01 3.398553800835347971e+01
1.614436416164856070e+01 1.034408003400679021e+01 3.367120651557488742e+01
1.598484653944284872e+01 1.400250200648158305e+01 3.617223711284538012e+01
1.627498864843907356e+01 1.288808617943287871e+01 3.535404762848042282e+01
9.483771033530212335e+00 2.057407577706068125e+01 3.780340335122571105e+01
9.757352148346546628e+00 2.026781966958491310e+01 3.892724568589782308e+01
1.427958184975661560e+01 1.657156152027199880e+01 3.778825185949553855e+01
1.382730017315841131e+01 1.691299313391271752e+01 3.822691849943306153e+01
1.337542926204134730e+01 1.725412192604922268e+01 3.866621719817290170e+01
1.159413288816893939e+01 1.872167626348961278e+01 3.937728735178486517e+01
1.027819661425576570e+01 1.989928108556329178e+01 3.912942518820803173e+01
1.457202276839620581e+01 7.436763268749460920e+00 3.077356830177484426e+01
1.546268160063042707e+01 8.169056114051089779e+00 3.202583134113321961e+01
1.618535955727531928e+01 1.353603807988568697e+01 3.582088580788465038e+01
1.628891331886530836e+01 1.235472980626278705e+01 3.505469450125871589e+01
9.236941132740170701e+00 2.063605131555066308e+01 3.872524310239690237e+01
1.203254360089821517e+01 1.832935271311297143e+01 3.945990647529011142e+01
1.482317050232314415e+01 1.610961561347823690e+01 3.790501425252317347e+01
1.517174408787030337e+01 1.575366989680339103e+01 3.739172923939771209e+01
1.292361329637017953e+01 1.759521408943588128e+01 3.910503140611152162e+01
1.115533268305068226e+01 1.911434856025836737e+01 3.929462265711575952e+01
1.071684814652130058e+01 1.950674009713666379e+01 3.921203332141439546e+01
1.497624093272517420e+01 7.415122763107894421e+00 3.121281584705419476e+01
1.466272862030591639e+01 6.764768814507029049e+00 3.073146620104637705e+01
1.618554245672239134e+01 9.725593890551440523e+00 3.335608510729925058e+01
1.650530934702335273e+01 1.168971299805581587e+01 3.493903364739153972e+01
1.654719040439972844e+01 1.090151144096383362e+01 3.452403821699427766e+01
1.579409422629063187e+01 1.458305811380568251e+01 3.670956800328118419e+01
1.564576009904719456e+01 1.494377877219434403e+01 3.699400020549528278e+01
9.146657784452877138e+00 2.075698398021421198e+01 3.817493877714164086e+01
9.211919165581235802e+00 2.037625285825869170e+01 3.927698806825363675e+01
9.732590543210861256e+00 2.000785975552645368e+01 3.947905053446321944e+01
1.247155580859000956e+01 1.793649177252658333e+01 3.954268417478787967e+01
1.438021025064201552e+01 1.643882395765295712e+01 3.840051288677140917e+01
1.393725123312193048e+01 1.676806463460257035e+01 3.889539335723433311e+01
1.577867836315400751e+01 8.918356254635734004e+00 3.262652765038682645e+01
1.576731485096204644e+01 8.385050580202939585e+00 3.246298674927368921e+01
1.641383629075390260e+01 1.047845098711939826e+01 3.409969897474143607e+01
1.647309895526147372e+01 9.922951881799715323e+00 3.384547445977215574e+01
1.613017209120381423e+01 9.161401789951904462e+00 3.312918264995691686e+01
1.653543709602294598e+01 1.305487076562879523e+01 3.601968265419751702e+01
1.661169330795546273e+01 1.234420107200100958e+01 3.546607205531058327e+01
1.561126240529968712e+01 1.527758467686176047e+01 3.743218650915615342e+01
1.526286202434804551e+01 1.563330971150800686e+01 3.794759229574342640e+01
1.352216851244280704e+01 1.706076706145936228e+01 3.955475471714680680e+01
1.142361456680849585e+01 1.861997149439459420e+01 3.970686990369427605e+01
1.043314752930027289e+01 1.935987209672685339e+01 3.972860325028284478e+01
1.086323644537511868e+01 1.905061773087468779e+01 3.970204383844055229e+01
1.550722328938481454e+01 7.462012554209781712e+00 3.188269393164683763e+01
1.574418925113760892e+01 7.904068392300895418e+00 3.229956753316766793e+01
1.643293445611725545e+01 1.364040238274966477e+01 3.639867057161567487e+01
1.623882928080396226e+01 1.416395560155370426e+01 3.684292836779571445e+01
8.691606367322341598e+00 2.074438676269226178e+01 3.907508011331055542e+01
1.004802904558138010e+01 1.964727676680232804e+01 3.973747852051579343e+01
9.186896979588130563e+00 2.011645530272251392e+01 3.982873487180548011e+01
1.195217649504949087e+01 1.809572283602714649e+01 3.987937917586184966e+01
1.491449181537960023e+01 1.598903492310624586e+01 3.846303558854491911e+01
1.448084024137919812e+01 1.630608627068385985e+01 3.901223545404332071e+01
1.299659328326817409e+01 1.749885162293152518e+01 3.954871209852843350e+01
1.404720456297866527e+01 1.662313512964255935e+01 3.956079834191482547e+01
1.101740465291453397e+01 1.866946992352891499e+01 4.007698390083101714e+01
1.143335137722890060e+01 1.825478476060277089e+01 4.021575071698018888e+01
1.525025119524404182e+01 6.869343971970155671e+00 3.139853143892834453e+01
1.607487019186286759e+01 8.597898816390520338e+00 3.290286954277894438e+01
1.601956157273870929e+01 8.034335473689884211e+00 3.267651804441082675e+01
1.646401385542606022e+01 9.147631507244526006e+00 3.352983526803765102e+01
1.676030517369984452e+01 1.012007185906839446e+01 3.433427403112330012e+01
1.692005733500886677e+01 1.110212862968594294e+01 3.512572077313414809e+01
1.605079294776048826e+01 1.480151460804862396e+01 3.747443208857752950e+01
1.572071431362976135e+01 1.513303631917363568e+01 3.810106951433602518e+01
8.666446516225434493e+00 2.048465593548677788e+01 3.962683261270159107e+01
9.502328716278377385e+00 1.975580649925406362e+01 4.008727010951935199e+01
1.243280621335477854e+01 1.766159277732542776e+01 4.004880932939361315e+01
1.295811829843103524e+01 1.722378187677300687e+01 4.005477687247930874e+01
1.048081090867330545e+01 1.897114497029594915e+01 4.022981881901026924e+01
1.091436940206345341e+01 1.841389616364405413e+01 4.055224476772261966e+01
1.639828872226268430e+01 8.712849051250172394e+00 3.332728472032930256e+01
1.506610528148166139e+01 6.152575459660853063e+00 3.104516950948191578e+01
1.596416590256231771e+01 7.469889249724091407e+00 3.244980611129926018e+01
1.682271984933653641e+01 9.367234506475016431e+00 3.412983485354855162e+01
1.704748897332505209e+01 1.031718083106173900e+01 3.482304529187646835e+01
1.694849125745777130e+01 1.180012711315966101e+01 3.557803879675606851e+01
1.688543244160403134e+01 1.257370155974825110e+01 3.621816622399047958e+01
9.103037813172578652e+00 1.988608460563792590e+01 4.026454960045438014e+01
9.817760197107745057e+00 1.939515817138887144e+01 4.034580540434404128e+01
1.191038815678205154e+01 1.779788785980483468e+01 4.042757314905070842e+01
1.500574719200201734e+01 1.586854345823030243e+01 3.901856754607335631e+01
1.536316524720726484e+01 1.550085415704828762e+01 3.856028824989228809e+01
1.387708338784777062e+01 1.645780682707732012e+01 4.006536736839435520e+01
1.333253960062078747e+01 1.675812988154373784e+01 4.031237181305942840e+01
1.560220656504000125e+01 6.804295131240426286e+00 3.181574111495928392e+01
1.728530128284351974e+01 1.125601645054504729e+01 3.568974937650396839e+01
1.696786207585895667e+01 1.216968949468295769e+01 3.597884356481318235e+01
1.679590993636284679e+01 1.322180103630814152e+01 3.668519534315994690e+01
1.668280179062149315e+01 1.374485321718487540e+01 3.697852148803466577e+01
1.649046587927331586e+01 1.432534046917329462e+01 3.751674279239356480e+01
8.641451075825683503e+00 2.022500180656995639e+01 4.017826111962519775e+01
9.248870152152969482e+00 1.956981711534784907e+01 4.061532575915835963e+01
1.457219960507026535e+01 1.618553922476075257e+01 3.956685010910626943e+01
1.239407117943816239e+01 1.738679615474064022e+01 4.055484304502638082e+01
1.129839544059961653e+01 1.793304843536844473e+01 4.091241532653054946e+01
1.004850161042924128e+01 1.897690551053957009e+01 4.069046370703652116e+01
1.039532155740261921e+01 1.857302751942857810e+01 4.088879724577378028e+01
1.590873981136969206e+01 6.905108599774400169e+00 3.222296015982556128e+01
1.552417828847407755e+01 6.323729989044795552e+00 3.158418995600633750e+01
1.652863505879622963e+01 8.224842502282733392e+00 3.334727484502938921e+01
1.674200991956121953e+01 8.570658074871454701e+00 3.370360823226266689e+01
1.647838930471002428e+01 7.635620156568394101e+00 3.311980085738379387e+01
1.718148330255341349e+01 9.586224917804489820e+00 3.472968816511581025e+01
1.733497242933675864e+01 1.051450176134180303e+01 3.531234127479791596e+01
1.583017294124292995e+01 1.498848848798500377e+01 3.876760360834563102e+01
1.619679553815343809e+01 1.460869025841807911e+01 3.836516191028174916e+01
8.120637335704854465e+00 2.059327055814241803e+01 3.997660164940481309e+01
8.515775563805389581e+00 1.985313993812277289e+01 4.087255816782589335e+01
1.370696228667955552e+01 1.629247775002516008e+01 4.056998538473263238e+01
1.284393168770704818e+01 1.693503095309559470e+01 4.068670331442920940e+01
8.095276515560057007e+00 2.033369525823858126e+01 4.052825233858538923e+01
1.079430984518670300e+01 1.817928765195757279e+01 4.108543953029132467e+01
9.587704277405853404e+00 1.914327413293936786e+01 4.095356816093903518e+01
1.641422663332218335e+01 6.941930527448366028e+00 3.284592189922893368e+01
1.727477678040291309e+01 1.228074562768084732e+01 3.667995104209887813e+01
1.739091570492829320e+01 1.175732404613707160e+01 3.638658338316844265e+01
1.762223940955948365e+01 1.071168337068904641e+01 3.580129159290193286e+01
1.715888651946747601e+01 1.280320105935014752e+01 3.697277123840216007e+01
1.656336424439800581e+01 1.422901024422910332e+01 3.796270117834546909e+01
1.546347191897924311e+01 1.536839855880876016e+01 3.917027913961165098e+01
1.509689211711812007e+01 1.574819961263479939e+01 3.957290380065273894e+01
1.417065127997126339e+01 1.611090053974168157e+01 4.023734261235346565e+01
1.463385976001450395e+01 1.592951492495405574e+01 3.990505174735520200e+01
1.186860007500124681e+01 1.750005265377410169e+01 4.097583705691329214e+01
1.324391659596179771e+01 1.647380377312104116e+01 4.090217603010763980e+01
9.876538017474361553e+00 1.873207857668091592e+01 4.122518807840774713e+01
8.936503653907845290e+00 1.937232095723454961e+01 4.121705540461604755e+01
1.585342992055316458e+01 6.341547416807356896e+00 3.199659830213036571e+01
1.538354560866127230e+01 5.584901108734255715e+00 3.127393535294707050e+01
1.717352757439521227e+01 8.913027737672070572e+00 3.445587895799496891e+01
1.735117216718593980e+01 1.001952367159980284e+01 3.514192658820110182e+01
1.750668930098488474e+01 1.123420284258068946e+01 3.609336907208867018e+01
1.704575345050262669e+01 1.332597947687945350e+01 3.726576934915129868e+01
1.693017286933808663e+01 1.384923853109704517e+01 3.755903499062059581e+01
1.453076015173333069e+01 1.566443435483879476e+01 4.059956948142668409e+01
1.235532677110475142e+01 1.711193212119877671e+01 4.106104256909840444e+01
1.083734668224415643e+01 1.786385574754076444e+01 4.156461771773280844e+01
1.034391331755513121e+01 1.820640909017171083e+01 4.156366413529716652e+01
1.638581182589278740e+01 1.447159301478672511e+01 3.897330787586812306e+01
9.357485847373746779e+00 1.889121267056686193e+01 4.156175995497756759e+01
1.617737319283838460e+01 6.494319238026868391e+00 3.243234757557192438e+01
1.579812929671845012e+01 5.778071284514441963e+00 3.176986480992875528e+01
1.701996276178416778e+01 7.993774554839425228e+00 3.387734081504345340e+01
1.685626696157540749e+01 7.179122346292021284e+00 3.344865027863499307e+01
1.715111112500748192e+01 8.392274794669791760e+00 3.422074654903006063e+01
1.761571905708026264e+01 1.015845363113999689e+01 3.557548158193122134e+01
1.762235114589541141e+01 1.241763998622541010e+01 3.732666329609710232e+01
1.770500477604798206e+01 1.201259706470371924e+01 3.708855708439352128e+01
1.558937148975559772e+01 1.527711722966602537e+01 3.957581295165522306e+01
1.665108524693095760e+01 1.418187332075998519e+01 3.847453467068057620e+01
1.527088541890690365e+01 1.535148571072810242e+01 4.011560761714944334e+01
1.278038829708351365e+01 1.665531897016694529e+01 4.123472050888387486e+01
1.381836865220855692e+01 1.604962715267791395e+01 4.089482133819495857e+01
8.071932130031100883e+00 1.968104155779003150e+01 4.129477977443868042e+01
1.133039927675249814e+01 1.752156740889446596e+01 4.156557126703328464e+01
9.850554533050248196e+00 1.854891124367681243e+01 4.156271147131116805e+01
1.049933936807719981e+01 1.755037847420381070e+01 4.199764295871748487e+01
1.011874247204666943e+01 1.799729882413851811e+01 4.185235511002388620e+01
1.615345084493342753e+01 5.989999723960261591e+00 3.226077003590141601e+01
1.760266126376004792e+01 9.052376512848097079e+00 3.512560947919901366e+01
1.760919394064558929e+01 9.605436230032269762e+00 3.535056330457936724e+01
1.778780847634636686e+01 1.136021299599591217e+01 3.662952591974227090e+01
1.790352228170727500e+01 1.083740789305741892e+01 3.633656441746713028e+01
1.729468823724137039e+01 1.332222697372138320e+01 3.763617624667737971e+01
1.182352622717882440e+01 1.717922821072621531e+01 4.156652560012196318e+01
1.341774171948475036e+01 1.607670522385081213e+01 4.144596403485502378e+01
8.203936916003950586e+00 1.930325503155542322e+01 4.166530781198301980e+01
1.714023984036729686e+01 1.369674509178973487e+01 3.823600481657312855e+01
1.608212153365127506e+01 1.480578308300383661e+01 3.957872448252982878e+01
8.780540707371784492e+00 1.909729450456705635e+01 4.161354946868327431e+01
9.737958729194541974e+00 1.844443835958017530e+01 4.170699755252547192e+01
9.072673198968821850e+00 1.844075243609896830e+01 4.201064823114364088e+01
8.787890630221893318e+00 1.891904048720300580e+01 4.178602824927718018e+01
8.217530394625798706e+00 1.894690803800535051e+01 4.201059868595504554e+01
8.218677858668561598e+00 1.820399466510806619e+01 4.254891072187653123e+01
1.088040372694639757e+01 1.710290893227269038e+01 4.214311108481376777e+01
1.140250399530028780e+01 1.707006779399912944e+01 4.188332060643504917e+01
9.548230557394246532e+00 1.803944729785384382e+01 4.208056279882911355e+01
9.929595874154076185e+00 1.727789950253693263e+01 4.244905893998679147e+01
1.050028635728344995e+01 1.692159471691952888e+01 4.244394217698042837e+01
1.686428633829878976e+01 6.413971792625623003e+00 3.324203532518908588e+01
1.650874432931550828e+01 6.201911557424176102e+00 3.275123092979277573e+01
1.759612079746995050e+01 8.499020632164599576e+00 3.490052715630383773e+01
1.791153924958729249e+01 1.012745642016419012e+01 3.594080216980074738e+01
1.765727618188191173e+01 1.279531861842512441e+01 3.771330324453202110e+01
1.808551617738009654e+01 1.155072847495484645e+01 3.724857484759206727e+01
1.498470110503665076e+01 1.526233486977051257e+01 4.072969917963511932e+01
1.396857652298643337e+01 1.569641236365277059e+01 4.138518032665933077e+01
1.231656543130918280e+01 1.683695080668857713e+01 4.156748034770813405e+01
1.197897808737599057e+01 1.652285382822024218e+01 4.200074697307680793e+01
1.272846053442463976e+01 1.640240532226446390e+01 4.165690419101356667e+01
1.286731701633804725e+01 1.645671484364645210e+01 4.150670384943124702e+01
1.686165164112773951e+01 1.401532920390012471e+01 3.896018536344085703e+01
7.628090059702778980e+00 1.950894488704874163e+01 4.171699872394511033e+01
7.647882011263036794e+00 1.897473979543145006e+01 4.223489269269877866e+01
8.788057645596316192e+00 1.799060353817966273e+01 4.245931099490162808e+01
7.077709306133066036e+00 1.900259746954978723e+01 4.245939646064209683e+01
7.648674873309459166e+00 1.841761721341613978e+01 4.263861290709526486e+01
9.358500849425697155e+00 1.763445527077167796e+01 4.245418481471097749e+01
1.004495037139326108e+01 1.656926124715717563e+01 4.269009502015532576e+01
1.603437482557368909e+01 5.223669738334284496e+00 3.198013322279275528e+01
1.730476916182205116e+01 7.969638574076929771e+00 3.427635671866534040e+01
1.729799018864980553e+01 7.416737893108982682e+00 3.405111432542204852e+01
9.346608158990123982e+00 1.692787721347105290e+01 4.272578773323463253e+01
1.801999126342509072e+01 1.226787028288138970e+01 3.779050273661810877e+01
1.569184501476361859e+01 1.497183103570329976e+01 4.006394881250463413e+01
1.451889708608311835e+01 1.531647818261086336e+01 4.132445173845660946e+01
1.262764047033607184e+01 1.601864653127930538e+01 4.200544185329962943e+01
1.314028246788977228e+01 1.596793589016462711e+01 4.174631387641058922e+01
1.657483444109648119e+01 1.433449569026544523e+01 3.958163374944827240e+01
6.850268293687172161e+00 1.940240868304094946e+01 4.216574419323082168e+01
7.078813107973593866e+00 1.863118785507060693e+01 4.272829453651905141e+01
8.185580783698283014e+00 1.805703493073691845e+01 4.261844342489895610e+01
1.126106936768169042e+01 1.665590795226498955e+01 4.228842853614606412e+01
1.107113143004448119e+01 1.656519807426953861e+01 4.243882640986071664e+01
8.653638630727483516e+00 1.710343014244925541e+01 4.285651101231989912e+01
9.067220524438377893e+00 1.745945437093493524e+01 4.259249492947471083e+01
1.722046536726161037e+01 6.626412189959559385e+00 3.373371951837638960e+01
1.758957336722614073e+01 7.945502090099544112e+00 3.467537176187023107e+01
1.796606543427075664e+01 9.237822746177885236e+00 3.566191004512116791e+01
1.785507905656444905e+01 8.713234288645695713e+00 3.531482702036516486e+01
9.625647632460866632e+00 1.639696358654572350e+01 4.285891535114598128e+01
9.349962205097989809e+00 1.615975514125810975e+01 4.303485609639461984e+01
8.795262326411503295e+00 1.645344744382644464e+01 4.307767022477861474e+01
1.355262538560478802e+01 1.553291559719213311e+01 4.183583858098984365e+01
1.825689758703477494e+01 1.021941396699341276e+01 3.656297389642966067e+01
1.818469456644810478e+01 1.096310357106384537e+01 3.687245635072362404e+01
1.745677300172715718e+01 1.322451560044918217e+01 3.824437718663563857e+01
1.544520438209091928e+01 1.495402806770371207e+01 4.065935096672065896e+01
1.216637270873705745e+01 1.587882117964142381e+01 4.237879395126646642e+01
1.735035826545973592e+01 1.354424505875066664e+01 3.891150058090293840e+01
1.706775391484518067e+01 1.386302962024652707e+01 3.958454850114726042e+01
8.235162807000820706e+00 1.777223805242324062e+01 4.270829231459373432e+01
7.582255388287953757e+00 1.812355875367981639e+01 4.277780228363490522e+01
6.508570554193419788e+00 1.884490165227556702e+01 4.281803804552314574e+01
6.508220372230318240e+00 1.903042202554052764e+01 4.268363471127685926e+01
1.057368007545151656e+01 1.643654275038871049e+01 4.261029913022751003e+01
1.650017178306834609e+01 5.467177543871505563e+00 3.261740013641654201e+01
1.715427881686238720e+01 6.049934475637245512e+00 3.355256347768334280e+01
1.691919966234035755e+01 5.615962263257967990e+00 3.317893177818222483e+01
1.788832555514251155e+01 8.191912675543321143e+00 3.515304956968377326e+01
9.904687147495396360e+00 1.586604784902671739e+01 4.299204477837274396e+01
1.048334640804863405e+01 1.598030175888613691e+01 4.280603730710432586e+01
1.164165105824255697e+01 1.620900217230935070e+01 4.243371822109200764e+01
9.273653324878196713e+00 1.578094493019534106e+01 4.313477208644866323e+01
8.240055740130792117e+00 1.674741008566002520e+01 4.312052805338582573e+01
8.120391351706537364e+00 1.726982847089098172e+01 4.294447204034756993e+01
1.321579162908227190e+01 1.521846733796389550e+01 4.226895499540455603e+01
1.396489747528112346e+01 1.509796844881279476e+01 4.192535017095943317e+01
1.838224936716015634e+01 1.174111964836350630e+01 3.786756712375635203e+01
1.846590303932309851e+01 1.108885955943638812e+01 3.740859105475855273e+01
1.777020911351780086e+01 1.284551647389676177e+01 3.862144954272175568e+01
1.609359759377966270e+01 1.453548943980230135e+01 4.018874689295540747e+01
1.506930624147926245e+01 1.493648335729497312e+01 4.126371501061667857e+01
1.269129213977065618e+01 1.554851096776115682e+01 4.232385295079271259e+01
7.682514989625727431e+00 1.755397034952288848e+01 4.295716738909057142e+01
6.979829468428070172e+00 1.818998469156352016e+01 4.293692511267484235e+01
7.135435994661797565e+00 1.776147367267912358e+01 4.304742905110230566e+01
6.377870999287130971e+00 1.825636010530846676e+01 4.309592628033650641e+01
6.639849571017087726e+00 1.759908565838952654e+01 4.325832502606967722e+01
1.758302810035537078e+01 7.392292171042906368e+00 3.445034040226804706e+01
1.757647503380173504e+01 6.838751840941252880e+00 3.422517031880676086e+01
1.795542762834084982e+01 7.630609424621295211e+00 3.501880667165566763e+01
1.815756135713359143e+01 8.532852473934491755e+00 3.563010188514068233e+01
1.106248596760640091e+01 1.609464877774999536e+01 4.261988011772369589e+01
1.042833621672131805e+01 1.557514786555584685e+01 4.292743190521321850e+01
8.641899219226235829e+00 1.569574535096890422e+01 4.327766225762879770e+01
7.716412090093085041e+00 1.618578578917082567e+01 4.334908033802948069e+01
1.820048457609314241e+01 9.543939504812680497e+00 3.608091641362058510e+01
1.808006205759782858e+01 1.229183503365277019e+01 3.825790856440376331e+01
1.851929906863264108e+01 1.051915786460994262e+01 3.716818860640677258e+01
8.010146719923808334e+00 1.561054335743003563e+01 4.342055275319700058e+01
7.480901364393164776e+00 1.584956442906098673e+01 4.348744943103083216e+01
1.561949061562017960e+01 1.455664603215737429e+01 4.120300377534514524e+01
1.610507665878738237e+01 1.426519561763970145e+01 4.079879988082354458e+01
1.472322277120739287e+01 1.479976473127562642e+01 4.163928533226225426e+01
1.199305048891200087e+01 1.568695008207694208e+01 4.247632955081452621e+01
1.147251932447822753e+01 1.548559804758348513e+01 4.266957257361278266e+01
1.756056607735079211e+01 1.339169957295067270e+01 3.958746186340780326e+01
1.659075142706860362e+01 1.397370062189157380e+01 4.039454894542075891e+01
1.707557874133306086e+01 1.368273131953272248e+01 3.999103975326502081e+01
7.129339754078629632e+00 1.733549420253937257e+01 4.320628568981864248e+01
7.684746275538689275e+00 1.704142638677947375e+01 4.316339979638524227e+01
6.150875971391219998e+00 1.786239778775587439e+01 4.331031012922842649e+01
1.095198807868834301e+01 1.528424499516605906e+01 4.286281982429984794e+01
1.147574220379585519e+01 1.499328479008777393e+01 4.279819602630712438e+01
1.234447365788871132e+01 1.516485754537432129e+01 4.251894480289055167e+01
1.126569197069650663e+01 1.455604310414402214e+01 4.290362848589981581e+01
1.067178970829673368e+01 1.470152456580580491e+01 4.300338320912428003e+01
1.028824790327812444e+01 1.528377147890440924e+01 4.299771187808913453e+01
8.619330734040170583e+00 1.531215366350742357e+01 4.333824134267724304e+01
8.316075073462846134e+00 1.516463115292921238e+01 4.345947917447746534e+01
7.422956952002478737e+00 1.676048101745852748e+01 4.327769163775356986e+01
6.923296694498432657e+00 1.654376726608007431e+01 4.344939624476020867e+01
6.536538735059378880e+00 1.744871307663121129e+01 4.328182362926814619e+01
6.541423893314611604e+00 1.715835166315069316e+01 4.338921603722396725e+01
6.423637361495924125e+00 1.632705529017003343e+01 4.362110074733525522e+01
6.952116696715891386e+00 1.608837725117749073e+01 4.355429226434275591e+01
9.228032208262224145e+00 1.501400023163698805e+01 4.325599622631390417e+01
9.837075342921153265e+00 1.471567839260830546e+01 4.317370625820853292e+01
8.621896696060895593e+00 1.471887505403818786e+01 4.349841666017955077e+01
8.927496237496798770e+00 1.427344366633672657e+01 4.353734205506287935e+01
9.637006506889681745e+00 1.422188724298457885e+01 4.336121086789732715e+01
8.379602466004788752e+00 1.449796020108886374e+01 4.360511036061357970e+01
9.507794944632491863e+00 1.404422882102159953e+01 4.349720689191759959e+01
1.374031092199849979e+01 1.488841160659014129e+01 4.221405556475916399e+01
1.848918717831225322e+01 8.960910525411577510e+00 3.622089472692946543e+01
1.874680237391203619e+01 1.121460251845812728e+01 3.794413553115018800e+01
1.858960422565994364e+01 9.986052890438180896e+00 3.697689067094512438e+01
7.402650571546504743e+00 1.553902255922356446e+01 4.357246250611990490e+01
7.831834160039610637e+00 1.472242434781074749e+01 4.367286528537874091e+01
1.437714490795473310e+01 1.466304750514918709e+01 4.201485708066658731e+01
1.426458283526092252e+01 1.455851196928780134e+01 4.215918260381585014e+01
1.779823864466553474e+01 1.295650846071965034e+01 3.925887738597704413e+01
1.668403479078293827e+01 1.368827675674219435e+01 4.114279570119416718e+01
1.199955009927779237e+01 1.470229583300326226e+01 4.273356623184879766e+01
1.269610455383922698e+01 1.464245737443434869e+01 4.256158457351220648e+01
6.795431402937639476e+00 1.546753438802092795e+01 4.372430839267825320e+01
7.284060182319660903e+00 1.494689069952494442e+01 4.374062296801307070e+01
5.953872963034437582e+00 1.698131940792946892e+01 4.357203306895753059e+01
5.944406596781651508e+00 1.756180700018628471e+01 4.335727988956630696e+01
5.351870714099206339e+00 1.767497881553757466e+01 4.343279263832837955e+01
5.895168937613624927e+00 1.656572654139757006e+01 4.368791386913844832e+01
5.366696298533767617e+00 1.680439977111550576e+01 4.375473395486474715e+01
5.914231363173265699e+00 1.586551441741006130e+01 4.383567671600497562e+01
1.105564098788530814e+01 1.411880274496291854e+01 4.300906365779671603e+01
1.044648841553409646e+01 1.441717740950767102e+01 4.309136673584847443e+01
1.171954079884825539e+01 1.411919243610046593e+01 4.287415007030165981e+01
8.335998122553863965e+00 1.434382294703497251e+01 4.364188537170873161e+01
9.285270244294130393e+00 1.378004437399681592e+01 4.374497509154252839e+01
8.629802641188971890e+00 1.392141121977978635e+01 4.386788523945562446e+01
1.034611065993739132e+01 1.417036036417449196e+01 4.318518616983971725e+01
1.324310903281407725e+01 1.468123758375651811e+01 4.240329088782107192e+01
1.855390524694811560e+01 9.524339891998963026e+00 3.665207413295937755e+01
1.850881020219570772e+01 1.164968834739451253e+01 3.827241768486086215e+01
1.880046656414782547e+01 1.064512041213639648e+01 3.770438106607974049e+01
1.803629285553203232e+01 1.252125485094845381e+01 3.893027904829051522e+01
1.520392299869906516e+01 1.439244321659425196e+01 4.165400601044709106e+01
1.615183148346148556e+01 1.412240252107150518e+01 4.117289545667117778e+01
1.478902722338229658e+01 1.422850389491977374e+01 4.210429228450165340e+01
1.728176271275401632e+01 1.333502838089974496e+01 4.062553307905269406e+01
1.252354547818141306e+01 1.441120156407754394e+01 4.266891422014131763e+01
1.238349068129349462e+01 1.411958027950463368e+01 4.273922663298984759e+01
7.744558881150081397e+00 1.441419657179011260e+01 4.374641958959623622e+01
7.152288929231612080e+00 1.448466832572356289e+01 4.385110273268224290e+01
6.736140073168384923e+00 1.517141677760819363e+01 4.380840089541103310e+01
5.640463725339103895e+00 1.633495553236921083e+01 4.379518157485355800e+01
6.188026131957546028e+00 1.539602432431369650e+01 4.387620473626768103e+01
6.559930842334847689e+00 1.455515046746192098e+01 4.395580271139046857e+01
6.373964547073400766e+00 1.497561979655447928e+01 4.391597767599794366e+01
5.592438494360304269e+00 1.564065414779633123e+01 4.393397986425763690e+01
1.008757511693070619e+01 1.381522010961022673e+01 4.345710856315642445e+01
1.167885811465320955e+01 1.381034976193967800e+01 4.296285005816663727e+01
1.124871406492718151e+01 1.335657781838149027e+01 4.337680963504235621e+01
1.066775150485840484e+01 1.358605438647355257e+01 4.341698481465679293e+01
1.304779160940073091e+01 1.411996926515867123e+01 4.260423178408736078e+01
1.827301587274027028e+01 1.208533296203329321e+01 3.860121420858094154e+01
1.885390296876011007e+01 1.007521590974275405e+01 3.746391727565972474e+01
1.858091070191006366e+01 1.176909848413929360e+01 3.882342030915173581e+01
1.604560296059856839e+01 1.401973704675318011e+01 4.139492869868401925e+01
1.562693937642645281e+01 1.401288713116911744e+01 4.170215750836820234e+01
1.362814753428929926e+01 1.415614441249595501e+01 4.243759805493147752e+01
1.780062541585774127e+01 1.305637569092699124e+01 4.007600647202282573e+01
1.793659601474817933e+01 1.292209220361366384e+01 3.963848790535821109e+01
4.846222641301617173e+00 1.666142162386817205e+01 4.387223646501655594e+01
5.982115673445976611e+00 1.474212272765853982e+01 4.400797549004538212e+01
5.541274556820776631e+00 1.536521755750895224e+01 4.397231915792453805e+01
1.182324157432644540e+01 1.323878806678958853e+01 4.323874286588255700e+01
1.230192428001930516e+01 1.350197212437612038e+01 4.291664780466005880e+01
9.939549737017470576e+00 1.363893438700339011e+01 4.362228818413930753e+01
1.059362478030729626e+01 1.349786536180489271e+01 4.349964280144542528e+01
9.223498878434583048e+00 1.376744383148461459e+01 4.382055124790592515e+01
7.940003069476606612e+00 1.413260935250702666e+01 4.389718110013318864e+01
1.890730118116179881e+01 9.504739446712624940e+00 3.722321642390163987e+01
1.904028716528395293e+01 1.067551779818251489e+01 3.805719288617378027e+01
1.897698628044609492e+01 1.115716535501216633e+01 3.857591962685259546e+01
1.844925851811021644e+01 1.207866219569286059e+01 3.917815453096452671e+01
1.420890306608380271e+01 1.419234383984853665e+01 4.227085303341832656e+01
1.355551731715389252e+01 1.381708534710671898e+01 4.256953903095169522e+01
1.454890073693059627e+01 1.368126324301284669e+01 4.234998510014457906e+01
1.406376893344057954e+01 1.351389023414449930e+01 4.253481104811755387e+01
1.721644271595164355e+01 1.325399192513588709e+01 4.111268642967087317e+01
7.250172810678265023e+00 1.434381677003379707e+01 4.392648160551106429e+01
4.996387927440547827e+00 1.588547424409144071e+01 4.399180778591004781e+01
4.400075893135376504e+00 1.613040185412081229e+01 4.404967058618895948e+01
4.894508252470329168e+00 1.533441013003084485e+01 4.406843926299234226e+01
5.404583469654634875e+00 1.492900298865495579e+01 4.406012675692036851e+01
1.040872977692945867e+01 1.346006894765151252e+01 4.372605579040304491e+01
9.816249101419991518e+00 1.361372140494330729e+01 4.377329315666643339e+01
1.329807350303594760e+01 1.350240148416862596e+01 4.271425616908152278e+01
1.292477277709686589e+01 1.319370115915334374e+01 4.287046265970087688e+01
