9.526857198198355192e+00 1.682249827707313683e+00 2.133080490127763440e+01
9.610965673763438133e+00 1.059893071515051854e+00 2.138310203812270061e+01
9.005018585316818758e+00 5.100709603390787272e-01 2.096359409306353072e+01
9.869102427815125367e+00 2.249252953464591975e+00 2.157653167353099377e+01
8.813631862417368623e+00 4.210823443256291654e+00 2.099677308516203311e+01
8.583815460056037239e+00 4.747815529172529914e+00 2.093388626626262194e+01
4.319738690116757596e+00 7.724211549898462259e+00 1.979382308030826465e+01
1.649371962965337390e+00 9.259934756327325545e+00 1.969924563842961618e+01
7.435337511669509070e+00 6.651839011434494076e+00 2.064020352263062819e+01
2.918173913325671442e+00 8.927900914772525454e+00 1.984630013873028176e+01
3.703945800593309023e+00 8.673841065024072705e+00 1.995485691161590225e+01
2.474521877792394131e-01 9.531953967854940757e+00 1.957762721059489053e+01
6.244690075209461178e+00 7.452484013642926008e+00 2.030896169481896507e+01
5.613991429764841889e+00 7.607568621844571055e+00 2.013664963696132659e+01
9.808766615003950307e+00 4.564987257653676522e-01 2.151339553699062890e+01
1.021134856250389689e+01 2.816254998960149081e+00 2.182225904544181461e+01
9.864164195944931990e+00 3.454788581409185877e+00 2.159659047866234260e+01
9.210952684389962286e+00 4.680922822957606755e+00 2.127203925364686654e+01
8.904249497339693065e+00 5.269811734458409447e+00 2.117289867894982081e+01
8.597448416873959331e+00 5.858891049493229808e+00 2.107372675143452767e+01
8.291099325191460423e+00 6.447099745562876016e+00 2.097470064797477463e+01
9.517099999999999227e+00 4.093099999999999739e+00 2.137099999999999866e+01
4.505202014361054275e+00 8.378052115669214928e+00 2.008604398444924399e+01
2.921547375493239951e+00 9.468329554017051564e+00 2.007637050844456184e+01
7.100096202228431963e+00 7.248051659141171221e+00 2.064337746398201645e+01
1.021691467557163868e+01 1.609715502375555385e+00 2.180261129580859958e+01
9.433906281671175620e+00 -1.496408942487954530e-01 2.125161437796289121e+01
5.503692901317846164e+00 8.153889404141166253e+00 2.030188594489971976e+01
4.493180283796151642e+00 8.960314319715889653e+00 2.029355288092319753e+01
1.017400793933741943e+00 9.695690160130975954e+00 1.974072030544086331e+01
6.765574674256376042e+00 7.844139862340322011e+00 2.064684517361743943e+01
1.055919829095719287e+01 2.176499998663388613e+00 2.204836013975795694e+01
1.055824136346269704e+01 7.551460767413418207e-01 2.202903158533690586e+01
9.519194530184933001e+00 5.179292289766292967e+00 2.153328666632508614e+01
9.109119385445167083e+00 6.443768092562807581e+00 2.147145611088768291e+01
7.956237177314976705e+00 7.042744782179806151e+00 2.097789873510173564e+01
1.971105305825619824e+00 9.852474951941642800e+00 2.002367439895201784e+01
7.620755016131359305e+00 7.639493741949566541e+00 2.098110312589940918e+01
1.086842857377753901e+01 2.795334415581004706e+00 2.231381160079565262e+01
1.052101951796182000e+01 3.433935999610447709e+00 2.208797828947458441e+01
1.017364320503127573e+01 4.072427789010152566e+00 2.186216357443067082e+01
9.824190029401883351e+00 4.678747245072016447e+00 2.164448502082277415e+01
9.528749399723057678e+00 5.779516382175718725e+00 2.162806996600725284e+01
8.526975882226009773e+00 6.957511116069598600e+00 2.124656342885375793e+01
5.393385793516560334e+00 8.700248159056849673e+00 2.046713341385333607e+01
3.707938294091351228e+00 9.304629023389004772e+00 2.022341003420385519e+01
2.924924138869227086e+00 1.000933779867450291e+01 2.030668755490460597e+01
6.618420702380289455e+00 8.572421847114970461e+00 2.086707276738470540e+01
1.090679922542438085e+01 1.537199787843581023e+00 2.227429946791398763e+01
1.020980221709390001e+01 -2.664117466847693017e-02 2.178384729595477154e+01
5.283000833893144232e+00 9.246999578764881988e+00 2.063250014647715247e+01
7.285800000000000054e+00 8.235300000000000509e+00 2.098430099999999854e+01
1.121632261480558590e+01 2.156145125272617147e+00 2.253997666425856750e+01
1.117787617401855726e+01 3.413083188090296094e+00 2.257936708810132842e+01
9.861698926805880561e+00 -8.076701157674955889e-01 2.153889941191824420e+01
1.091347129808636574e+01 1.540681231367053705e-01 2.233461336124484120e+01
1.013135530949958962e+01 5.264537999729100193e+00 2.191803705762178822e+01
9.450894923094670830e+00 7.018556716970765663e+00 2.182392884182283410e+01
8.763174026752739820e+00 7.468619212151665465e+00 2.151879717932766312e+01
9.927358196665561962e+00 6.440435268638077915e+00 2.196834446580273337e+01
1.048080027012814242e+01 4.658146005098057429e+00 2.213570411573747165e+01
3.712871817188152512e+00 1.011591551560719182e+01 2.056875362689284259e+01
4.497907701028983851e+00 9.681473085653854227e+00 2.060062552606207475e+01
5.950623260730579567e+00 8.909754916676089209e+00 2.074977108585394348e+01
7.935545881131345070e+00 8.320475377867975197e+00 2.134386325157180053e+01
1.126193850861857015e+01 9.360432351085095082e-01 2.257981242366321339e+01
1.083024366783859804e+01 4.051753568106526870e+00 2.235336996850040947e+01
1.152550697618242559e+01 2.774413853084068293e+00 2.280536299095107466e+01
1.153781915368935174e+01 1.519807487303117988e+00 2.280803385064164956e+01
1.047792198621908888e+01 -8.222897546138829838e-01 2.202809785054353142e+01
8.380776585004166890e+00 7.962738109208165049e+00 2.146760138817179708e+01
7.291300676478076781e+00 8.840807799220087304e+00 2.125670049993235367e+01
1.184723629155605096e+01 2.138412412073804170e+00 2.307361918137041101e+01
1.043866853294029085e+01 5.850611896626350728e+00 2.219172099671061105e+01
1.078835664686384987e+01 5.243744752070112369e+00 2.240953552856302622e+01
1.113765242978212910e+01 4.637391229338224008e+00 2.262709346809738875e+01
1.028397415304325690e+01 -1.360004598908989060e+00 2.191140829779065768e+01
5.210112857756595162e+00 9.768161820164424469e+00 2.087166509242867818e+01
6.623611429015973329e+00 9.177968670409814678e+00 2.113936537162343399e+01
1.148690138857732812e+01 4.031077317785895175e+00 2.284461918089252208e+01
1.161714260435861057e+01 3.347757866000387050e-01 2.288538125602634921e+01
1.189305302458644142e+01 9.185937957619608740e-01 2.311362739337325323e+01
1.183468962948473013e+01 3.392679165298864152e+00 2.307074785152923724e+01
1.135564182803109823e+01 -2.510664675781448807e-01 2.270133730493515145e+01
9.367755467722599150e+00 7.546182029129594682e+00 2.190606717130644299e+01
1.036851029349959852e+01 6.950602777512585817e+00 2.236501312181785650e+01
8.999251517806099443e+00 7.979466407720599008e+00 2.179089192216059701e+01
9.635281522533858833e+00 -1.614708236070554248e+00 2.151310548990892357e+01
1.109414012760171886e+01 -8.369100006717504758e-01 2.251729267878265617e+01
5.955922063285072454e+00 9.515129100242246452e+00 2.102202999893619406e+01
4.388541176488801376e+00 1.046293757198361618e+01 2.095922161892295676e+01
8.585158961091101659e+00 8.405633444689140532e+00 2.170335204128596729e+01
1.215631201137272654e+01 2.756839681241104234e+00 2.333891457621588117e+01
1.216896541882717386e+01 1.502410600312711786e+00 2.334187521036651702e+01
1.247811207913487408e+01 2.121191341783811968e+00 2.360723280289317572e+01
1.109584515129070859e+01 5.829912316662916538e+00 2.268335781060254419e+01
1.074619993634201265e+01 6.437100086548903199e+00 2.246559898304673197e+01
9.991294356614849548e+00 7.463463294223571687e+00 2.226455388804811619e+01
1.171036285159358670e+01 -8.515297532725130125e-01 2.300649110864211977e+01
1.197191995676526588e+01 -2.657694661866478736e-01 2.319058298373929716e+01
1.070619862003076861e+01 -1.912274185053115083e+00 2.228387276143685369e+01
1.005923458389376357e+01 -1.987606483398022483e+00 2.185845693099687992e+01
5.137262509226898644e+00 1.028906089925149558e+01 2.111070962901124659e+01
3.615593815603922678e+00 1.081033332482616771e+01 2.088737607711782829e+01
7.941129361896875238e+00 8.926054865489742696e+00 2.161633566072302770e+01
1.179450270997969596e+01 4.616636148341397572e+00 2.311848138764515070e+01
1.224795308015214701e+01 3.177691330878562592e-01 2.341893529961204479e+01
1.246538696353721676e+01 3.375266680308148359e+00 2.360420931996135252e+01
1.280044991947092292e+01 1.485004825790988026e+00 2.387600266193652487e+01
1.214359999999999928e+01 4.010399999999999743e+00 2.333589900000000128e+01
9.613279276728375677e+00 7.977409399595529749e+00 2.216388159670786706e+01
1.144535970747545761e+01 5.222951680169819255e+00 2.290103530557885492e+01
1.141950744233607118e+01 -1.658093914703071547e+00 2.283150861294475575e+01
9.408778994114886274e+00 -2.422047544150750742e+00 2.148730163832459539e+01
1.033900554953863349e+01 -2.535474227212888287e+00 2.213394073499637571e+01
5.871133770962109644e+00 1.012310355408298079e+01 2.130112410469376627e+01
6.629461459748625884e+00 9.783504179920637256e+00 2.141191734949671144e+01
7.296802891551910974e+00 9.446538070831300260e+00 2.152919988992563205e+01
8.590957021496418378e+00 9.011302010825108511e+00 2.197597034894175394e+01
1.278725731991708514e+01 2.739971594140805600e+00 2.387258919148396430e+01
1.252398367627565356e+01 9.013077661991129030e-01 2.364728547816447701e+01
1.094621817359523774e+01 7.029273804746060783e+00 2.278094785250842591e+01
1.058952306574567537e+01 7.454665328305390304e+00 2.266788686363004146e+01
9.235599979688940309e+00 8.490900016396560446e+00 2.206329899724850563e+01
1.206814578360316581e+01 -1.583105267159316876e+00 2.334022813475166203e+01
9.971810855039656474e+00 -3.158674433862959763e+00 2.198400763679855530e+01
5.064386265870415293e+00 1.081014314640707319e+01 2.134983812873369402e+01
4.303220939532407918e+00 1.107069352105992976e+01 2.123802246488256174e+01
1.287900410040209920e+01 3.002058032329670834e-01 2.395269757053078763e+01
1.310939807839616122e+01 2.104139887918480500e+00 2.414119450997592509e+01
1.267382005784328669e+01 4.110120010878753227e+00 2.383089925400105358e+01
1.161974895251517026e+01 5.794249808236182631e+00 2.310993366046873732e+01
1.141870724287661787e+01 6.611529690264115189e+00 2.303843570721523548e+01
1.050471936233920900e+01 8.169439225725504627e+00 2.282711866526039302e+01
9.863263321563319863e+00 8.717604811596279646e+00 2.255803475030071681e+01
1.260268362946631981e+01 -2.832221340206062532e-01 2.372410131736542382e+01
1.232659999999999911e+01 -8.661499999999999755e-01 2.349570100000000039e+01
1.112850721254300623e+01 -2.464649934753555094e+00 2.265641082564984288e+01
1.076127384555554478e+01 -3.088053934173876414e+00 2.250648375632984965e+01
1.240154663576625182e+01 4.634413539412537197e+00 2.361953243873941588e+01
1.205245280668090757e+01 5.240751361257956376e+00 2.340212933625769764e+01
1.302801374921403976e+01 3.411302536766051219e+00 2.412624354780162861e+01
1.315533228330667548e+01 8.836495580242440528e-01 2.418130022852101746e+01
9.314290379702150346e+00 9.041332706811099129e+00 2.236748201208467535e+01
1.180967880091270139e+01 -2.300098071613864814e+00 2.318474773591821503e+01
6.532350688929899896e+00 1.047799091802683336e+01 2.173062883651866528e+01
7.302299992519277971e+00 1.005160000414275601e+01 2.180139899931240777e+01
5.761692983732379147e+00 1.090477413827145448e+01 2.165979356074034357e+01
7.946322200675379754e+00 9.531698499907818700e+00 2.188864327674385279e+01
1.343190036083650085e+01 1.467599283064804583e+00 2.441010137732460095e+01
1.219045116657273198e+01 5.994941325597505255e+00 2.360209603410302748e+01
1.114617807722454224e+01 7.621275095430978475e+00 2.309620483653029055e+01
1.265520489018078365e+01 -1.375520080263875400e+00 2.383410578601933949e+01
1.245158814753209775e+01 -2.177422131836086017e+00 2.373510014759326125e+01
4.991499938927587365e+00 1.133130002865658881e+01 2.158900099751147650e+01
1.265954505563964894e+01 5.258552352736432844e+00 2.390322281834311724e+01
1.318131091704787217e+01 -3.004232646362656745e-01 2.426881721197414166e+01
1.345790341835025217e+01 2.829708712670180315e-01 2.449767092311428129e+01
1.338229466332828643e+01 2.712411026492610233e+00 2.442166509706244071e+01
1.370473488378956972e+01 2.076493628646485234e+00 2.469054335588632654e+01
1.320394849306919483e+01 4.209822790028403539e+00 2.432581397140611656e+01
1.162399798233336590e+01 7.441982013655604966e+00 2.342184495179521520e+01
8.708079113390496673e+00 9.778057232568777124e+00 2.240361236429632541e+01
1.134613798225838543e+01 8.213279352338593853e+00 2.341146272113921967e+01
1.049100679741090225e+01 8.944338773643995211e+00 2.305283377229174135e+01
1.290471844773168719e+01 -8.838168803115937777e-01 2.403996350317074615e+01
1.155109996728348776e+01 -3.017400214896881039e+00 2.302920003255608350e+01
7.883636827136941250e+00 1.034936398082422571e+01 2.224687095466821063e+01
1.287136471948896421e+01 4.678776312798434311e+00 2.405486923930148535e+01
1.373445861177870420e+01 8.664538263765695358e-01 2.472648483858954904e+01
1.366118722964790599e+01 3.496543695003150987e+00 2.471579687853404295e+01
1.209085589678876183e+01 6.785866750369988765e+00 2.361096707238439407e+01
9.888821246316853220e+00 9.209495695390614856e+00 2.280208308340424139e+01
1.298378060524948197e+01 -1.884844936218470268e+00 2.417248052684502113e+01
1.224808273909503242e+01 -2.979447137174997096e+00 2.363620424862570957e+01
7.284921312302152785e+00 1.057216289516469310e+01 2.209316715002970710e+01
6.516829130718973850e+00 1.120328576464328840e+01 2.214070907068328609e+01
1.395371585694251060e+01 1.541078558144838961e+00 2.493197690479716400e+01
9.392938919829266098e+00 9.591472749250462115e+00 2.267150329044781998e+01
1.097905741387580569e+01 8.638708669730451817e+00 2.329136486857833077e+01
1.291795522657740847e+01 5.883687256737248461e+00 2.418736595194356553e+01
1.262778127889774282e+01 6.426751565811774647e+00 2.401113778195622572e+01
1.348337406899158530e+01 -9.015004922857350333e-01 2.458473174013575147e+01
1.316841972847619502e+01 -1.353397963075860577e+00 2.431506659700997375e+01
1.195511209323498569e+01 -3.429891515813692227e+00 2.344414228699652725e+01
1.090415566215444976e+01 -3.858342754051731216e+00 2.280130330894755986e+01
5.547415040047575907e+00 1.166211426937482010e+01 2.200680590785725954e+01
1.325628491203151427e+01 5.046217101499935964e+00 2.443617456189467418e+01
1.403680283118197636e+01 2.657358706664472159e-01 2.504264436852792386e+01
1.376008796044088633e+01 -3.178822048490179686e-01 2.481368758774121019e+01
1.397732942491452945e+01 2.684851399934674809e+00 2.497073869172692184e+01
1.416524414459372494e+01 2.097184544674537854e+00 2.515051921506676891e+01
1.373409036379710280e+01 4.309528096031547406e+00 2.482074123186156456e+01
1.234085276420826993e+01 7.525817553493125978e+00 2.400506142248350017e+01
1.196849250039241852e+01 8.239523340813953212e+00 2.390530803526503689e+01
1.029508777629976102e+01 9.656553963078378544e+00 2.326162632584258105e+01
1.294463250737463333e+01 -2.941518857677767773e+00 2.424283152144722919e+01
1.144225815005945002e+01 -3.732322607603378195e+00 2.313750814151251234e+01
7.825125461725893850e+00 1.081010295286743883e+01 2.248478804048315993e+01
7.267542046143310230e+00 1.109276919374540959e+01 2.238495998388120256e+01
1.428648242751869191e+01 8.800837626429349747e-01 2.527994532192636612e+01
1.447562875883100730e+01 1.614570556266033741e+00 2.545394987053265368e+01
1.405280274612026759e+01 3.854887044737765667e+00 2.509453692715669249e+01
1.276319530576312644e+01 6.960253079213856608e+00 2.418366086554348371e+01
9.471660491988014741e+00 1.014212364471922179e+01 2.297580687909393404e+01
1.154626699442767190e+01 8.805774873251429824e+00 2.372698449227102202e+01
1.111851573553840389e+01 9.170987624068439814e+00 2.354744774212247549e+01
1.317644363101982385e+01 6.509010594075808953e+00 2.447159504823862619e+01
1.363767082986241519e+01 -1.613057867198941508e+00 2.477110647224972695e+01
1.331239889143847677e+01 -2.394235781619996839e+00 2.451089910837814045e+01
8.465235560181531227e+00 1.064726211132213685e+01 2.269254360492488942e+01
1.133345164598642540e+01 -4.447017471727220617e+00 2.324578228927226675e+01
1.424983258192759195e+01 3.293003539437573846e+00 2.525084002262087779e+01
1.455787400059995207e+01 2.434265295406595531e+00 2.554693654870938957e+01
1.351657332755029195e+01 5.852388669715861802e+00 2.473551516061778699e+01
1.406270932696946119e+01 -9.192043061631346434e-01 2.513013977973354329e+01
1.285362325005216988e+01 -3.597929607152506648e+00 2.425816082414642949e+01
1.235886352111196551e+01 -3.842115935794671699e+00 2.385881660087832401e+01
6.103578810936499899e+00 1.199307665290407243e+01 2.242479780947851253e+01
7.250161893988720685e+00 1.161340326533901823e+01 2.267676840099733226e+01
1.389051894310573587e+01 5.130759526443874563e+00 2.502569481430903053e+01
1.433953075864207705e+01 -3.357442699243613493e-01 2.535920512942553984e+01
1.426438845619941986e+01 4.409262970905698964e+00 2.531581435095976573e+01
1.301275477473319953e+01 7.700360438001784047e+00 2.457745509201639678e+01
1.259084757174486846e+01 8.265768101982857274e+00 2.439915409302489735e+01
1.216862038435218984e+01 8.831604975262223434e+00 2.422071800154446208e+01
1.121721731070841876e+01 9.858868731346230874e+00 2.392781254543558944e+01
1.397424982807730487e+01 -2.248920003122788724e+00 2.512436170454434503e+01
1.364099922865300485e+01 -2.903600114427134837e+00 2.484929933874763819e+01
1.003574822874745109e+01 1.031300085357315943e+01 2.340518537673269961e+01
8.148884181330478427e+00 1.127947984553657790e+01 2.290778837623713926e+01
1.430792118733364582e+01 -1.593415091860251653e+00 2.539977156112336232e+01
1.458901857010649294e+01 2.789858557186979393e-01 2.559630553717877888e+01
1.452224443648238328e+01 3.900953073904842583e+00 2.553084754848847027e+01
1.499689221781650694e+01 1.687971975909007050e+00 2.597527331457429511e+01
1.343500000000000050e+01 7.134500000000000064e+00 2.475589899999999943e+01
1.377488387315329987e+01 6.478204836105902586e+00 2.501961740642344978e+01
1.174619990362747046e+01 9.397700084018127953e+00 2.404219997916048257e+01
1.068753033848490830e+01 1.032065432159954810e+01 2.381327412449028813e+01
9.550407639452835440e+00 1.069294586710795869e+01 2.328020581903530228e+01
9.047606648825338382e+00 1.094555584668645309e+01 2.313880810269994370e+01
1.340370000000000061e+01 -3.785100000000000353e+00 2.476875000000000071e+01
1.489555960930128187e+01 9.384440000644964641e-01 2.588967967900781275e+01
1.486457610723111777e+01 3.165411654492945370e+00 2.586281023770514409e+01
1.411519129819579277e+01 5.821090172164460341e+00 2.528366425610250801e+01
1.464209999999999923e+01 -9.369100000000000206e-01 2.567559999999999931e+01
7.232785747258887454e+00 1.213392658521389755e+01 2.296851490793860862e+01
8.019891380239256407e+00 1.218431088254739514e+01 2.336839070655729600e+01
1.456430891335757849e+01 -2.249011173888072257e+00 2.571789617693849195e+01
1.395002629555004425e+01 -3.417744622340939120e+00 2.521024697609347598e+01
1.414668901264546541e+01 -2.940269817335185554e+00 2.536132922156647496e+01
1.445501458748257662e+01 5.164912370790982088e+00 2.554733564764926257e+01
1.492154155726370135e+01 -3.824261694389676780e-01 2.594403854594644443e+01
1.510579077886250055e+01 3.840337398474845898e+00 2.611256479485040671e+01
1.517561336934070759e+01 2.496864117229848468e+00 2.616442313688232346e+01
1.529761386683802016e+01 1.253624346571461157e+00 2.628624123088913933e+01
1.479469937345378661e+01 4.508999905462896862e+00 2.581089941680565403e+01
1.351591160587516427e+01 7.742656212415460537e+00 2.505090432070790385e+01
1.311978690518918000e+01 8.218718922071213129e+00 2.486355648421726983e+01
1.246923032904093631e+01 9.127731516922370503e+00 2.460216117760421994e+01
1.176095824241532206e+01 9.976619543052517969e+00 2.436654835653903106e+01
1.489817986079312639e+01 -1.465111398501348861e+00 2.598171103569249141e+01
1.015830271296881371e+01 1.078203802025103109e+01 2.369883436871055693e+01
6.659600196382300830e+00 1.232395462190475577e+01 2.284268290520888911e+01
5.742689557644951037e+00 1.243236479052345977e+01 2.257211902664388958e+01
8.824645630358789461e+00 1.171376627711946128e+01 2.347641460311682948e+01
9.629099999999999326e+00 1.124339999999999939e+01 2.358439999999999870e+01
1.520138663980087834e+01 1.728583589193237735e-01 2.621286472835871706e+01
1.551805230545649295e+01 1.761358163331213422e+00 2.649649337421130113e+01
1.388316408298069682e+01 7.363474050878659583e+00 2.527723333759479729e+01
1.218148527167715933e+01 9.675298351695436949e+00 2.453950297464897545e+01
1.127197119424885585e+01 1.035684875801850602e+01 2.423580703668474001e+01
7.215399999999999814e+00 1.265470000000000006e+01 2.326040100000000166e+01
6.363992925189799088e+00 1.301961237542302818e+01 2.317826891273806567e+01
5.497677534321278259e+00 1.290578814196385871e+01 2.278424573653885332e+01
1.465352677319043195e+01 -2.977023509075961805e+00 2.587452164979191949e+01
1.541682510522704241e+01 3.171796038491659253e+00 2.641417484454390774e+01
1.548070821327518587e+01 7.271022912918672088e-01 2.648118810300074344e+01
1.422323143665981071e+01 6.706753996561352515e+00 2.554108290830651384e+01
1.295090464942876096e+01 8.799925826460377465e+00 2.492135027043895690e+01
1.461979831704117849e+01 5.649807577230980371e+00 2.580258812223108222e+01
1.513769105709699225e+01 -8.952273036612763413e-01 2.619728534124360664e+01
1.045048381072563082e+01 1.110452056735115711e+01 2.407526098521231006e+01
9.535532236608435852e+00 1.175651354117954561e+01 2.391361294763832035e+01
9.442014456755375207e+00 1.226935156703711982e+01 2.424264897820815889e+01
1.006995126848955380e+01 1.156914597657749688e+01 2.406508501121758670e+01
1.535723548703894359e+01 -3.865269468671523878e-01 2.640464639566391725e+01
1.515465854912576482e+01 -1.994135381710818500e+00 2.628829881420664449e+01
1.494143889199014907e+01 5.137483241210707874e+00 2.606940184721645792e+01
1.525295073222569364e+01 4.668873036263515353e+00 2.629207826068208931e+01
1.572786580227536035e+01 2.503241034379526830e+00 2.671579107346971682e+01
1.575982856129955678e+01 1.280948430859749188e+00 2.674931810327281312e+01
1.465569348236396152e+01 6.236310345871626915e+00 2.593447334370551260e+01
1.359675639174877304e+01 8.350308137392072894e+00 2.534566526896553640e+01
1.392484831053244676e+01 7.909452803536296095e+00 2.551167362046389542e+01
1.276984106682670728e+01 9.423857287176407027e+00 2.498360479490645858e+01
1.177572827164569169e+01 1.055600144587589106e+01 2.469115575707408539e+01
1.216350987119347593e+01 1.019230918154238807e+01 2.480429935208411862e+01
1.108297692767014198e+01 1.092451470595698204e+01 2.441358921062798615e+01
8.513908912370281357e+00 1.262854300423892617e+01 2.398127218825741025e+01
7.585802126961213254e+00 1.298773401861129884e+01 2.371989437546043789e+01
1.051092058555390096e+01 1.189498053694325996e+01 2.454589947412509332e+01
1.574033659575387567e+01 -9.164851979701560403e-02 2.679519789858036560e+01
1.496011360475424290e+01 -2.529104145289016170e+00 2.614175900720388412e+01
1.562136582610279945e+01 4.020060772165698459e+00 2.665393067751754330e+01
1.433127089354646166e+01 7.592418393471368709e+00 2.579850098120348179e+01
1.478316607526159032e+01 6.993742163762906472e+00 2.619258037125987926e+01
1.261654990725391201e+01 9.952756206948583539e+00 2.503655395493017366e+01
1.539566920144247852e+01 -1.449415632562998546e+00 2.650713288714560889e+01
7.010730396513173091e+00 1.319541279855350169e+01 2.361875632283359039e+01
1.015046911006018249e+01 1.250166387257839418e+01 2.479946897777202253e+01
1.066659093733456842e+01 1.141445595953735292e+01 2.439243597045566148e+01
1.605636367812515530e+01 5.757058813459725588e-01 2.709683079632716485e+01
1.563282324542426238e+01 -8.535836340544137313e-01 2.671848768172933219e+01
1.603889980414145100e+01 1.834699611366324534e+00 2.701740081185337772e+01
1.600962804573053688e+01 3.267266718183732266e+00 2.703305704400528953e+01
1.322374482858597844e+01 9.191083915937804605e+00 2.531210086876751930e+01
1.508815460102681882e+01 5.765867189742110099e+00 2.632786285429695994e+01
6.144262940884886781e+00 1.348191401222983998e+01 2.346433614728821127e+01
1.559150593872576529e+01 -2.003949935461151632e+00 2.675124263390219781e+01
1.539970886094207891e+01 5.297316121257313881e+00 2.655059182961473141e+01
1.523506028918598965e+01 6.395064819589025618e+00 2.658665853716404825e+01
1.422843121032691371e+01 8.389794986259898835e+00 2.598008746251798584e+01
1.367764841073982574e+01 8.958310614413688810e+00 2.564059680449602752e+01
1.323349174772474335e+01 9.837346613127655459e+00 2.555618987724038504e+01
1.179051428776883625e+01 1.113601512316873610e+01 2.501611703685812671e+01
1.242085551413518019e+01 1.068298139097935717e+01 2.527462233658837931e+01
1.115071825323768984e+01 1.151549758214927621e+01 2.478100868387033984e+01
7.956429681083693417e+00 1.332096921323403116e+01 2.417966627414422476e+01
6.806041644067953200e+00 1.373617863008520246e+01 2.397714721320297926e+01
1.095242939294085716e+01 1.222121330831143737e+01 2.502730199717272086e+01
9.348510253971010542e+00 1.278211561234197902e+01 2.457163759227468347e+01
1.632583812222191000e+01 -6.516000152725465178e-02 2.741262988056906735e+01
1.612799493341372781e+01 -8.119355903985399081e-01 2.723973153171809258e+01
1.593381580053988600e+01 -1.528453603484843715e+00 2.708187815831329104e+01
1.621350171097400761e+01 2.413335699794709299e+00 2.721738583236170683e+01
1.630837653203509419e+01 1.193828603563558577e+00 2.733320255765358908e+01
1.571126159084377960e+01 4.828766646530951334e+00 2.677331964309450285e+01
1.618086400014343340e+01 4.199266268554312731e+00 2.724090789254536915e+01
1.477921207738387999e+01 7.821279499352805864e+00 2.631957627247723508e+01
1.538180392479831937e+01 7.023568377751860936e+00 2.684516874095918482e+01
1.305119666207292184e+01 1.022994818043716947e+01 2.553312786828802672e+01
8.675062773997957777e+00 1.312049212708319423e+01 2.443994062938909195e+01
5.924534368901977821e+00 1.394421591927922677e+01 2.375040428206791532e+01
1.068208267937145095e+01 1.263213544007754940e+01 2.518481987474004669e+01
1.656273235701416269e+01 3.570698661899875059e+00 2.761738672206140421e+01
1.657785046483677505e+01 5.529627783322099699e-01 2.764900109880482404e+01
1.512390142201397047e+01 7.484939247432501830e+00 2.663925062401889221e+01
1.375871502986788286e+01 9.567629092905239219e+00 2.593616626543681036e+01
1.547332943829157692e+01 5.875589172785705472e+00 2.672784910728945462e+01
1.180527995862821733e+01 1.171522140194551120e+01 2.534062612325987729e+01
1.011865231102975926e+01 1.302889749070605241e+01 2.517267666980495022e+01
1.662252880990791226e+01 -7.703417482950529749e-01 2.776030402465353930e+01
1.636627416471995389e+01 -1.261615271654378923e+00 2.752178485788987317e+01
1.649954732703780280e+01 1.958005782550043872e+00 2.751058461117526122e+01
1.580801161699355006e+01 5.539739639309660291e+00 2.699740696046955080e+01
1.638811201960494301e+01 2.992001094970455188e+00 2.741738055094968018e+01
1.583571234766072955e+01 6.379954905999306369e+00 2.717672529574142359e+01
1.423623833128910121e+01 9.250936996001872359e+00 2.629294962634890354e+01
1.348581498978444237e+01 1.050712067419385320e+01 2.602966857511374243e+01
1.238482000435177888e+01 1.137234245875230876e+01 2.561805906418571865e+01
1.296435902743695934e+01 1.102946284315851955e+01 2.589549082585233464e+01
8.327012296697484217e+00 1.365416793207242740e+01 2.463938544529686325e+01
7.593151662634356924e+00 1.377247947316843657e+01 2.438637967409843199e+01
6.601131135388253135e+00 1.427752953938545666e+01 2.433592573271635828e+01
1.139333152987859066e+01 1.254699729219573179e+01 2.550804265021967510e+01
9.255034306251484821e+00 1.329473421345685402e+01 2.490053384690800797e+01
1.684732555590324310e+01 -8.790411712677248524e-02 2.796480091575809368e+01
1.679598078042493015e+01 1.253016054171241844e+00 2.785797753343967997e+01
1.616985048979617190e+01 4.988758064008278481e+00 2.725485300285162538e+01
1.667415333285297763e+01 2.536656300760417260e+00 2.771057436969821453e+01
1.673752233682494861e+01 4.149956949693358155e+00 2.781758715015108052e+01
1.478867564611297070e+01 8.676186551960411109e+00 2.663185568368420775e+01
1.522702451951276892e+01 8.050073916880265301e+00 2.684050156701781376e+01
1.552839645915494771e+01 7.651424768652854702e+00 2.710341275797053484e+01
1.383963930374940432e+01 1.017587544560636559e+01 2.623121594758477215e+01
1.182003895331009957e+01 1.229416557765799745e+01 2.566498837983617420e+01
1.087137749240713624e+01 1.292480282367043465e+01 2.550438537591544375e+01
1.650223957399903441e+01 4.619042792823505827e+00 2.758825543810163694e+01
1.707893548602237743e+01 5.800893391925494580e-01 2.818957431451286411e+01
1.696019461630951142e+01 2.081311530166969348e+00 2.800376818286712677e+01
1.684146328740747833e+01 3.332792763323128682e+00 2.790813692948693969e+01
1.228750933515389931e+01 1.189630527794741255e+01 2.582328757940788222e+01
5.426336235950862452e+00 1.455500836675092913e+01 2.403393072643493156e+01
7.603346922034690536e+00 1.423114424640584552e+01 2.477876170770433362e+01
9.790905860760757307e+00 1.351527844664783196e+01 2.535490817425740673e+01
9.161507805983575281e+00 1.380761525750942553e+01 2.522959700915172476e+01
1.623928745319989275e+01 7.091980685529673423e+00 2.770381718651479730e+01
1.392059949042372935e+01 1.078439971889411630e+01 2.652639944150795870e+01
1.339928779551762439e+01 1.130646200629148979e+01 2.639218572610277391e+01
1.625357271206445020e+01 5.797619995153544536e+00 2.748378922252491208e+01
1.235577801653381158e+01 1.235147266231861884e+01 2.612352923564130691e+01
1.287752230135505371e+01 1.182897795422838527e+01 2.625785475064980545e+01
8.697363995718561114e+00 1.398715569883860788e+01 2.509881549370204468e+01
1.045184282566926370e+01 1.359656807395445277e+01 2.577406872605711285e+01
1.183479999999999954e+01 1.287320000000000064e+01 2.598940100000000086e+01
1.662868982509251126e+01 5.148836450211119242e+00 2.773664931601426176e+01
1.733592185566013200e+01 1.361853880959965846e+00 2.843742176079382489e+01
1.713738938459077232e+01 2.789861614234831144e+00 2.820969977040920185e+01
1.691229734918591987e+01 4.729166975872179712e+00 2.801777047798357856e+01
1.727740537690673506e+01 3.585490646026906703e+00 2.837820736177038583e+01
1.567489999999999917e+01 8.278900000000000148e+00 2.736149999999999949e+01
1.595703109661507568e+01 7.685572053040551133e+00 2.753262060585623416e+01
1.435905099006842534e+01 1.015820211160209752e+01 2.673511596751190922e+01
1.479813970301378490e+01 9.531093424214196475e+00 2.694413551045249378e+01
1.523668999715843952e+01 8.904753709239884074e+00 2.715289874971613315e+01
5.808988820054391766e+00 1.495707409784460395e+01 2.454332647844307047e+01
6.396343055034237501e+00 1.481855860695051419e+01 2.469449124403412554e+01
1.114353085095866369e+01 1.323477463947253874e+01 2.588176758524457810e+01
9.759659966380089813e+00 1.395862114562163114e+01 2.566629345357812753e+01
1.742084238708069677e+01 2.204617810233972186e+00 2.849695225462053827e+01
1.721632838348118355e+01 4.221278729833432664e+00 2.832881730572137968e+01
1.652185005466335355e+01 6.497743908579346694e+00 2.787519917593981233e+01
9.067999999999999616e+00 1.432039999999999935e+01 2.555859900000000096e+01
7.150405034671867277e+00 1.501295582661862227e+01 2.522138837213828566e+01
8.109056073561143663e+00 1.466673002782005319e+01 2.538996727307630508e+01
4.864864128824713418e+00 1.509032851825740984e+01 2.428054159897528663e+01
1.096370824369343921e+01 1.367947927133631048e+01 2.617254087005413865e+01
1.158217466795792561e+01 1.338541527223568650e+01 2.629559383253774030e+01
1.768740750658296790e+01 1.745804986509258416e+00 2.880263833256291406e+01
1.642895415201997977e+01 7.890093233418100205e+00 2.813368977788596226e+01
1.680438509198943819e+01 5.903565995782680709e+00 2.804656466875372445e+01
1.455981930124619872e+01 1.046795577170138891e+01 2.714342580957730888e+01
1.376524470586130811e+01 1.137345115338965407e+01 2.684853555123147117e+01
1.564471529857622656e+01 8.933609351860791747e+00 2.766778997123660844e+01
1.247819637000921134e+01 1.265181167803056539e+01 2.650837442691732093e+01
1.329621760071342784e+01 1.180965724994126909e+01 2.669979934438162061e+01
1.206541473279250809e+01 1.316262828890964087e+01 2.648350646353994620e+01
1.759877092357676176e+01 2.927706237000735179e+00 2.870402134907381253e+01
1.708720049342547398e+01 5.308800071502920659e+00 2.821810063574115190e+01
1.733839962306722882e+01 4.736937612284783938e+00 2.847136124863878592e+01
1.758966437680853545e+01 4.164925452393066330e+00 2.872468798884112218e+01
1.606257942085248658e+01 8.526791072091610246e+00 2.787628153244556017e+01
1.679976712569181885e+01 7.186915298927617712e+00 2.837875915825835094e+01
1.524168620989232714e+01 9.463272768474244145e+00 2.745184728585211431e+01
1.423486242441719440e+01 1.106903532016133518e+01 2.706055160190716791e+01
6.191699999999999982e+00 1.535919999999999952e+01 2.505279900000000026e+01
9.317972522948105407e+00 1.464560769862380418e+01 2.601203148923135799e+01
8.796781873708550137e+00 1.477935632306762237e+01 2.583464946448680521e+01
5.270830206737934454e+00 1.564131174974853167e+01 2.493088487547775145e+01
1.052126327793824245e+01 1.410589798479243662e+01 2.628091895951145318e+01
1.254782945773973957e+01 1.294669461539800182e+01 2.683091026264552781e+01
1.788148971484045546e+01 2.327924123118255473e+00 2.899013587216622412e+01
1.690681175950179949e+01 6.505661295722615201e+00 2.832371053185208964e+01
1.299531221021812044e+01 1.240608142319479512e+01 2.686885124418527226e+01
8.525325283249596708e+00 1.523871617608730666e+01 2.611094264189660663e+01
1.132962972788716982e+01 1.389746720109370237e+01 2.660168891460271112e+01
1.229620582562246334e+01 1.345227791486593283e+01 2.697798978870649833e+01
1.784055277026097031e+01 3.593770091602359606e+00 2.897763528052742643e+01
1.783073963958467800e+01 4.919629733510088698e+00 2.911858925619966598e+01
9.895973719718643480e+00 1.447040896181586866e+01 2.621760235351728596e+01
7.483317835139352781e+00 1.547044155610969796e+01 2.579802489920213660e+01
6.441310234678887525e+00 1.570216855022075997e+01 2.548510852787160630e+01
1.717529041490718811e+01 6.011074209358850950e+00 2.850496987323805342e+01
1.809141856498505163e+01 3.022665589029127187e+00 2.923055981896062860e+01
1.749715765109385401e+01 5.534623840645250148e+00 2.876555746945870240e+01
1.690090658370838028e+01 8.094804139264413223e+00 2.873484291882187591e+01
1.726338872984489825e+01 6.713406441696101012e+00 2.879186416926582481e+01
5.863540605322017818e+00 1.585866775700850795e+01 2.537130017838223850e+01
1.286490064162002334e+01 1.308690611420794880e+01 2.729494684606028798e+01
1.107699183772957596e+01 1.440970698897720581e+01 2.690789610738829651e+01
1.818671839609778118e+01 4.022138237582271181e+00 2.946741045104745993e+01
1.735137013824794394e+01 7.414809154010345793e+00 2.907837840742197244e+01
9.568249137587125475e+00 1.497121188777726886e+01 2.646601637495175652e+01
8.253945696855474523e+00 1.569794572254179243e+01 2.638715744324742829e+01
1.180200979947340834e+01 1.407583496703608716e+01 2.719021589067115130e+01
1.032262016499281287e+01 1.469046005500833907e+01 2.668695659807659837e+01
9.037958654075378462e+00 1.543019338272874208e+01 2.659102014452028939e+01
6.691047440093816689e+00 1.604531282093941158e+01 2.591763909174300551e+01
7.470769650902358450e+00 1.593734005269910803e+01 2.621046403796860602e+01
1.252702632488670886e+01 1.374196487637826536e+01 2.747253655790449400e+01
1.758514670452930062e+01 6.236869238377638069e+00 2.905229895251860839e+01
1.790690367879183498e+01 5.760331209454817802e+00 2.931273234862143084e+01
1.832109258011722375e+01 5.136489561175210383e+00 2.976724439072670236e+01
1.762501935832219857e+01 6.934979983568493545e+00 2.928057668325076790e+01
1.217153254417160113e+01 1.416633651738746735e+01 2.760049207967110974e+01
1.159112957487066531e+01 1.459822904892598316e+01 2.754271158918160722e+01
1.796051870368880543e+01 6.568399610679233724e+00 2.958586636778876766e+01
1.831660978527642669e+01 5.986017287577558577e+00 2.985985407550537118e+01
1.793964307541285308e+01 7.542011306492630851e+00 2.981300124538515917e+01
1.837748487466133440e+01 6.852176988934562729e+00 3.015668583980824380e+01
1.872631151294115170e+01 6.211699919465472952e+00 3.040696970707847413e+01
5.288635498621452324e-01 -4.082424468302154885e+00 4.866625280007273346e+01
1.094124266332199280e+00 -4.610417926669359012e+00 4.878143515404008212e+01
1.371600072619250543e+00 -4.025091192602118007e+00 4.890438602138151225e+01
1.264564385524300505e+00 -3.436142035760199942e+00 4.892102689618873512e+01
6.431373835211162682e-01 -3.299731766517967735e+00 4.875948093183864529e+01
9.681335307633762710e-01 -2.811292544034078134e+00 4.887201483310075645e+01
4.007026629623520186e-01 -2.725997092650153775e+00 4.872253844357645391e+01
2.051977367716428802e-02 -3.163060145362159847e+00 4.859762545745571316e+01
1.523417241852367265e+00 -2.712388685850671166e+00 4.902742923398091790e+01
1.030707433900791115e+00 -2.213813206259766186e+00 4.891890672868778012e+01
2.015999563101873893e+00 -3.210835838767772454e+00 4.913592363281964026e+01
-2.214898156560658471e-01 -2.589183840028283612e+00 4.856080525857593244e+01
1.582677196409489895e-01 -2.152262559755012461e+00 4.868559588789135262e+01
5.380600259709507061e-01 -1.715300026280160095e+00 4.881039800572026621e+01
1.268010276521442048e+00 -1.827529254686879323e+00 4.898959092732695808e+01
2.372026313685499321e+00 -2.631422839555314752e+00 4.924196766391140301e+01
1.998148440292503381e+00 -1.939787460258509011e+00 4.916882997819413248e+01
-7.442834186605569169e-01 -1.819477751180617942e+00 4.834038859167895907e+01
-1.994023327256649880e-01 -1.364015606763535837e+00 4.852551921277841274e+01
2.825173587797543018e+00 -3.194167340968671720e+00 4.933871267075251410e+01
4.447611303121101756e-03 -1.006845954297907797e+00 4.856759504548352169e+01
9.639592526569007447e-01 -1.252325111998676466e+00 4.891695346995280858e+01
1.694063493520542529e+00 -1.364503231176445119e+00 4.909618447698041166e+01
2.728051824191165764e+00 -2.052009536924410682e+00 4.934801139389589508e+01
2.255399013858541579e+00 -1.500708432470640785e+00 4.923379562799852494e+01
3.141818906152371582e+00 -2.679182302641161417e+00 4.943301683549066183e+01
-9.366249161740514140e-01 -1.012842847239155741e+00 4.824073294865848283e+01
1.389977871244090224e+00 -7.892199926534297916e-01 4.902353880579139656e+01
3.565214183009479232e+00 -3.098667073623369461e+00 4.945530356697719299e+01
-1.369931629103102733e+00 -1.335456068012215836e+00 4.809210751007538676e+01
-1.620642253734537519e+00 -1.799389727663300409e+00 4.801594523017386962e+01
4.836931368398893483e-01 -4.860419936135440544e-01 4.868751087803448740e+01
-5.297404936001033349e-01 -2.976262630511481433e-01 4.832453002043904178e+01
2.363456869975227193e+00 -9.389769750770566858e-01 4.926251441940206632e+01
2.910905918728000863e+00 -1.551613290164726378e+00 4.939490276464572105e+01
3.458400000000000141e+00 -2.164299999999999891e+00 4.952730199999999883e+01
3.921262373702435688e+00 -2.519411213881593170e+00 4.956136026866465016e+01
-1.673838216561681635e+00 -6.616748655156723391e-01 4.795595028155244677e+01
-2.130155427439334392e+00 -1.185850189280707623e+00 4.780597218332688669e+01
-1.215951253457185688e+00 -2.248687205564909863e-01 4.807996264817259657e+01
1.815900010834184064e+00 -3.262200121242597728e-01 4.913010000262000432e+01
9.629366146829193562e-01 3.476144155809679503e-02 4.880742605403424506e+01
3.320130928365241818e+00 -8.338093495723200022e-01 4.952491946385369914e+01
3.858153675765986890e+00 -1.522566811700114098e+00 4.965273909510035111e+01
-2.503776721527327442e+00 -1.593574292109934731e+00 4.754855196379654103e+01
1.105882312404988799e-01 3.954833761198097153e-01 4.848498469669333844e+01
-1.062852976608696265e+00 4.101622691562201162e-01 4.808195468530507810e+01
2.526256837488576323e+00 -3.045847917518611503e-01 4.932345186109441215e+01
4.129036527206494611e+00 -2.013914233350444505e+00 4.965508990543758472e+01
-1.893494170938150978e+00 4.864025023484863652e-02 4.782220486709512386e+01
-2.411537176214807232e+00 -3.102762096201772124e-01 4.767098003303140530e+01
-7.430461285731304599e-01 7.567494593967172278e-01 4.816205685349905252e+01
1.397310838848852432e+00 3.077181310628908650e-01 4.891509155818987864e+01
2.219506391152461511e+00 1.044135825059353540e-01 4.923678734832373749e+01
-2.639982073949117325e+00 -5.719331769288582556e-01 4.759586995269553711e+01
5.450900119789965359e-01 6.679126906830730181e-01 4.859275715684007224e+01
3.236959750143811654e+00 -2.829390431556819130e-01 4.951689792030732207e+01
4.511178758776046571e+00 -2.352810220860736656e+00 4.967781559454711982e+01
4.257753753519097017e+00 -8.810813674058385336e-01 4.977812788891297657e+01
-3.220880267421960763e+00 -1.206630463118893104e+00 4.719554494269659983e+01
-1.595700352535283750e+00 1.117599755658300609e+00 4.783949989709705619e+01
-2.113151141443206704e+00 7.589553567460618488e-01 4.768845909992969467e+01
2.850472198253256817e+00 9.187941730394438844e-02 4.940877039481563315e+01
3.947049243323736079e+00 -2.613119773642443300e-01 4.971017701301702374e+01
4.775348480660214889e+00 -1.383515442401029860e+00 4.982156292782635632e+01
-2.631457105763884918e+00 3.997182369829772597e-01 4.753716868216297797e+01
-1.625997454523575581e-01 1.119213712184472298e+00 4.830621143661861083e+01
-1.016273835130843572e+00 1.479941173543338984e+00 4.798333745666669614e+01
1.801146397411194977e+00 7.374762072067164720e-01 4.902194765538448706e+01
2.622704034607918011e+00 5.346110458399231380e-01 4.934336665027139190e+01
3.427115666400250671e+00 3.138374089973176018e-01 4.956417794160066848e+01
4.799990065867292266e+00 -1.863457378997404490e+00 4.978293821651683260e+01
-3.148999852486036755e+00 4.100982236838346395e-02 4.738610106079127604e+01
-3.564363409206140698e+00 -4.119638361307749186e-01 4.709995748770194979e+01
9.795888553756686434e-01 9.403422325642845081e-01 4.870052863179024882e+01
4.657300000000000217e+00 -2.396799999999998931e-01 4.990350000000000108e+01
5.151633372236843478e+00 -6.804192264551442992e-01 4.994847337685741451e+01
5.620095184751923156e-01 1.572750293907906327e+00 4.848603897672239071e+01
-1.988053012931467967e+00 1.783996686406467358e+00 4.758577691967488477e+01
-3.101070547347057005e+00 1.288026418942743945e+00 4.724627127536239612e+01
-2.388378930288920010e+00 1.630096040029708426e+00 4.747355092442476376e+01
3.025756716572970184e+00 9.646538404488690377e-01 4.944990763380447873e+01
4.248048265864839301e+00 3.049383339433775486e-01 4.978788430269752041e+01
5.470243397923028716e+00 -1.713157541303677256e+00 4.991065310519541498e+01
-3.631010684080779871e+00 7.683794261071270615e-01 4.711089120005249953e+01
-3.979684481576240884e+00 -8.648899037972386239e-01 4.681384333398229813e+01
1.383226808434740107e+00 1.370259632158106866e+00 4.880729672481879788e+01
-4.357903690604674196e-01 1.842943191640765699e+00 4.812743742041356398e+01
-1.735788314631632634e+00 2.274689669587317553e+00 4.759131496769794722e+01
3.838628905911896538e+00 8.497800903274114193e-01 4.967222124504469605e+01
5.646336063545830619e+00 -1.121487731513177266e+00 4.999348035356211284e+01
-3.946909841602871616e+00 5.099876480838685389e-01 4.693766787601805390e+01
-1.170663637064749185e+00 2.371913242828862067e+00 4.777552465654702019e+01
-2.380387956092699486e+00 2.450363018878990218e+00 4.733206546677470783e+01
2.204598593606722723e+00 1.167493737701552403e+00 4.912863785362304725e+01
5.090996796957571568e+00 4.407985131932062872e-01 5.000741242366014205e+01
5.451868977423657725e+00 3.979633274657601305e-02 5.005162235631762258e+01
-4.541816236690846331e+00 5.299739242182011090e-02 4.654233736261157617e+01
9.651596536007542859e-01 2.002973543268141476e+00 4.859259828011744986e+01
-3.182653843914920344e+00 2.143622684043273274e+00 4.710686520473220895e+01
1.786864309926635253e+00 1.800177364619033105e+00 4.891406463957746098e+01
2.608047336334981203e+00 1.597510255667891732e+00 4.923532688090718068e+01
3.429000012943562936e+00 1.394899982775145375e+00 4.955649900365662575e+01
4.681702639490378459e+00 9.854484760000775667e-01 4.989178510891099450e+01
6.141200030138118215e+00 -1.562700018872492436e+00 5.003850200011610383e+01
5.946328231545413345e+00 -4.013177399698295567e-01 5.009658702674495601e+01
-4.113010604508090751e+00 1.495732609519423661e+00 4.683568754574247350e+01
1.441400844626206101e-01 2.205599872084418323e+00 4.827140004338424717e+01
-5.962971392615531441e-01 2.654867787687835268e+00 4.793117486856661458e+01
-1.919732349568287644e+00 2.828204933450472858e+00 4.743102706053569761e+01
-3.741505494872250814e+00 1.910821569154402155e+00 4.692415568132909698e+01
4.272408173873396109e+00 1.530097489665751986e+00 4.977615772722030130e+01
-4.745578679502240327e+00 9.794113994446436156e-01 4.648880818850525998e+01
-4.943632407645651483e+00 -5.773648301041792719e-01 4.625099805115740992e+01
-1.337809574085136788e+00 3.104787915305747603e+00 4.759045566543057504e+01
-2.772823332858502354e+00 3.116899260244648140e+00 4.707828918195641421e+01
1.410881462505603867e+00 2.325437246527998436e+00 4.870614042971244828e+01
3.060101477442128903e+00 2.110425112866731290e+00 4.932433689993849413e+01
6.440787352070525884e+00 -8.424348173854654398e-01 5.014155141889509082e+01
6.245521006123099461e+00 3.189504958089103281e-01 5.019957379179352586e+01
-5.217518876466198385e+00 6.598666070447549714e-01 4.617844186266338369e+01
-4.394899999999999807e+00 -1.317700000000000315e+00 4.652780200000000121e+01
6.889617480086434043e-01 2.539551727420260807e+00 4.841865563031028330e+01
-3.087758119124161649e+00 2.691048630186484658e+00 4.704360475101603356e+01
-3.975161863984896904e+00 2.656009482196644900e+00 4.674099487236347983e+01
2.116054158545438657e+00 2.381375298374877492e+00 4.894966818861281155e+01
3.867030952648442543e+00 1.844861691079873411e+00 4.964939240834193157e+01
-2.218409134767139745e-01 2.943394550841701207e+00 4.799136872509611607e+01
5.114468836450313027e+00 1.665079021220748023e+00 4.999546550359767139e+01
6.849435836559814916e+00 -1.155861267516204993e+00 5.014619113325924360e+01
5.884820130423737083e+00 7.196626788794564522e-01 5.015538052356881593e+01
5.524119955720179220e+00 1.120375912064055957e+00 5.011118742112671498e+01
6.740297607757241849e+00 -1.223531170848733418e-01 5.024457451521649887e+01
-4.595009874002462524e+00 2.223084810653246812e+00 4.656048426309043720e+01
-5.493174553456202425e+00 1.640651967978026260e-01 4.597378581589557456e+01
-2.077991921540328857e+00 3.553901212087484218e+00 4.725034759057821532e+01
3.228090550438402206e-01 3.276992430770102604e+00 4.813862471503350804e+01
-4.996287896039955712e+00 1.784738489759987390e+00 4.634151354318697003e+01
-5.545034626820184442e+00 1.449299312232007919e+00 4.603950625201492386e+01
-5.680793954654109967e+00 -3.864612533509729220e-01 4.574497604318984401e+01
-3.558526961260147559e+00 3.326361227333772153e+00 4.676806382455553290e+01
-2.818358831477119519e+00 4.003126387416087617e+00 4.691015472897569083e+01
4.304596646259078341e+00 2.294344353741665010e+00 4.974218723207823700e+01
-5.876335042357825333e-01 3.680807291269688974e+00 4.771148201513104681e+01
1.233253785670792357e+00 2.873178765736441598e+00 4.856576808933337475e+01
3.529685240631908805e+00 2.661388212043982904e+00 4.941427514365604168e+01
2.691323456820791105e+00 2.825715131654539025e+00 4.909225082843846621e+01
