1.423788091199223160e+01 -1.033893420718730383e+01 4.463234402569510451e+01
1.461754384964271658e+01 -1.166733068254980132e+01 4.191972692273262169e+01
1.411359207628925283e+01 -9.883098218514225763e+00 4.546081779336542894e+01
1.434126563318240244e+01 -8.481323011107379628e+00 4.695001528756198184e+01
1.935456503877863454e+01 -8.466581986220987233e+00 3.380836918565542248e+01
1.595167773396097388e+01 -1.204034981487328970e+01 3.843729583671052552e+01
1.512349291568007636e+01 -1.196425999194841161e+01 4.073801117963837015e+01
1.465024896852560055e+01 -1.186573995104366297e+01 4.117257668750792021e+01
1.537707718965033976e+01 -1.212623046932089999e+01 3.968758388943857085e+01
1.518003180098089011e+01 -1.213875686769578444e+01 4.007635645563674842e+01
1.906684935230075340e+01 -9.264542500051264895e+00 3.408972674293544713e+01
1.674271526522432296e+01 -3.465336951642188357e+00 4.759534820590273796e+01
1.444274110806536449e+01 -8.770386600087428874e+00 4.679415548854213114e+01
1.397195251382505177e+01 -9.392322472023844071e+00 4.616561482527801985e+01
1.787896810223962518e+01 -1.092799235782455902e+01 3.494497261811702771e+01
1.754799205926672201e+01 -1.120744563546074346e+01 3.538670353283581704e+01
1.863825146984712688e+01 -1.000261738140233980e+01 3.433614670414966241e+01
1.983373565262528615e+01 -6.227448153968631495e+00 3.366390407330755608e+01
1.945187208629609188e+01 -7.219619346501524149e+00 3.341300541942065649e+01
1.614559621552415791e+01 -1.200227234656928488e+01 3.784743136338707359e+01
1.524478047163944083e+01 -1.217424045572945879e+01 3.885340468757914323e+01
1.876863458024518394e+01 -9.791298474266318053e+00 3.416439126578610086e+01
1.477950508472869551e+01 -6.109213535751389479e+00 4.781144745231071624e+01
1.509660784952427548e+01 -4.601428721616851014e+00 4.807356518401326184e+01
1.611884941632876789e+01 -3.670680515989482640e+00 4.781897576700685448e+01
1.400772890115670322e+01 -1.134882547969920275e+01 4.262981633646854362e+01
1.413784161030485365e+01 -1.177540090774877157e+01 4.150002801111864414e+01
1.383026546651563038e+01 -8.901380048273626500e+00 4.687069433407923214e+01
1.360231277887664625e+01 -1.009832435038754461e+01 4.514199488081140998e+01
1.421937834851229177e+01 -7.131350720198085469e+00 4.767569213594840249e+01
1.370912341641000687e+01 -8.306855266917379410e+00 4.728495473602811927e+01
1.674448884532125703e+01 -1.180184419937878104e+01 3.669048027579550109e+01
1.809737689036761310e+01 -1.040605097320355554e+01 3.434749967492135170e+01
1.952393907026412379e+01 -6.837514216002419154e+00 3.339013230514618158e+01
1.933279649921290755e+01 -7.862290238478959914e+00 3.352572030618342325e+01
1.468226030821216277e+01 -1.206376565780051280e+01 4.042624180818600621e+01
1.892914428356993284e+01 -8.927285822145226035e+00 3.359769901151709348e+01
1.651717631432061140e+01 -2.943657895058117813e+00 4.778888367491234135e+01
1.407485440538601296e+01 -6.246117585934324978e+00 4.799403760659948404e+01
1.549517492570370436e+01 -3.875988503832389132e+00 4.804253894994450036e+01
1.382333029615473663e+01 -1.098889506730688304e+01 4.341093855593762640e+01
1.348036939434026671e+01 -1.054610508840530336e+01 4.435919692388893765e+01
1.387705018444786020e+01 -1.169217021278460678e+01 4.189849515685499881e+01
1.345284835792022271e+01 -9.940239537944233206e+00 4.551247789354837181e+01
1.334674386585114902e+01 -9.572194630859014453e+00 4.604099163315579091e+01
1.644298173616859060e+01 -1.190475081834160598e+01 3.685654187860896513e+01
1.633944071384904007e+01 -1.196419331237909844e+01 3.725755905678521884e+01
1.710300635130014157e+01 -1.150498642974887886e+01 3.570681802075257139e+01
1.973682945300699032e+01 -5.568584529766085645e+00 3.342266805477587610e+01
1.548019116478284829e+01 -1.214727665587634320e+01 3.801286229992791732e+01
1.419655967091891036e+01 -1.195073823753770270e+01 4.084011854109191120e+01
1.471399560787140182e+01 -1.226177797371008715e+01 3.967991194905923891e+01
1.838629590904366751e+01 -9.692728185551063191e+00 3.355815286197541525e+01
1.452101717075182563e+01 -5.195128931551595386e+00 4.810796569543568779e+01
1.589338454767266917e+01 -3.148977534508595078e+00 4.801250606918613784e+01
1.366111829026477231e+01 -1.083580405841128602e+01 4.381980426145481999e+01
1.328486455318103054e+01 -1.118310248688835884e+01 4.301790633613819637e+01
1.341038996223606539e+01 -1.146367461087966610e+01 4.240989497740626035e+01
1.309133394764088543e+01 -1.031343684843536224e+01 4.482335306725531154e+01
1.358803906728192068e+01 -7.712483722536441100e+00 4.769899533639391365e+01
1.654804538383000079e+01 -1.177202176119163113e+01 3.609095518589867169e+01
1.730431732305924797e+01 -1.118953698549655407e+01 3.492719715473428721e+01
1.812546938278573094e+01 -1.011538567816173462e+01 3.390157301419580449e+01
1.755649253144058619e+01 -1.080947763392478222e+01 3.435885339782463888e+01
1.942702541974404085e+01 -6.179041301808251063e+00 3.314896466784170315e+01
1.911722217230841636e+01 -6.789458692726041633e+00 3.287526604718492962e+01
1.890790397044356297e+01 -8.384904131514527847e+00 3.318406770952754670e+01
1.999436373932298849e+01 -4.868160293507039604e+00 3.365965706407138214e+01
1.573866415455437817e+01 -1.209651775606503499e+01 3.722626798571743478e+01
1.462570792675641407e+01 -1.231147821666171716e+01 3.842207461291071269e+01
1.365891372596467690e+01 -1.188318440014769983e+01 4.108101033115381284e+01
1.394456575560263190e+01 -5.789055805550922251e+00 4.814231732834632282e+01
1.445723016572008390e+01 -4.707408102194058586e+00 4.826430376399880373e+01
1.486734312793796953e+01 -3.751723071656473341e+00 4.836365716058385544e+01
1.347921928697881100e+01 -7.047543802650671374e+00 4.793776964486833236e+01
1.629110139847299266e+01 -2.421866529839118432e+00 4.798246083346828783e+01
1.324064390516923595e+01 -9.204169496866159150e+00 4.656950647025230694e+01
1.301371799440705423e+01 -8.986808701149787026e+00 4.696591729458275921e+01
1.279321308566380822e+01 -9.997281216239811030e+00 4.556404549843657037e+01
1.594535352630438219e+01 -1.197774564727647295e+01 3.642456347024651819e+01
1.741785038389964058e+01 -1.098533211493329276e+01 3.455473524069302016e+01
1.662933000810247819e+01 -1.160865832921094665e+01 3.529949819548001244e+01
1.897319830330093993e+01 -7.553688301695697049e+00 3.292112300499728406e+01
1.963977821525721268e+01 -4.908517460442529234e+00 3.318110781575286694e+01
1.392480312217132976e+01 -1.210124405130590830e+01 4.026521382912553548e+01
1.466995293379843979e+01 -1.228662389978847180e+01 3.905110026997311934e+01
1.849306111310856338e+01 -9.116858452206917818e+00 3.318019146937659514e+01
1.337033778791520966e+01 -6.383029256839151344e+00 4.817662743923530400e+01
1.534204867074157086e+01 -3.308614154486426262e+00 4.823668686884494150e+01
1.573971060394800325e+01 -2.581533265924940146e+00 4.820665501250375229e+01
1.295914845086933198e+01 -1.087707703581990337e+01 4.383538280376405538e+01
1.274641905353945504e+01 -1.137732128335161619e+01 4.262488812564060225e+01
1.258016182143001949e+01 -1.052864403878650990e+01 4.450458920561702314e+01
1.313830209804710947e+01 -1.171699566498904765e+01 4.187816609588417549e+01
1.303627716784187740e+01 -8.073743098160058196e+00 4.756344633070084171e+01
1.635174280770080557e+01 -1.174222105216499124e+01 3.549150372659504171e+01
1.723376242695159988e+01 -1.069086613524332208e+01 3.377229632028729611e+01
1.920377497116594867e+01 -5.342580970217860603e+00 3.271810110261732518e+01
1.500860026544719261e+01 -1.225422154077359593e+01 3.758834259056384042e+01
1.426950780604647839e+01 -1.229673991519625709e+01 3.928486757917331573e+01
1.397165878863064137e+01 -1.227491061647771531e+01 3.961117668222063060e+01
1.381755701729218977e+01 -4.813430691059730648e+00 4.845510478359474149e+01
1.421983520199644602e+01 -4.199311734239092431e+00 4.847178373859698297e+01
1.265140727985200009e+01 -9.506762200431996490e+00 4.626850914893675082e+01
1.281414688785587330e+01 -7.774912039379404227e+00 4.781271338800870296e+01
1.529285767066329171e+01 -1.213977937567450383e+01 3.659382143671763288e+01
1.672983812872389109e+01 -1.145097061152841711e+01 3.490950815362461412e+01
1.761303673995417896e+01 -1.022807652940320011e+01 3.346730390303181224e+01
1.695673162665763556e+01 -1.104265926850700730e+01 3.416450186212468054e+01
1.894237163076669006e+01 -6.283173948632224004e+00 3.256503763158306697e+01
1.878229553635001636e+01 -7.194720014687058018e+00 3.258120721495109251e+01
1.920478632803978769e+01 -4.897032705258176577e+00 3.265263395900078081e+01
1.513785528041848494e+01 -1.222884022000897275e+01 3.719497626819376990e+01
1.458132011517951732e+01 -1.233633942873272815e+01 3.779286896957709274e+01
1.317980082778209372e+01 -1.199098184188853722e+01 4.066183106416573168e+01
1.846188545559172312e+01 -8.303341596419901549e+00 3.256072203310901614e+01
1.800388069965648441e+01 -9.594137796595806122e+00 3.295184155117616598e+01
1.327274313431462183e+01 -5.651676553756225019e+00 4.841124341974229850e+01
1.266843901061918309e+01 -6.888633741415359779e+00 4.813116569854879856e+01
1.463700942291290019e+01 -2.901020052598969112e+00 4.865499730435347203e+01
1.518834412411124291e+01 -2.741251361534086328e+00 4.843083441717282511e+01
1.605525886890630005e+01 -1.869127632659586702e+00 4.817946088743404687e+01
1.415076692093423993e+01 -3.574650167210476237e+00 4.865107440547322426e+01
1.250187837768505439e+01 -1.114781901110838014e+01 4.323793248115101306e+01
1.226790638888384244e+01 -1.025789332611924465e+01 4.515364851451950301e+01
1.288166477302520541e+01 -1.185985478231228107e+01 4.127625590082096352e+01
1.248421519034141269e+01 -8.435063000296826985e+00 4.742780661708932399e+01
1.615530829943305591e+01 -1.171240028632252184e+01 3.489191260713375442e+01
1.871000820519679664e+01 -6.741339208237590697e+00 3.235981955682967026e+01
1.398089103559993696e+01 -1.235150814528025798e+01 3.814372912588918041e+01
1.322915569819599924e+01 -1.228802366811206959e+01 3.954242260084763672e+01
1.382487939158332146e+01 -1.233170572224614858e+01 3.888970924662378792e+01
1.219682712730973684e+01 -9.072253756550336945e+00 4.706118166058461583e+01
1.805720558619720251e+01 -9.306332243717173824e+00 3.276291492519290927e+01
1.264641237888322323e+01 -6.411442441136122383e+00 4.830148843404092673e+01
1.550393487517304614e+01 -2.028818883722407485e+00 4.840363728498696361e+01
1.366434413112684787e+01 -4.247075981990382942e+00 4.864857585051238686e+01
1.225738103431401704e+01 -1.091833516662018866e+01 4.385093540809793922e+01
1.217002930197566890e+01 -1.130283005686595565e+01 4.290772590974381728e+01
1.220675779129176597e+01 -1.157199853030083858e+01 4.223098194343297251e+01
1.213371915882411933e+01 -1.005430599762277133e+01 4.561560029049740450e+01
1.206232998320601624e+01 -9.809286550182488185e+00 4.596758394008758586e+01
1.240250219642825691e+01 -1.174176730061535068e+01 4.185777189385202490e+01
1.544780608711720582e+01 -1.205071710799836815e+01 3.599261737247563531e+01
1.572302593019278483e+01 -1.189533208712799706e+01 3.539021171531644683e+01
1.849457405637452112e+01 -7.887718203731281186e+00 3.242931317202481267e+01
1.691096016620790365e+01 -1.057222450332435493e+01 3.318562650475760734e+01
1.643660202853710928e+01 -1.135325616595081399e+01 3.433057543778972587e+01
1.876751867126262496e+01 -5.776820781742670441e+00 3.225484064459600830e+01
1.876979879523183925e+01 -4.885570732417089168e+00 3.212422151636250334e+01
1.453684080777937027e+01 -1.236119970365003518e+01 3.716367704177756082e+01
1.193202186284387878e+01 -8.796416309187074845e+00 4.729211956874775780e+01
1.317733121642004512e+01 -4.919537779195072069e+00 4.864604464335432255e+01
1.196732401487312814e+01 -7.394550710389473203e+00 4.808570754059497432e+01
1.495260546874073171e+01 -2.188562995172367742e+00 4.862781271825420504e+01
1.204025354164535067e+01 -7.837279722629021173e+00 4.792643251132084714e+01
1.206849239668124874e+01 -1.074407837942078103e+01 4.418551003891205653e+01
1.151552142437674142e+01 -1.053511109606803942e+01 4.476741043774755013e+01
1.491970487011998436e+01 -1.219450337113965510e+01 3.626988501059499015e+01
1.710081121038459528e+01 -1.034072215076631984e+01 3.303321870868474264e+01
1.649577667629021605e+01 -1.109995288009914560e+01 3.377440385204163675e+01
1.834285190340891702e+01 -7.219051476843615589e+00 3.204723271555680242e+01
1.234191321414192899e+01 -1.194517485953813107e+01 4.096359449485850490e+01
1.270091722735788409e+01 -1.209872377729147708e+01 4.024285546470959929e+01
1.338027477012444777e+01 -1.236666363293291226e+01 3.849458186409760430e+01
1.189276198320941980e+01 -8.307647283121061932e+00 4.763446043776875172e+01
1.801589285376148553e+01 -8.221784239852933496e+00 3.193745978520113127e+01
1.781880195193896554e+01 -8.858803413446139530e+00 3.214176583859404701e+01
1.762177034095529038e+01 -9.495625528127829895e+00 3.234605275699688320e+01
1.192293754837024089e+01 -6.439838813509118687e+00 4.842627347579569630e+01
1.251492884206996514e+01 -5.436303523219645939e+00 4.861434263834747327e+01
1.407877811386706490e+01 -2.968511328350018186e+00 4.884880207584604506e+01
1.359268828063251711e+01 -3.641419554993460039e+00 4.884548384421203338e+01
1.581915443281235945e+01 -1.316243403756261587e+00 4.837651221097143406e+01
1.155685949468669271e+01 -1.095951603445544720e+01 4.386645078674418841e+01
1.147424104488032448e+01 -1.011132431752205108e+01 4.566715618368139218e+01
1.163054899944012988e+01 -1.149731917775763890e+01 4.251423863825526439e+01
1.542239001311352986e+01 -1.189803849953045400e+01 3.482610104433569376e+01
1.710485667843154900e+01 -9.974572728523844134e+00 3.247230408951131153e+01
1.589498291851222689e+01 -1.160234189196991395e+01 3.432039852538910196e+01
1.833132162748190552e+01 -6.210966677755862086e+00 3.179165183556359153e+01
1.830275279341237393e+01 -6.693206698946827515e+00 3.184435837584791429e+01
1.843049484568489049e+01 -5.517674511238611856e+00 3.180795041271836610e+01
1.900156131796936521e+01 -4.121744561393851924e+00 3.233940672579357312e+01
1.359181816788682085e+01 -1.238209934943505708e+01 3.779798108915563404e+01
1.166747197146859882e+01 -1.176647155742023010e+01 4.183733881705039437e+01
1.248642252504129857e+01 -1.230111985873947411e+01 3.947366121323373989e+01
1.137993719496473766e+01 -9.157685110036666742e+00 4.715644610848960383e+01
1.797569610111186122e+01 -7.696738671508516205e+00 3.173464564280767064e+01
1.447821546258450631e+01 -2.298387716448643481e+00 4.884326811406798186e+01
1.526799273057244832e+01 -1.475981850711640231e+00 4.860061943824151598e+01
1.159368655140518989e+01 -1.122833391449800189e+01 4.319052858576943521e+01
1.142712991603083239e+01 -9.634895153050807792e+00 4.641115686637542126e+01
1.495033573717695141e+01 -1.212366881691406206e+01 3.555980213652216548e+01
1.565128750723063433e+01 -1.174003418952827360e+01 3.447114796238800238e+01
1.658795689258079165e+01 -1.045350583906760455e+01 3.259860699877652479e+01
1.603480438851470069e+01 -1.115723950880398974e+01 3.338429309751603569e+01
1.380311977373851029e+01 -1.239753264276902023e+01 3.710136686973638831e+01
1.405693060410608020e+01 -1.239397179375598768e+01 3.677577408260834346e+01
1.439157891619725760e+01 -1.233828617769741776e+01 3.654710731232243148e+01
1.234025936517185151e+01 -1.235791300568768492e+01 3.875224513994064068e+01
1.132297002378536988e+01 -8.528497421409518608e+00 4.759846048762412352e+01
1.307023678763903085e+01 -4.011761025010920356e+00 4.894128229761177096e+01
1.253324696820644668e+01 -4.935108576254214618e+00 4.879278345771336234e+01
1.126603457083438364e+01 -7.899630468281933382e+00 4.804019979229000370e+01
1.185739900913633527e+01 -5.952395874255798525e+00 4.858263796634081899e+01
1.352034927974499823e+01 -3.035766797991751087e+00 4.904266868883193808e+01
1.479352054363994284e+01 -1.585692785079815259e+00 4.881613369108035272e+01
1.558303626313779944e+01 -7.637190841652350404e-01 4.857343526137812972e+01
1.622863999419881864e+01 -5.013388626814523352e-01 4.822145029924146797e+01
1.073478717844246511e+01 -1.067088554862801075e+01 4.447092242720654554e+01
1.093409295569048822e+01 -1.027134747587389718e+01 4.532158840109790532e+01
1.102522845570471333e+01 -1.136870373176633109e+01 4.277071142012219696e+01
1.563441389497565837e+01 -1.149218106568868336e+01 3.374844251923521909e+01
1.793543435320503221e+01 -7.170803945068077390e+00 3.153153263437630471e+01
1.833469127520376318e+01 -4.874747320070880185e+00 3.159570308356094159e+01
1.858068418888291973e+01 -4.165005762733775541e+00 3.183281214621011301e+01
1.171479199926620751e+01 -1.213172987330748853e+01 4.021296061486619067e+01
1.169109177352729745e+01 -1.194914115516482944e+01 4.102498778145348268e+01
1.222203154209747744e+01 -1.220646283848741298e+01 3.982388086321798681e+01
1.293576288736336721e+01 -1.240160904051487734e+01 3.809954713434171225e+01
1.748298313732923503e+01 -8.358692791554355850e+00 3.146879018730187383e+01
1.762243273860702431e+01 -8.096511716269509051e+00 3.146677347630575383e+01
1.718745686766006031e+01 -9.314069952547736619e+00 3.177526815012143402e+01
1.713445499337843003e+01 -9.549394165792170597e+00 3.194254301056857770e+01
1.123313662742305929e+01 -7.184519416040925144e+00 4.829575699356968954e+01
1.188905912681084587e+01 -4.950683182246747194e+00 4.893954707496990153e+01
1.487148670462437927e+01 -9.285236719038164610e-01 4.889657607124314609e+01
1.098840275993379478e+01 -1.109979167664766209e+01 4.344680095219364802e+01
1.058219960715874741e+01 -1.009166153705798052e+01 4.567252384199021265e+01
1.086110866151191701e+01 -1.094768861378392621e+01 4.388438378087283098e+01
1.041995646040374268e+01 -1.124008549882952046e+01 4.302714978743288299e+01
1.424628952099096857e+01 -1.231537318415163718e+01 3.593061443954642442e+01
1.514699751382023507e+01 -1.176767528408148422e+01 3.405017354690413356e+01
1.468924315740667197e+01 -1.208371940715049320e+01 3.476030036689362390e+01
1.537367983282119965e+01 -1.138195144418444649e+01 3.317619681422404909e+01
1.758211695712771316e+01 -7.570997560722340758e+00 3.126371165254153439e+01
1.789518946690075296e+01 -6.645029181501248772e+00 3.132853739941691629e+01
1.306951167632483823e+01 -1.243384253436597398e+01 3.703906270461668271e+01
1.357708753837792237e+01 -1.242673250669177953e+01 3.638792684470920591e+01
1.116672219028653146e+01 -1.185194242547349930e+01 4.140360436880824579e+01
1.174312961509033215e+01 -1.231420418672587580e+01 3.940488794140031104e+01
1.052283224273424089e+01 -9.135894225281367298e+00 4.720729179765267247e+01
1.236985772170717190e+01 -4.378106722163781050e+00 4.899700314493029651e+01
1.120029208669699372e+01 -6.468496575168415141e+00 4.855091674723734485e+01
1.296194241062566199e+01 -3.103020700636942131e+00 4.923680431823571269e+01
1.239010132639329775e+01 -3.724803941970636689e+00 4.918660869287342052e+01
1.391998475349660680e+01 -2.366643726387671620e+00 4.903709775904502521e+01
1.431905112589210383e+01 -1.695428419694132716e+00 4.903164624470878152e+01
1.601647853501293639e+01 5.797671026657632426e-02 4.873106996509151401e+01
1.073315725789849928e+01 -9.381382988929718891e+00 4.678800103262631893e+01
1.016483831237586877e+01 -1.093585207293408779e+01 4.390232421836375210e+01
1.067469284371577487e+01 -1.149013185173944684e+01 4.242365295963984551e+01
1.671916636550643531e+01 -9.948924948700062387e+00 3.206333214170883394e+01
1.585069196257578561e+01 -1.086254864291828781e+01 3.260140258598723761e+01
1.445313390392673014e+01 -1.219657293366919326e+01 3.512728870288706418e+01
1.557394170734115235e+01 -1.121450433476762498e+01 3.299427559675810073e+01
1.092946198172936967e+01 -1.174002752428560825e+01 4.182013370426447096e+01
1.249124398383438894e+01 -1.243655075411009925e+01 3.770451257590527661e+01
1.065215283241253985e+01 -8.197914353871034621e+00 4.785734998306065080e+01
1.046021358469868012e+01 -7.856508262898294959e+00 4.811016096337350234e+01
1.122352887308296765e+01 -5.717718262428800102e+00 4.881847118271573294e+01
1.336174191659530486e+01 -2.433967130478237095e+00 4.923092695245957628e+01
1.415988194789081867e+01 -1.093393026860554951e+00 4.921974014742374237e+01
1.543423876605108092e+01 -1.384476644020720959e-01 4.906703431886391087e+01
1.041658239478473114e+01 -6.903286320295365819e+00 4.845082899544206612e+01
1.039378855614022790e+01 -1.043143935226490449e+01 4.497591188226943615e+01
9.852812022301817407e+00 -1.059175649838702427e+01 4.462979704286442484e+01
1.623739879545307474e+01 -1.028130041618571511e+01 3.203124441066943007e+01
1.429913019445889155e+01 -1.203242009549715164e+01 3.416174336832399661e+01
1.743294696833223512e+01 -6.882637690586087764e+00 3.089179655792074541e+01
1.103340955137771395e+01 -1.210597436372205493e+01 4.025641636783771560e+01
1.066562720816071597e+01 -1.193747186540253935e+01 4.096956439757050816e+01
1.019096331082845452e+01 -1.171356071583333147e+01 4.180287757965457018e+01
1.169715503327643980e+01 -1.237827834072586519e+01 3.857476761164884493e+01
1.233586637869813529e+01 -1.247013939587672127e+01 3.697675423522454707e+01
1.003856776500707326e+01 -8.495993551508448149e+00 4.767456547774833808e+01
1.722879839462016704e+01 -7.971176476079551598e+00 3.099589332973097555e+01
1.664727709678679801e+01 -9.603141671120487999e+00 3.153914635646585651e+01
1.181781105535162801e+01 -4.345445319183921740e+00 4.913647709219521431e+01
1.376131277175896273e+01 -1.763573937054502050e+00 4.922532980164527316e+01
1.472250242932886444e+01 -3.031701017072192528e-01 4.939018432738954090e+01
1.045118129075313718e+01 -6.396371647754465428e+00 4.863462906751208692e+01
1.008709691627393568e+01 -9.604848028248825997e+00 4.641995799798772282e+01
9.553902062058417854e+00 -1.112356340315044356e+01 4.334435715755536478e+01
9.851630332615229690e+00 -1.138036290924544680e+01 4.260758784806089494e+01
1.347432457543242990e+01 -1.237833404924686675e+01 3.546262966624319546e+01
1.607275829968279623e+01 -1.047631919477162477e+01 3.218293459741087048e+01
1.464271280965972899e+01 -1.179530990317003081e+01 3.362921916829424163e+01
1.395553984839127892e+01 -1.226952753996610745e+01 3.469449041185518468e+01
1.511305000737901061e+01 -1.127176595139854420e+01 3.260423451608813394e+01
1.723646133166401384e+01 -7.425403911463292594e+00 3.083951701183399052e+01
1.309724232075766537e+01 -1.245948753132265630e+01 3.600008035083894953e+01
1.121557574247344924e+01 -1.235019262058227696e+01 3.894911152349905592e+01
1.675337015440128141e+01 -9.132604884074908114e+00 3.120480467169304717e+01
1.124684700505478752e+01 -4.966258336366944803e+00 4.908630885524765119e+01
1.288988642593480627e+01 -2.459213486697308326e+00 4.942151681026224708e+01
1.212200894585967426e+01 -3.069244291909958733e+00 4.947046393824939514e+01
1.183010162668674070e+01 -3.702290733820110535e+00 4.934229123120775284e+01
1.586514247892911378e+01 6.830798445733347046e-01 4.922505837774147608e+01
9.688554093470258977e+00 -1.007195749627553738e+01 4.567789942884250820e+01
9.667310286209724879e+00 -9.114122201669035306e+00 4.725803954381611049e+01
9.467993631410964284e+00 -1.092400911586547174e+01 4.392027178175558078e+01
9.653503559570348003e+00 -1.032925756730999822e+01 4.515458758046518994e+01
1.410096541275279058e+01 -1.229245746693506547e+01 3.531337996756150943e+01
1.480069137620077235e+01 -1.154256618913007948e+01 3.306589124853129391e+01
1.096895719146725234e+01 -1.230559826917787269e+01 3.936069361993568805e+01
1.016418269535909857e+01 -1.202306022880681269e+01 4.053521760818000530e+01
1.046792748997880551e+01 -1.216661268185696088e+01 3.992666925649535870e+01
1.164993343110798385e+01 -1.244235192004118851e+01 3.774462024299380403e+01
1.204671429443194519e+01 -1.247148945384684282e+01 3.730947689753056551e+01
1.048175328679541352e+01 -5.394023565231895745e+00 4.899163106387025124e+01
1.345219648685833924e+01 -1.132304022269923216e+00 4.950545924442503321e+01
1.410304702113019282e+01 -4.137808737194724196e-01 4.969760804478251970e+01
1.281732553693363030e+01 -1.814867032549827286e+00 4.960649421188628594e+01
1.528255887315603623e+01 4.867064317258508188e-01 4.956188665898182677e+01
9.632140478321984389e+00 -7.336670541909701804e+00 4.835059607272486915e+01
9.701966817197002158e+00 -6.324035451082953507e+00 4.871835356854895593e+01
9.424922432117927684e+00 -8.794082073650818288e+00 4.749174492627654587e+01
9.312557830936116332e+00 -1.075189007079207038e+01 4.428413567250587590e+01
1.542160774102153020e+01 -1.086007462533793166e+01 3.222113571448021929e+01
1.555721936726727961e+01 -1.049913681217223704e+01 3.176698955663847457e+01
1.588687728502667618e+01 -1.010910528167453926e+01 3.146396777770644348e+01
1.413859678459715674e+01 -1.182292866944944265e+01 3.320841638688764874e+01
1.374933115335158362e+01 -1.217164294963275850e+01 3.411234450380077732e+01
9.980503238309244907e+00 -1.184942282810855652e+01 4.121273528962838384e+01
9.283257593310073830e+00 -1.152049403468980415e+01 4.218797470646996572e+01
9.264944673872266279e+00 -1.129796567668107521e+01 4.283228279033658481e+01
1.068798716117195902e+01 -1.238617971463112610e+01 3.849333049614474334e+01
1.210989877591310382e+01 -1.249933466869899767e+01 3.626335197329533599e+01
1.616002736642125726e+01 -9.656894189833877817e+00 3.113569295350821520e+01
1.125727424361877915e+01 -4.322982871821982265e+00 4.929215783442749199e+01
1.236260166036137775e+01 -2.337833446186934783e+00 4.959397924759997522e+01
1.466282887845290261e+01 3.763337907776955760e-01 4.986978727552631341e+01
9.653850625369917893e+00 -7.813304810888825891e+00 4.818016674251281728e+01
9.440753526359850767e+00 -9.828443106831304732e+00 4.605174364811966115e+01
8.771883933378965992e+00 -1.091217791598352171e+01 4.393819655742666441e+01
8.793994309915330376e+00 -1.005223268206654197e+01 4.568328431364551534e+01
8.782938666691068264e+00 -1.048216945518979237e+01 4.481079569095735593e+01
1.261739198516672111e+01 -1.249223767986337030e+01 3.561223030878804252e+01
1.341120156489014192e+01 -1.227716341801416178e+01 3.424153600011898391e+01
1.445212078255402943e+01 -1.147397522326525632e+01 3.252523499987413658e+01
1.160217777806509432e+01 -1.250642535583388515e+01 3.691444225021969316e+01
9.452442814323120501e+00 -1.168708693411434574e+01 4.178559409721324158e+01
1.019936715752128542e+01 -1.229698802038414662e+01 3.931680640623827117e+01
9.662810055873080728e+00 -1.210863580177590926e+01 4.010092856427061747e+01
1.058579264716665236e+01 -4.884878107529068814e+00 4.919475658106025406e+01
9.716183071079399269e+00 -5.822096260058532202e+00 4.889684982798745949e+01
1.126998523528693497e+01 -3.679774131658351433e+00 4.949797325496002998e+01
1.339488263223343978e+01 -4.526752991302668838e-01 4.998428527364907836e+01
1.274450758805850370e+01 -1.171248710814678073e+00 4.979117710039986378e+01
1.225821467695844191e+01 -1.792445143993805168e+00 4.976199006140451786e+01
9.442867721973790651e+00 -8.280848697655533996e+00 4.785694507538119780e+01
8.802507590708726681e+00 -9.572261709292016363e+00 4.649601783003762989e+01
8.811030451531603802e+00 -9.092306827077070608e+00 4.730883459045623596e+01
8.752859749003865986e+00 -1.116174837501686490e+01 4.321467145374636232e+01
1.284316756874167531e+01 -1.243157872266739083e+01 3.510700281614120399e+01
1.483786083516651466e+01 -1.109561269434906450e+01 3.208316587206774528e+01
1.504243393185018007e+01 -1.052191114389293247e+01 3.135165453071682506e+01
1.354315331871165462e+01 -1.207377189007287122e+01 3.353041772875973692e+01
1.326076255333891041e+01 -1.234981330709403125e+01 3.463309262707578995e+01
1.456207815352954071e+01 -1.125666868992680314e+01 3.215254374459740916e+01
9.445199267599036830e+00 -1.186596943968818252e+01 4.105439910722198249e+01
1.088255306288330182e+01 -1.246429929344568599e+01 3.747602265410916544e+01
1.128187201007541951e+01 -3.035468739884251477e+00 4.970412690789434151e+01
1.059544967705458873e+01 -4.241327859870304806e+00 4.940068729395542135e+01
1.177034909220815884e+01 -2.414152222141944470e+00 4.973305152163111131e+01
1.404276349728280948e+01 2.659014482919064282e-01 5.017779292751934861e+01
8.846935478239760897e+00 -7.770015397825109638e+00 4.825022236774265849e+01
8.899360251498405816e+00 -7.011196507031861813e+00 4.852621185449180530e+01
8.828973897744324617e+00 -8.431285350175976134e+00 4.777943883969263794e+01
1.363487102431488474e+01 -1.185052198717371397e+01 3.278795442799562210e+01
8.714830881122061612e+00 -1.166063954758160648e+01 4.176831308660688080e+01
8.733839323376709984e+00 -1.141127032028419563e+01 4.249127579946139122e+01
9.429651115629289038e+00 -1.228837054572418630e+01 3.927470486732235599e+01
1.016035772146924288e+01 -1.242216498812721959e+01 3.803755292517961095e+01
1.213754092192047551e+01 -1.252498331295057987e+01 3.522438091288655926e+01
9.925128323087879068e+00 -4.803546077833529715e+00 4.930314121705277586e+01
8.951817251664342834e+00 -6.251435147083918231e+00 4.880218355116166151e+01
1.060667267775561484e+01 -3.597780566395026636e+00 4.960660590063541520e+01
1.203503729408162570e+01 -1.076740663573140244e+00 5.002704128640134940e+01
1.275800961657746768e+01 -4.547891320223581557e-01 5.025600999581910600e+01
8.181387612229887196e+00 -1.100740159466901780e+01 4.346673816212855002e+01
7.976914658912511946e+00 -1.056603725801754479e+01 4.447146863543888173e+01
8.229346289742691667e+00 -1.017701935939271252e+01 4.531204544958901437e+01
1.456256887740192418e+01 -1.091939309486796894e+01 3.156191724854489777e+01
1.256646586240917607e+01 -1.243003581824792469e+01 3.457178043235179388e+01
1.286663611776813454e+01 -1.228479459480084302e+01 3.378842640976211698e+01
1.379171264745806802e+01 -1.167600664171124869e+01 3.244631208539339440e+01
1.149621380919986180e+01 -1.252743496794030875e+01 3.629801668439955620e+01
9.108092855894117434e+00 -5.485788383687576264e+00 4.910692390464736690e+01
1.340514167627457986e+01 2.640545903609913259e-01 5.044974454844083311e+01
8.127576967965511656e+00 -9.610647910384066961e+00 4.631213906137996617e+01
8.133756917543005116e+00 -9.250713098708274629e+00 4.692156048313504613e+01
8.071160953858887765e+00 -1.085291168497156811e+01 4.391050437900669579e+01
8.201014974667106827e+00 -1.123277538752775229e+01 4.282569862882464662e+01
8.121403944821402376e+00 -9.970629263332945413e+00 4.570272257374622882e+01
1.333707656204295411e+01 -1.197594998380455600e+01 3.294888026001085990e+01
1.401051002635744425e+01 -1.124154562969678572e+01 3.170037138582730307e+01
1.103389658212372915e+01 -1.252875504946591434e+01 3.644489448072655335e+01
1.084699450132022669e+01 -1.251235571225465293e+01 3.685339599596946414e+01
8.696624623445165625e+00 -1.186696427197399828e+01 4.092331747736097469e+01
9.161306842550990481e+00 -1.219423284382878769e+01 3.966652339623149714e+01
7.900515664613315892e+00 -1.138501100604169913e+01 4.228756945276730761e+01
9.632679882233963653e+00 -1.245814889238363143e+01 3.758177455080804918e+01
9.408950533482247636e+00 -1.235096093178072429e+01 3.863281524107139830e+01
1.139015321849262996e+01 -1.254844435181490248e+01 3.568158414878686102e+01
9.935232758149727061e+00 -4.159551391378830232e+00 4.950915836739564924e+01
1.129725682479266879e+01 -2.350608260186105358e+00 4.989055282984223538e+01
1.071203067379984120e+01 -2.922140376168311793e+00 4.982346263285600685e+01
1.131180734483787376e+01 -1.665493482533472180e+00 5.007704877962834900e+01
1.204799051153374734e+01 -3.603906749445098812e-01 5.049235780112177707e+01
1.276824651300950819e+01 2.621943914353157545e-01 5.072163228746929775e+01
8.048457514306067040e+00 -7.606192583656985029e+00 4.830449682102111808e+01
8.117923425354920397e+00 -6.594559112266582979e+00 4.867246908834390950e+01
8.154695581094099310e+00 -8.965826437509727853e+00 4.732552991108633478e+01
7.590347598308904153e+00 -1.110271472615257693e+01 4.299483139297296219e+01
1.313098245985337797e+01 -1.187811924320828005e+01 3.236736647350489449e+01
1.272674712688945142e+01 -1.208526860864933639e+01 3.285147324317287598e+01
8.678430461078013636e+00 -1.207335449073004519e+01 4.007798434638377927e+01
7.990505664069012859e+00 -1.159266174883875422e+01 4.172101937359635571e+01
1.003650586681826162e+01 -3.484302244379772429e+00 4.972597256825611112e+01
9.264380283535404104e+00 -4.722199721573211662e+00 4.941154205897296947e+01
8.243830940435577403e+00 -6.093171137792960046e+00 4.888504838169227895e+01
8.181420990579328034e+00 -7.974019843821165132e+00 4.803159247175565838e+01
8.069749444064484578e+00 -8.475648247366237342e+00 4.766355660401529803e+01
7.457471289604827192e+00 -9.408986223111069691e+00 4.653484119259871221e+01
7.371168621681210453e+00 -1.079369483952731557e+01 4.388283995870934717e+01
7.664299874015537029e+00 -1.030180783422533253e+01 4.494053112755517532e+01
7.449323154965184379e+00 -9.888938839539315850e+00 4.572214559767438402e+01
1.209733911296762976e+01 -1.240133257822026991e+01 3.392293327709012374e+01
1.232250079959905165e+01 -1.229241299841333301e+01 3.333570538422559792e+01
1.187215669120018369e+01 -1.251025241461024784e+01 3.451052172020919784e+01
1.009146660665676087e+01 -1.251827985996548342e+01 3.679234381685606792e+01
8.207704811725342608e+00 -1.170504048138644748e+01 4.131719984927706690e+01
8.660267557856721865e+00 -1.227975155196464030e+01 3.923251043648110681e+01
1.072805228783700571e+01 -2.237178836581365626e+00 5.000987122243046912e+01
9.366152823272738459e+00 -4.045849801156901293e+00 4.962865932300144323e+01
8.452387925573747296e+00 -5.072868056398189829e+00 4.929133978365180724e+01
1.132556441154816795e+01 -9.816271616439319336e-01 5.026320574097572091e+01
7.498249407422120427e+00 -8.839306265349968328e+00 4.734222720481451319e+01
7.099898452792018588e+00 -1.042632972271631076e+01 4.456943020363042507e+01
6.732176849536058327e+00 -1.093149834210919380e+01 4.326534593606537982e+01
6.999225161451840371e+00 -1.119804322439620137e+01 4.252284356881718708e+01
1.165768888926062097e+01 -1.255772496571070818e+01 3.483653189166547293e+01
1.046561344430130625e+01 -1.255108094240412342e+01 3.597534287182367763e+01
7.700533878526385934e+00 -1.174944604641842005e+01 4.086603653806526637e+01
7.266069265704931723e+00 -1.152466501418958167e+01 4.167370731292787411e+01
8.632499791725336991e+00 -1.236320468641740966e+01 3.837618925755523946e+01
1.014241939043291296e+01 -2.808901731582985839e+00 4.994270462084405438e+01
8.616429468778306955e+00 -4.514828070054728748e+00 4.949013108472010458e+01
1.214612458117230887e+01 3.974355869662864471e-01 5.094147734102140390e+01
1.074298118139272873e+01 -1.552563194898949783e+00 5.019621281295562909e+01
7.516390717686672218e+00 -8.177842382619857631e+00 4.781310574414492010e+01
7.536243120317835498e+00 -5.934774326474946626e+00 4.896786502337112523e+01
6.671447045974169932e+00 -1.073449264303423867e+01 4.385517922959130743e+01
6.535904750323477508e+00 -1.055076237381761395e+01 4.419858578068216559e+01
1.177767088501522430e+01 -1.230003493446609575e+01 3.288243313250694655e+01
1.168907659948563627e+01 -1.240704931334452965e+01 3.358324188961888979e+01
1.128402031262112182e+01 -1.256945385535629001e+01 3.506513611455692114e+01
9.104934167648909948e+00 -1.249413172518541870e+01 3.712599308848019319e+01
1.117783406896326248e+01 -1.259046319271486958e+01 3.444868186027848367e+01
7.934844136847001295e+00 -1.201271364848184220e+01 3.992565350262201207e+01
9.467822645488412903e+00 -3.370823448793130339e+00 4.984533919802066038e+01
1.015872994656422179e+01 -2.123752028681168635e+00 5.012918854484781406e+01
7.283875620344865354e+00 -6.936744710300636108e+00 4.854268955012774001e+01
1.142391239277182535e+01 -2.249581488858349021e-01 5.071236841951897389e+01
7.249894221097982872e+00 -7.442233884725899529e+00 4.835877504578358099e+01
6.780711764165105571e+00 -9.567186335331065550e+00 4.614784662672172288e+01
6.811449838187948025e+00 -9.140092799052784045e+00 4.675338745150660458e+01
6.723272650341018064e+00 -1.014204582453361958e+01 4.505844388616275609e+01
8.604860589175578056e+00 -1.244666172427238315e+01 3.752282819728857532e+01
9.335244153588368121e+00 -1.252419894918690169e+01 3.673128114063475635e+01
7.193354706870411341e+00 -1.179385222895126972e+01 4.041485867983409008e+01
6.867557672176008765e+00 -1.162526666099520334e+01 4.102063264467528114e+01
1.053774069396740742e+01 -1.258193647986391817e+01 3.497724748642887960e+01
8.133386636044027895e+00 -1.228634773412355763e+01 3.877730186504893339e+01
7.913116280550794635e+00 -1.219163792323413098e+01 3.918961300459447017e+01
8.718078975142567799e+00 -3.839162286040002314e+00 4.970702412345759313e+01
7.640740302339162682e+00 -5.423404794282563834e+00 4.917116018119200760e+01
7.907190031420465282e+00 -4.855254462970102658e+00 4.937292143575756143e+01
1.061431136043541557e+01 -7.623484516921994469e-01 5.044527945177637918e+01
6.958312278595905731e+00 -7.874874634439513521e+00 4.799698951516035805e+01
6.777053666750911809e+00 -9.807100983299424257e+00 4.574157143944086812e+01
5.971593701216987071e+00 -1.067526761498139010e+01 4.382751791465513236e+01
6.418690697523629751e+00 -1.107867977263431847e+01 4.271676725676737618e+01
6.407875313471703471e+00 -1.129341091377697204e+01 4.205065729301604449e+01
1.105563150569693498e+01 -1.252168193304621013e+01 3.383094390046748856e+01
7.384972828185635052e+00 -1.198801724575765704e+01 3.973140146775223513e+01
9.238972739718857241e+00 -1.255175964917498277e+01 3.608802809469675310e+01
9.897334563782999695e+00 -1.257340326521420870e+01 3.550578989896033733e+01
9.571784540700187804e+00 -2.695519306343367116e+00 5.006209493595411431e+01
1.021789509882634484e+01 -1.500338485776451458e+00 5.029902674545988361e+01
7.967943905387530279e+00 -4.307284253275490471e+00 4.956878366039516237e+01
1.152354936899636151e+01 5.327653833568468666e-01 5.116147149449147236e+01
6.851274106769187355e+00 -8.381729969341607855e+00 4.759457827011713249e+01
6.639386182692962990e+00 -6.527350677090485220e+00 4.873185794878835964e+01
6.842200337529082077e+00 -8.712869396637108466e+00 4.735891355180022089e+01
5.920171384051004182e+00 -1.091296551020423600e+01 4.307838461239681038e+01
6.015815601068082330e+00 -1.035849072743987875e+01 4.447223416668447271e+01
6.541766074212366888e+00 -1.145667338621372977e+01 4.162639373920324459e+01
6.144560232785902798e+00 -9.155922516514610976e+00 4.656792995300217086e+01
1.093341252779008776e+01 -1.245289688321077115e+01 3.321286565822904180e+01
8.577417843703543099e+00 -1.253011318155377474e+01 3.667021368190851405e+01
1.043160717818709493e+01 -1.260294536167418400e+01 3.436079865699398539e+01
1.065299193161636992e+01 -1.258753298192660353e+01 3.403623305055585746e+01
6.685881171400591683e+00 -1.183828692574581432e+01 3.996339778600084003e+01
6.471001094037686308e+00 -1.165476414431658014e+01 4.069157908345383134e+01
7.606380365988870906e+00 -1.229294548876027626e+01 3.832197661446043924e+01
8.819795064201917612e+00 -3.163496873757329464e+00 4.992390493254353601e+01
9.683703470185641038e+00 -1.977705488568663350e+00 5.025064303229336815e+01
6.827859137581986815e+00 -5.775964574961002462e+00 4.905077402763276240e+01
6.451072549060678618e+00 -7.278094254358965287e+00 4.841306944053143013e+01
1.071222946980223334e+01 -6.124360307478276047e-03 5.089461674421117010e+01
9.793774190037222382e+00 -1.260099877813292579e+00 5.043913686846930489e+01
6.104258978601935226e+00 -9.725176899116814155e+00 4.576101645924136108e+01
6.060022751132669860e+00 -1.004190882408171603e+01 4.511650338921115377e+01
6.184922931940610269e+00 -8.586054083046079199e+00 4.737562743910793728e+01
7.828001707272287391e+00 -1.241483109415721842e+01 3.726650896256843737e+01
7.165907232125388937e+00 -1.210350532318233263e+01 3.914663896761440043e+01
5.817293750176514955e+00 -1.138865867520506114e+01 4.157906283180420104e+01
9.329049229037950752e+00 -1.259572215710299048e+01 3.503624457129505743e+01
9.032215367728394284e+00 -2.473076646849114102e+00 5.015025245312047986e+01
8.069884328951195229e+00 -3.631654239277430918e+00 4.978565548831249288e+01
7.074019938853561840e+00 -4.936745639591201495e+00 4.934927678883938285e+01
9.145276714149474628e+00 -1.755470127287618309e+00 5.033872436975645570e+01
6.317992382134256069e+00 -7.931966041215539498e+00 4.789439237583396647e+01
5.372588513925612652e+00 -1.071756973618448328e+01 4.335336204335738586e+01
5.868712737327481221e+00 -1.115086617895393140e+01 4.232857095182227170e+01
7.079034337778356445e+00 -1.229954635896865156e+01 3.786636004821979640e+01
8.482598882662770734e+00 -1.255767298063174131e+01 3.602697437936312497e+01
7.319946389437927969e+00 -4.099896795248880288e+00 4.964737559930268418e+01
1.092716499076250969e+01 7.790111692500134577e-01 5.133558323018845471e+01
9.902318398576511527e+00 -5.428430088708365853e-01 5.062753981591069419e+01
9.256093215250887241e+00 -1.037777987946401970e+00 5.052722523578790259e+01
6.097278883129461313e+00 -5.901192269084162056e+00 4.891844220467211812e+01
5.274485941321118254e+00 -1.052752565191207523e+01 4.380976251410579181e+01
5.475731227803173340e+00 -1.011367891932746943e+01 4.471564608178022837e+01
5.363636078730241508e+00 -1.093475006382819181e+01 4.269085948028496347e+01
5.519895918602564677e+00 -9.797013931393845354e+00 4.536000409456190141e+01
5.501685588932373250e+00 -9.103294698317982991e+00 4.640718025195845797e+01
5.604358407272946430e+00 -8.666094493554210132e+00 4.705291897168577009e+01
1.012812309826606594e+01 -1.258459750660384913e+01 3.362328115523744287e+01
9.685326584433450847e+00 -1.261542034397572110e+01 3.427291423457868547e+01
7.807539728430666237e+00 -1.247745712558969977e+01 3.662685721637402736e+01
5.768508195472061395e+00 -1.156824880652811061e+01 4.073914164547115746e+01
6.178582184733412141e+00 -1.188270675304689128e+01 3.951208025881280150e+01
8.386467821395985567e+00 -1.258523290206018785e+01 3.538370945426972725e+01
6.418375072517215507e+00 -1.201532336417025526e+01 3.910358989677320096e+01
6.374943915795071803e+00 -1.211335129745142680e+01 3.846354938650761568e+01
8.282023035844854775e+00 -2.941140431480049777e+00 5.001202964671050211e+01
8.493949239080322400e+00 -2.250787555110134175e+00 5.023834832017796970e+01
6.260269050988232387e+00 -5.519912769992039614e+00 4.909019128192645098e+01
5.815277206752143435e+00 -7.027824145753935881e+00 4.844012975030126711e+01
1.011325653886859754e+01 2.394517663111312977e-01 5.106841814890838549e+01
5.849735411798672402e+00 -7.349843945272174217e+00 4.821511000014587722e+01
5.399022374938195590e+00 -9.540470914456534501e+00 4.576142251651925363e+01
5.674514223787038958e+00 -7.849338266323917068e+00 4.780134049213695135e+01
5.499300043455982667e+00 -8.348616107987108848e+00 4.738752414484054754e+01
7.997246503260586614e+00 -1.253205750131561302e+01 3.619929158216661591e+01
6.551792766115148936e+00 -1.230614600140646608e+01 3.741082255272924328e+01
5.719775526433808821e+00 -1.174764905322713382e+01 3.990007882953779017e+01
5.308924758686368151e+00 -1.140163153825591458e+01 4.113139956864179680e+01
8.760767003526556351e+00 -1.261803844494436788e+01 3.456668917356606130e+01
8.606696902955700779e+00 -1.533233088428112456e+00 5.042680527267623347e+01
7.532152643821389049e+00 -3.409072253535128105e+00 4.987385794197068378e+01
6.629410905369416795e+00 -4.263495913175357366e+00 4.953757091298266602e+01
5.857873491128955834e+00 -6.455479316166266024e+00 4.867172739696934514e+01
9.266275149784949150e+00 -1.923947895877396452e-01 5.076278216961156176e+01
5.011121409294721829e+00 -1.018163577624498473e+01 4.437540814135088851e+01
4.577459504673806023e+00 -1.037978767876857411e+01 4.379200257949609920e+01
5.041904349947638586e+00 -1.105518222068388035e+01 4.214041960298123257e+01
5.107059666644203411e+00 -1.126313728409212267e+01 4.154860460174560188e+01
4.773766143558053621e+00 -1.075986013819403198e+01 4.287933201954565732e+01
5.024226699222190895e+00 -8.746070997873204078e+00 4.673044402834327826e+01
4.693700444727459953e+00 -9.355699521888938719e+00 4.576182841154668068e+01
9.603250054051798656e+00 -1.258165755878484759e+01 3.321046102774412390e+01
8.289657644257395930e+00 -1.261279267540592564e+01 3.474042671016013628e+01
8.768723875526269751e+00 -8.925632385291305537e-01 5.059639009942722510e+01
7.744255086528234244e+00 -2.718784917615024277e+00 5.010015320638326131e+01
6.346182416631106271e+00 -4.884087908959521940e+00 4.930840639316080853e+01
1.033079635186152778e+01 1.025236903571202562e+00 5.150968218980750635e+01
5.693103387422432604e+00 -5.264072063537907020e+00 4.912957219667970321e+01
4.935646274170299108e+00 -9.868838428285464204e+00 4.495905746584606533e+01
4.443188981587391062e+00 -8.826166691446614365e+00 4.640746201428512308e+01
4.814720695786439464e+00 -8.111437084775934281e+00 4.739939444652500811e+01
5.248334570143457611e+00 -7.421640908256802227e+00 4.801712402288208636e+01
7.037733086548740857e+00 -1.242479521757961614e+01 3.658348394936318471e+01
7.417071994800200407e+00 -1.253400030957449296e+01 3.572836490566405132e+01
5.671021490723080483e+00 -1.192715204041753019e+01 3.906050662130684969e+01
4.801068239159532958e+00 -1.141459173639979952e+01 4.068416507830481521e+01
8.938966942668891136e+00 -1.262788897932450993e+01 3.418502253075335062e+01
5.612964685840179158e+00 -1.205788496871734772e+01 3.820689765683214034e+01
7.956488567714012916e+00 -2.028596659465240926e+00 5.032640449296717122e+01
8.182130409336616950e+00 -1.299129794302705143e+00 5.051710446427310330e+01
6.673943161841668470e+00 -3.754537833232415078e+00 4.971018028780221698e+01
5.178608356469632135e+00 -6.777203684726897492e+00 4.846722344383091752e+01
5.366379999075428842e+00 -6.026656695583231027e+00 4.878603902380036317e+01
9.477375826078315413e+00 5.897122034456779849e-01 5.120385837384844763e+01
4.351704336418920960e+00 -9.940624023066613191e+00 4.455831493623481521e+01
4.540981487780632264e+00 -8.433271171099256946e+00 4.691097915928213524e+01
4.431319692504380292e+00 -9.620206976243576236e+00 4.516735221620491103e+01
6.024262742034816931e+00 -1.231274841161011580e+01 3.695502981172379720e+01
4.983959369596110633e+00 -1.165479506639514007e+01 3.975096945588419572e+01
8.192484448573742029e+00 -1.264035193939072776e+01 3.409713136934460209e+01
7.443508452806092635e+00 -1.684002463397116678e+00 5.039357349145171838e+01
8.407272623745859264e+00 -5.706446988662314812e-01 5.070754689086007971e+01
6.886207342902744166e+00 -3.064075140567101396e+00 4.993654347391335335e+01
5.939396683339733585e+00 -4.426984090217389145e+00 4.942784120714828333e+01
3.932987436788650815e+00 -1.046861307568384447e+01 4.316443974480709755e+01
3.880211305645101305e+00 -1.023198592181097055e+01 4.377423891809466028e+01
4.396469807892756876e+00 -1.113754572961723710e+01 4.151812626181210675e+01
4.174718322146382832e+00 -1.080216752940362923e+01 4.240510445110921722e+01
3.988249436380537194e+00 -9.170850704848971802e+00 4.576223419952331994e+01
4.647034441627142520e+00 -7.493184235341042942e+00 4.781916724968677102e+01
8.635537212086729753e+00 -1.260953262344651726e+01 3.344969978890049589e+01
5.554902956405853409e+00 -1.218864638982207360e+01 3.735301325667327177e+01
6.267542954689931278e+00 -1.237209509424977938e+01 3.654039508084230903e+01
7.514278066916753041e+00 -1.258814747096662501e+01 3.467730578131321550e+01
7.669527875016684426e+00 -9.549168399568852550e-01 5.058419752866588226e+01
7.098519829947534276e+00 -2.373612873043132065e+00 5.016289542199380236e+01
6.028175969734854256e+00 -3.409307810739002687e+00 4.977294707785550543e+01
8.629937799392278563e+00 1.582139173385858077e-01 5.089808612094625317e+01
