7.096917365353331064e+00 1.713602739789618923e+01 2.915510672994862418e+01
7.236085732270247206e+00 1.956357286722257882e+01 3.123998452366366863e+01
9.195572929872088963e+00 2.029065062628020399e+01 3.969024486109719874e+01
8.721088327532573459e+00 2.128833311266269490e+01 3.780687410221329259e+01
9.218048997462743088e+00 2.058159415076549692e+01 3.914339847786266091e+01
7.626479848006218809e+00 2.189870393512129709e+01 3.676419393819642067e+01
8.163736798846825238e+00 2.161245789259129069e+01 3.698805348139547533e+01
8.700854760955936129e+00 2.132627062552754893e+01 3.721221754593194930e+01
7.618353953074530338e+00 2.185431557140827863e+01 3.570532376296292654e+01
7.503038732349613049e+00 2.172020840072165981e+01 3.509857422938927840e+01
7.622417356974411362e+00 2.187648552025915549e+01 3.623476236456890121e+01
6.616399645713009647e+00 2.081422618118837065e+01 3.240954666340901724e+01
7.240938859034397268e+00 2.058423700845475679e+01 3.255880097337165324e+01
6.925808446197383894e+00 2.103117509630935800e+01 3.290911437361958747e+01
7.717110019548432120e+00 2.021191594025792782e+01 3.241825699332883914e+01
7.415951790589573100e+00 2.088770183912888712e+01 3.307409327146243783e+01
8.156740729258894262e+00 1.895074659362398961e+01 3.135925744918850810e+01
7.973926159889479948e+00 1.939516215625906881e+01 3.170726314921195410e+01
8.333662084630748978e+00 1.832434274897023840e+01 3.096265685598880779e+01
7.579398049423256900e+00 1.730272543231498616e+01 2.960570921513419052e+01
7.861136605539892130e+00 1.762266453012768253e+01 3.006182606421839765e+01
8.513258889823910991e+00 1.769793820690969355e+01 3.056610253539820476e+01
7.667938764044944122e+00 1.673702765957446559e+01 2.919687679537808833e+01
7.949768708804758610e+00 1.705735672100400180e+01 2.965333225269065665e+01
7.957816356973207661e+00 2.053637960081176672e+01 3.300689215815531696e+01
8.146921620399515618e+00 2.013332801454512122e+01 3.271280527338822708e+01
8.135632890110978011e+00 1.971031052056008903e+01 3.221541644749427036e+01
7.699476758213568139e+00 2.105702358515149797e+01 3.349352597506212703e+01
7.044791616012157753e+00 2.151669299551810255e+01 3.389080974535018953e+01
7.200598325924731036e+00 2.125405320530687803e+01 3.339169794775663291e+01
9.240523060746049566e+00 2.087254346279393857e+01 3.859654768396222124e+01
8.143542146252764624e+00 2.165039111086069923e+01 3.639345435931084438e+01
8.680622031159693108e+00 2.136423377943126312e+01 3.661755985499892319e+01
8.139431662677637291e+00 2.162825588735216442e+01 3.586411306125723542e+01
7.387523620324072837e+00 2.158415714358529769e+01 3.449167004307825835e+01
8.023932193645926247e+00 2.149428416573843137e+01 3.525743894140666157e+01
8.441188800396336234e+00 1.914884859187894861e+01 3.184228769556810335e+01
8.549796187942572345e+00 1.985195885753574174e+01 3.275006648394970910e+01
8.725630934460717469e+00 1.934696056294351152e+01 3.232543059111723238e+01
5.387026587001408906e+00 1.728259213966064323e+01 2.828879316716996684e+01
7.368722472074883179e+00 1.641751630469987333e+01 2.878869425112564784e+01
8.374233079646606015e+00 2.035608922510951757e+01 3.317248979188092051e+01
8.198458598658975305e+00 2.086077507895594607e+01 3.359537646438677427e+01
8.870908256117125745e+00 2.003886221928767597e+01 3.327004455642615000e+01
8.695355496416810936e+00 2.054320132304123447e+01 3.369272669265500753e+01
7.792952947720117152e+00 2.122247597309457134e+01 3.404356811647009096e+01
7.908514543945995179e+00 2.135849439274845096e+01 3.465060768402414482e+01
9.138951487498031767e+00 2.100581590863241743e+01 3.804053144148720378e+01
9.091991434537977312e+00 2.105774756401003600e+01 3.752892831090449732e+01
8.660387520914488491e+00 2.140224920801558994e+01 3.602286617199509067e+01
8.616677188001343524e+00 1.864457157476085314e+01 3.141892553415663514e+01
8.901149606905269351e+00 1.884271070846866181e+01 3.190192639193400836e+01
9.096278440482089778e+00 1.950239821036160137e+01 3.285544520084441444e+01
9.122823503481017227e+00 1.909313182491323957e+01 3.240262401237631451e+01
9.741775067085233886e+00 1.908992912579374845e+01 3.298092576878094917e+01
9.466920214655043964e+00 1.965785783582358448e+01 3.338546608664807991e+01
9.519995313780484025e+00 1.883931192415885292e+01 3.247995281860553973e+01
1.002866614974602477e+01 1.848774107836158365e+01 3.267656772765340634e+01
9.298278689129755747e+00 1.858880868351040760e+01 3.197921742747745455e+01
9.728651230631141900e+00 1.842809557669105658e+01 3.228616636588508015e+01
9.076575331916803435e+00 1.833838209168697730e+01 3.147863961855887283e+01
8.794915078330410196e+00 1.801817429815281457e+01 3.102239537123659829e+01
9.654476669995679217e+00 1.817943439720746923e+01 3.194804616748157500e+01
8.429506131160522386e+00 2.113283451915029687e+01 3.480955227348210457e+01
8.313995659424374907e+00 2.099678472663244122e+01 3.420253088680167508e+01
9.192018188944786061e+00 2.022578586310134341e+01 3.379002494922018229e+01
9.688495758290596171e+00 1.990849692327661558e+01 3.388653756162646857e+01
9.963372581506112269e+00 1.934037262687154168e+01 3.348156757614918888e+01
8.982773283239360751e+00 2.061131456729165379e+01 3.445024872391216064e+01
9.638193606035482475e+00 2.062791744204149325e+01 3.823559801562173988e+01
9.536530304450637985e+00 2.076126826025701533e+01 3.767958074232438292e+01
9.357013887565432952e+00 2.090997087701699897e+01 3.692258296821666619e+01
9.739854462105570931e+00 2.049457796753784322e+01 3.879161923606231710e+01
8.544938378791895772e+00 2.126823435341790258e+01 3.541616414435831928e+01
1.030262343677212833e+01 1.910614460133573900e+01 3.361282275116806773e+01
1.011429572063397408e+01 1.799655685649202752e+01 3.226302558907705986e+01
9.444644281188466550e+00 2.021943477614652451e+01 3.427140048197161804e+01
8.839743370286115010e+00 2.094263803843780281e+01 3.509020603751858403e+01
9.177494854913213373e+00 2.105872784261563524e+01 3.616558251716201511e+01
8.965354772071743028e+00 2.104042219038906580e+01 3.561523840180738887e+01
9.947174854077305284e+00 2.044902996891146785e+01 3.785288947693099715e+01
9.695091378460022113e+00 2.071488090253804160e+01 3.630843071874834749e+01
9.883724223120385233e+00 2.057137067916581685e+01 3.679676617415697848e+01
9.934999613013211217e+00 2.051619086929040137e+01 3.731781571711510992e+01
9.482642440120129024e+00 2.069679981356963339e+01 3.575809833313685004e+01
1.018518025138474492e+01 1.959107961926092045e+01 3.398276026041262554e+01
9.270191311384902377e+00 2.067878109964547306e+01 3.520776789173741861e+01
9.575162822311112265e+00 2.031675151267180013e+01 3.480010549641953332e+01
9.696304835688623669e+00 2.039928320358965408e+01 3.533649745539526066e+01
9.880197222175841176e+00 1.995389022048376049e+01 3.439233094981472050e+01
1.032176991521265919e+01 1.970125710030302102e+01 3.463627988208082087e+01
1.001678053553837877e+01 2.006330264778224759e+01 3.504471389158860717e+01
1.033526503835411425e+01 2.019917172214370993e+01 3.760271240716226515e+01
1.033321534168205602e+01 2.027128883187531017e+01 3.695627670352527616e+01
1.002249541108313835e+01 2.028178546062743948e+01 3.573297809169343253e+01
1.045839315962055416e+01 1.980962390033352349e+01 3.528931899858153542e+01
1.073552878263055277e+01 1.988215405669314961e+01 3.788760783810768373e+01
1.073360413584381945e+01 1.995422259641451035e+01 3.724074492993928231e+01
1.021309035079474725e+01 2.037076515958287004e+01 3.645138617858731322e+01
1.059513730123168607e+01 1.991798906637051658e+01 3.594238078637008726e+01
1.098390172024749489e+01 1.915684683167832958e+01 3.488417426169367985e+01
1.086963593686431295e+01 1.952213674389152587e+01 3.558243631368477367e+01
1.073167872994156724e+01 2.002625626718883467e+01 3.659450170354997312e+01
1.101278034858193244e+01 1.959155290313289299e+01 3.614605953022672935e+01
-3.949901240681658710e+00 1.813519947996666204e+01 4.290605235661685413e+01
-3.376062845158206649e+00 1.821829390032127094e+01 4.323732990315746605e+01
-3.289365080766032623e+00 1.826104543398094293e+01 4.325148263119286440e+01
-3.349253666005037822e+00 1.850570373313649242e+01 4.293998436147225561e+01
-4.854723220688355489e+00 1.825502859943549794e+01 4.224952635811674639e+01
-4.543602834444393501e+00 1.817904966929508959e+01 4.250511273482901942e+01
-4.248808665002623997e+00 1.814344167019861942e+01 4.271464411130298799e+01
-3.544723858790423954e+00 1.851045846038473641e+01 4.279681935076950339e+01
-2.990769311755733906e+00 1.832256838294853551e+01 4.343841896269672986e+01
-2.888904824972714280e+00 1.837077427386933692e+01 4.347489186701921682e+01
-3.145410800240878935e+00 1.860207501317404066e+01 4.301276367258520850e+01
-5.136314593420180152e+00 1.835678172700010791e+01 4.200239165524454421e+01
-4.142421636406556473e+00 1.852662956227067070e+01 4.241408668289000161e+01
-4.764362631841253304e+00 1.867875459907338254e+01 4.190280122596701773e+01
-5.371371089212086503e+00 1.853370235954905354e+01 4.171994829644486913e+01
-2.583703373300053396e+00 1.852084315315833862e+01 4.355953013887585001e+01
-3.204797410659129042e+00 1.901853464996645116e+01 4.251907339376883499e+01
-5.181657727737973396e+00 1.910928080525562578e+01 4.127998218051636314e+01
-5.579657545743646807e+00 1.874899334889060398e+01 4.140872103626269762e+01
-4.252810757711187328e+00 1.912162721653880126e+01 4.176600002690985036e+01
-5.727896650045606108e+00 1.899171639424998403e+01 4.110451133268904300e+01
-3.288829483839647239e+00 1.899916583004552351e+01 4.247369318053019072e+01
-2.556618923012732747e+00 1.868040983313998993e+01 4.339034264202155811e+01
-3.102868615908588978e+00 1.906660516756321755e+01 4.255568876186364236e+01
-1.967034620997757832e+00 1.875884620916939483e+01 4.376620834735385301e+01
-3.685628610590804488e+00 1.900957585553288709e+01 4.221032944824901278e+01
-3.386597549777061733e+00 1.900156775061337910e+01 4.240198933967696604e+01
-3.060285659368209732e+00 1.953156716981131780e+01 4.209829346384307769e+01
-3.228356128648205203e+00 1.949303197677313904e+01 4.200712206924311687e+01
-1.949746378317354534e+00 1.897791186446217893e+01 4.353302546508959381e+01
-1.858065238247190498e+00 1.924327024030023026e+01 4.333890844967188372e+01
-2.557227082845190846e+00 1.879866987270726142e+01 4.329619465199214545e+01
-3.942100579987878106e+00 1.904547719311700860e+01 4.202171088326446124e+01
-4.461608386696787498e+00 1.933665494366014670e+01 4.145468215631960618e+01
-2.808852384589286100e+00 1.916525893329522745e+01 4.269717574323207998e+01
-1.967406296218408901e+00 1.881795472791165480e+01 4.371909931150098316e+01
-2.537720754727457173e+00 1.930015738177608853e+01 4.276556340383800858e+01
-3.741940592115931441e+00 1.956391181341032137e+01 4.162982142232566929e+01
-1.342196900600321596e+00 1.915717032377751039e+01 4.376985886167020112e+01
-2.188247075948710485e+00 1.952248777466244789e+01 4.278680975605328030e+01
-1.464400080057729037e+00 1.976038555204899438e+01 4.297012429604254180e+01
-1.326666601480471552e+00 1.957351131356952578e+01 4.329273363500974625e+01
-5.816028866269080666e+00 1.927439397291869483e+01 4.079218467327974906e+01
-4.586795008923219896e+00 1.954616121803532636e+01 4.119203673450547143e+01
-2.998327886040406565e+00 2.020760926640433652e+01 4.143221814841250961e+01
-3.370083451122601659e+00 1.988580354327152122e+01 4.153122271070643023e+01
-1.296566730657575661e+00 1.928977764191880340e+01 4.367272335244086179e+01
-1.292740777107830530e+00 1.947036921832899381e+01 4.345108073266700899e+01
-3.991664979964281823e+00 1.998323850277553149e+01 4.110456760666506426e+01
-5.357616108419199996e+00 1.967473293644052035e+01 4.065542812204832757e+01
-4.674202492658502628e+00 1.982908433305574292e+01 4.087992007418489493e+01
-2.518220739418416176e+00 1.980153096703147142e+01 4.223505147006949301e+01
-2.758327358919498096e+00 2.000461532529568487e+01 4.183354739473257666e+01
-1.794227734720168055e+00 2.003965434338326546e+01 4.241820311810585054e+01
-7.946947639099232186e-01 1.990410703127884773e+01 4.324649631460843580e+01
-3.494970422415001554e+00 2.009542915000607621e+01 4.126860424017528572e+01
-5.853941685417251684e+00 1.956262454874826062e+01 4.049253840589317832e+01
-4.560602566833789062e+00 2.014533373982448339e+01 4.061943252733554033e+01
-2.247239577595149917e+00 2.023829167578044519e+01 4.187831552426393245e+01
-7.269013132941701816e-01 1.969767496917138416e+01 4.356333804529580078e+01
-4.410920852750773946e+00 2.040799688071734863e+01 4.042894468306997879e+01
-3.345489073897127685e+00 2.035821693243642017e+01 4.107850579237299371e+01
-3.692325957170668360e+00 2.050868406453663795e+01 4.072426710354936574e+01
-5.778482994087837277e+00 1.986950839206479813e+01 4.022373936965111341e+01
-5.129250154221141500e+00 2.030734769885033586e+01 4.013467961230947623e+01
-5.664189227726764031e+00 2.018584916668960716e+01 3.996331194149634314e+01
-1.070620654280655781e+00 2.027765180482654728e+01 4.260122459496401603e+01
-1.523446322605819025e+00 2.047647747348042557e+01 4.206124791698012189e+01
-2.487069905104808853e+00 2.044150290019415905e+01 4.147683997803624578e+01
-3.042090501194534280e+00 2.053876999896669631e+01 4.104223489972672212e+01
-3.085825267596496779e+00 2.086972040747600587e+01 4.065249798095087641e+01
-5.488961441572611122e+00 2.048790834078198486e+01 3.974552411773441207e+01
-8.204818272370235643e-01 2.079825157497839427e+01 4.212238805025062760e+01
-1.976141176470588290e+00 2.067524578619445563e+01 4.152141628352489988e+01
-4.009125888154673190e-01 2.042135314363662602e+01 4.287760988614260071e+01
-2.626959744563184262e-01 2.023472146651905490e+01 4.320024078806903134e+01
-2.699921425032450806e+00 2.058738923639002394e+01 4.117501111359646160e+01
-4.169234338390806371e+00 2.071558815607786386e+01 4.023720147119043133e+01
-5.247978416955520586e+00 2.079564371498746667e+01 3.955258624037051618e+01
-4.646669317275482491e+00 2.092272351355903481e+01 3.974974805861894822e+01
-5.520994148142851499e-01 2.058609494423635056e+01 4.256204388962917307e+01
-1.272879460393739226e+00 2.099701346889595044e+01 4.158277618531946729e+01
-3.748503588801491482e+00 2.088371284930016003e+01 4.028619463703093828e+01
-3.344084166870438857e+00 2.112432434176360729e+01 4.023790848077368310e+01
-3.146017524774165519e+00 2.132494952066540250e+01 4.011637163755536761e+01
-2.402029942787990979e+00 2.096651513779492859e+01 4.091823856153779104e+01
-2.726696668746015018e+00 2.143063233049200633e+01 4.022416592146890935e+01
-4.253735408390773465e+00 2.127828435771852966e+01 3.958019930410988252e+01
-3.804665700498320646e+00 2.125863798073664768e+01 3.984738723813180172e+01
-4.993515125158926260e+00 2.107320178414038025e+01 3.939560784350861411e+01
-3.290411069921866938e-02 2.089494011343774460e+01 4.252279914543485262e+01
-5.705923385898282740e-01 2.131833703979147643e+01 4.164402309237288335e+01
-1.615443412469532047e+00 2.105305318486704991e+01 4.130127137281133543e+01
-1.899795854598785194e+00 2.124693648491139442e+01 4.089924301858073363e+01
-3.602481783411247473e+00 2.137906637234396712e+01 3.982309566597047024e+01
-2.384695012287100013e+00 2.147922741280875769e+01 4.035686823433693604e+01
-1.992018274778682985e+00 2.148838679357266557e+01 4.056473654108223315e+01
-3.860861783246376078e+00 2.163379333682630445e+01 3.940830945018249309e+01
-4.685191578026692838e+00 2.131541532045828191e+01 3.929856898732020198e+01
-1.255011543445473388e+00 2.143058373040618392e+01 4.108127929767505293e+01
-3.206198358549349425e+00 2.178009327774695336e+01 3.958034453561469945e+01
-2.367362311863590474e+00 2.199187065792586893e+01 3.979557117924462517e+01
-4.292542992624500897e+00 2.167096368267322148e+01 3.912772730185049852e+01
-4.287318718700840192e-02 2.126103204647473177e+01 4.206334811368358118e+01
-7.324471091578872439e-01 2.156323594846766767e+01 4.125272670750293713e+01
-1.397522554658995775e+00 2.152738124909907924e+01 4.088023062952246534e+01
-1.582195653682423986e+00 2.201001572416264551e+01 4.021138843762381754e+01
-3.619938983734699800e+00 2.194781960888941441e+01 3.917311116975234597e+01
-3.249921894582175064e+00 2.211094700763763399e+01 3.919070371042009526e+01
-2.862358145749186455e+00 2.222578662906952118e+01 3.927003330447652729e+01
-1.238505124777484090e+00 2.190921681007829847e+01 4.053608873233805099e+01
-5.952606145880909305e-02 2.155217249296792659e+01 4.168853921254460460e+01
-8.944080281124670018e-01 2.180829705760196902e+01 4.086117227946144936e+01
-2.006975622312222873e-01 2.179109452428845728e+01 4.131031808341229805e+01
-2.050866586980412354e+00 2.239030368273002480e+01 3.952524012920274288e+01
-2.442694266169930462e+00 2.233191220484095396e+01 3.937751213027135577e+01
-1.658439724226256073e+00 2.239929385847186438e+01 3.973315139555368347e+01
-9.559527081333930587e-01 2.230284585063885672e+01 4.024590070028352073e+01
-3.626978741987359478e-01 2.203593944976864805e+01 4.091899996744245271e+01
-1.284210434999810246e+00 2.238927990213076313e+01 3.995450753680478329e+01
-6.119127844027596463e-01 2.220209273517557236e+01 4.057074990836400730e+01
2.108431866751473294e+01 -7.294450495767030418e+00 4.055100806281343750e+01
2.103978535438782416e+01 -7.529526874875670295e+00 4.158794285031047622e+01
2.076475297673534115e+01 -7.793778055025935458e+00 4.062011593487613226e+01
2.127259761474852340e+01 -7.092075026089093903e+00 4.108078851181370084e+01
2.073489590260351179e+01 -7.950774448637256242e+00 4.131152597703012930e+01
2.074463004642230857e+01 -7.662121947225966068e+00 4.021254495661303707e+01
2.077203620923601690e+01 -7.431484566145640791e+00 3.991902447458975445e+01
2.134470555344092801e+01 -7.108476728170063375e+00 4.186435779206222918e+01
2.044469688936627350e+01 -8.293892068908297333e+00 4.068931189879408805e+01
2.077319526129521066e+01 -7.909067417068622596e+00 4.184490885983237973e+01
2.040476329642544684e+01 -8.029994189975425911e+00 3.987387032540084419e+01
2.089305480488801692e+01 -6.909350720548370184e+00 3.982150543520135955e+01
2.042973172453170960e+01 -8.372417519374494077e+00 4.103482523567208062e+01
2.127637755310698608e+01 -7.213791724590432608e+00 4.222251847172306327e+01
2.039514695217660645e+01 -8.439080680014457769e+00 4.184382783818638529e+01
2.090463367825414664e+01 -7.738433965978328111e+00 4.230460513343511053e+01
2.016122169205813108e+01 -8.476130339329543517e+00 4.009222777135418170e+01
2.045934605918677818e+01 -7.566446487661941944e+00 3.928620156518220341e+01
2.012494736842105425e+01 -8.793550357142857266e+00 4.075843648560415744e+01
2.103202752144082410e+01 -7.290702121680986636e+00 4.276993096595029442e+01
2.053312701112565719e+01 -8.263579011660137752e+00 4.238674239852522163e+01
2.006451383168657898e+01 -8.398126077261878208e+00 3.953477144380763519e+01
2.026005166493057530e+01 -8.616242860893235544e+00 4.130120917652855184e+01
2.016299257021082170e+01 -8.611834321907155143e+00 4.208933636454565885e+01
2.078272048632889124e+01 -7.777117711258907384e+00 4.257843316380380116e+01
1.987800204435253093e+01 -8.907178425625984275e+00 4.012439377116078276e+01
2.014693845601244249e+01 -7.701464382213450754e+00 3.865393762539532219e+01
2.042011496433144302e+01 -7.230791463824531640e+00 3.894974553212572488e+01
1.989281226677715964e+01 -8.178354942481913525e+00 3.872159043397741840e+01
1.964511665422325848e+01 -9.199701451449179501e+00 4.080501581138054945e+01
1.971969085763329943e+01 -9.084090408210803602e+00 4.039020288955070015e+01
2.025898813478084648e+01 -7.128653052824000191e+00 3.853346519790827074e+01
1.979228688723607377e+01 -8.962219626089906299e+00 4.179151343421140297e+01
1.999843599771921276e+01 -8.688456423035459508e+00 4.246040659313362653e+01
2.056256084221291758e+01 -7.902443782757659463e+00 4.303841204261745901e+01
1.972460691892643325e+01 -8.765202309511133549e+00 3.919597833903174688e+01
1.963128841177381290e+01 -9.020754649905551759e+00 3.949087596070448569e+01
2.037109918359479721e+01 -6.555649115815612049e+00 3.841292302002680259e+01
1.942287355443601271e+01 -9.312405498157170669e+00 4.149384376245086514e+01
2.059013919623559019e+01 -7.541097075537852135e+00 4.368998240546997636e+01
1.963869851676210487e+01 -8.655285980197678697e+00 3.878921200970280125e+01
1.931451745638776529e+01 -9.374573750812670525e+00 4.002203302293303722e+01
1.982176615658858054e+01 -7.751845176893453093e+00 3.812694744611921038e+01
1.976669570577419677e+01 -8.008613799459304516e+00 3.827978041779700646e+01
1.944307249369862944e+01 -9.212340883251378898e+00 4.201392477647953427e+01
1.916467074312218699e+01 -9.606399198253669169e+00 4.085163199299935854e+01
2.017505504622195289e+01 -8.040873635144443199e+00 4.341927922718873845e+01
2.098663527312528387e+01 -6.970911684623716020e+00 4.357474101679604672e+01
1.982520657775619455e+01 -7.251214748923648479e+00 3.786053846353405561e+01
2.009097497014744249e+01 -6.838052639793284371e+00 3.808893635423624602e+01
1.937183758949716506e+01 -8.652930950762264928e+00 3.827177070758234834e+01
1.905350963441954448e+01 -9.662799400781683090e+00 4.119596917877297670e+01
1.976014627782436861e+01 -8.540057369628579309e+00 4.314877741370842301e+01
1.938440620801482339e+01 -9.132618761904764071e+00 3.885685420134396395e+01
2.015584667291713927e+01 -6.366770400807474140e+00 3.794314942295411441e+01
1.884706091635675307e+01 -9.695619385446928362e+00 4.203830776851481232e+01
1.890687587999043018e+01 -9.740895663799431503e+00 4.022679246344988258e+01
1.946384600713965796e+01 -9.113109962794528229e+00 4.253400362942009139e+01
1.934494651223553419e+01 -9.039040988705783874e+00 4.287818614100380898e+01
1.999943102821181995e+01 -7.950958714973139330e+00 4.376603528791324038e+01
2.082307945244047787e+01 -6.935770549549434172e+00 4.387424686333680057e+01
1.890915853065565244e+01 -9.665191951874495757e+00 3.965367491637523045e+01
1.949675743035297870e+01 -7.802230089116094724e+00 3.760021622533351149e+01
2.048322581038516788e+01 -5.982679975154804985e+00 3.829235932003463461e+01
1.982866545624833776e+01 -6.750629635576729015e+00 3.759412756391076726e+01
1.876397883972718361e+01 -9.854197033126983030e+00 4.146857103901061237e+01
1.892946668794768783e+01 -9.537463202737901824e+00 4.260752679693734990e+01
1.868433628356915932e+01 -1.001302830639841801e+01 4.089821370475057449e+01
1.940826186038507117e+01 -8.361141383986920417e+00 4.384208909417591826e+01
2.043037868104155663e+01 -7.117732631179651825e+00 4.418177173753188214e+01
2.105602555124953668e+01 -6.330393018202123301e+00 4.405835212243958665e+01
1.938616235527100429e+01 -8.315998205606533134e+00 3.790533263845559730e+01
1.950121998129122858e+01 -7.134799623480938102e+00 3.724480099934746846e+01
1.954407718504104707e+01 -7.732808236975589722e+00 4.429590863212511920e+01
1.909966253479428033e+01 -9.158799259143084015e+00 3.833834773106511307e+01
1.895575236748230097e+01 -9.504901016731427177e+00 3.887710848129954400e+01
2.012357954275122651e+01 -6.061629444754387919e+00 3.775236762983280414e+01
1.853739768765094453e+01 -9.831651137701078014e+00 4.229980622804775692e+01
1.848920284645107515e+01 -1.009064966875545011e+01 4.023774729434785513e+01
1.990720617727649611e+01 -7.213732602153243967e+00 4.448473856436242357e+01
2.068760959221582496e+01 -6.169595994646102532e+00 4.459115573714441894e+01
1.900602645187248996e+01 -9.393830375849930192e+00 3.846062433439223582e+01
1.902575259800939023e+01 -8.276457329908108562e+00 3.722820398760150340e+01
1.917390454641036257e+01 -7.518817517743251244e+00 3.689559067326878505e+01
2.045462919511594180e+01 -5.272866945254801152e+00 3.809358975823232640e+01
1.976421560548849854e+01 -6.140537189991998268e+00 3.721281762260951353e+01
1.900596622000487201e+01 -8.623111644222635874e+00 3.753121359585099270e+01
1.814542593441728613e+01 -1.012590040149634163e+01 4.199222550038058444e+01
1.832256331717905340e+01 -9.900598484759200346e+00 4.273032612433411970e+01
1.812855437586043550e+01 -1.023548562163271569e+01 4.147370790762512627e+01
1.825854011303629321e+01 -1.023732542063770268e+01 4.050051010172408894e+01
1.887437454539753645e+01 -9.154533672857908755e+00 4.326292288216526316e+01
1.918089509638711476e+01 -8.251941060126103622e+00 4.410695033174102520e+01
2.027044255569299125e+01 -6.694496225611363371e+00 4.467353775296666640e+01
1.881483682412860503e+01 -9.185046302168693444e+00 3.781972452908095050e+01
1.850384534167935513e+01 -9.955780174001402472e+00 3.928534629622502905e+01
1.829415279727188448e+01 -1.016827482884696465e+01 3.957755141992838332e+01
1.952948343987937463e+01 -6.612088312589049721e+00 3.705185536834001425e+01
1.917182079315857735e+01 -7.852621854723077277e+00 3.707359364276008762e+01
1.999036414786734284e+01 -5.446707284525594162e+00 3.741217184196326428e+01
1.811111806090537257e+01 -1.034514454524395077e+01 4.095519113027134495e+01
1.881791231823019217e+01 -8.770759348825606594e+00 4.391797789578183853e+01
1.964737858010266791e+01 -7.069268869164883284e+00 4.473770199712051010e+01
1.902140090984712728e+01 -7.880559519708130622e+00 4.447481001528743150e+01
2.045472146503043120e+01 -6.116282836275034107e+00 4.476898451989680439e+01
1.852738847554178747e+01 -9.875557604322779071e+00 3.889735022897389882e+01
1.924031804880412011e+01 -6.983839821120932712e+00 3.675819568939857618e+01
1.783486932476780851e+01 -1.046130068100706900e+01 4.010337457807252548e+01
1.839029294220059185e+01 -9.234016893888336242e+00 4.368250441508417481e+01
2.001397910268334002e+01 -6.283335535675480088e+00 4.498306006374092902e+01
1.862773163973433554e+01 -9.654992237550809264e+00 3.806449741901277406e+01
1.963067909728095017e+01 -5.770959649418541559e+00 3.692552561662433419e+01
1.862547195920718579e+01 -8.930466559479917521e+00 3.715679739940438253e+01
1.884635479154317395e+01 -7.903111100746269102e+00 3.654610838492589409e+01
1.891290971115969199e+01 -7.367773136391348565e+00 3.640882043824908720e+01
1.940502101040707572e+01 -6.219424441613362831e+00 3.667354074304855516e+01
1.775324476433764076e+01 -1.042025340040666137e+01 4.168454179887289968e+01
1.773423099141568571e+01 -1.034083892799563920e+01 4.226881066946318555e+01
1.754090534341651164e+01 -1.067684758939185663e+01 4.101208594162940102e+01
1.775872328124104271e+01 -1.052899174046807751e+01 4.056971087825812106e+01
1.825575102147623596e+01 -8.891581757727289315e+00 4.384143292134414338e+01
1.902434762481588137e+01 -7.443988758410294615e+00 4.480159884206351251e+01
1.860987917725831053e+01 -8.294531525770903357e+00 4.439157177138957877e+01
1.827038816155303635e+01 -9.991818297762284473e+00 3.824407712618378241e+01
1.809917413775439599e+01 -1.024591074710035521e+01 3.891758916341228058e+01
2.042606676214527894e+01 -4.563601885360697885e+00 3.789493814101996350e+01
1.958689938490399030e+01 -5.320368474426572014e+00 3.675963378545196036e+01
1.854583454067221027e+01 -8.570159715626131103e+00 3.666431062834179500e+01
1.897942196068219545e+01 -6.832917047901538865e+00 3.627161285532365298e+01
1.852988245032847914e+01 -9.211348198020289146e+00 3.730090215963359412e+01
1.796194565938393239e+01 -9.698045890724555917e+00 4.344664350149233201e+01
1.809963815446898394e+01 -8.534311287853075356e+00 4.419668935569701773e+01
1.840181914592606560e+01 -7.818364396371860536e+00 4.486511159828877027e+01
1.941913639274860870e+01 -6.358771857688640949e+00 4.518571314428452013e+01
1.741209023834790770e+01 -1.068527479257448398e+01 3.970625137804345428e+01
1.985716048580765403e+01 -4.831817341542000932e+00 3.707196186073074529e+01
1.975786674901268825e+01 -5.872835447201434356e+00 4.529215590504078648e+01
2.017404019617502442e+01 -5.376874726949945504e+00 4.521306609464087245e+01
1.908004824399841226e+01 -6.845262266831830367e+00 4.507903040816538009e+01
1.739442572177944868e+01 -1.060555115857266095e+01 4.193267715048735766e+01
1.771469491746563918e+01 -1.026280934476225681e+01 4.285305530341266689e+01
1.769291885115935514e+01 -9.012481358202744985e+00 4.376467969224886900e+01
1.794350240369972838e+01 -8.177053852192091910e+00 4.455193259374176762e+01
1.824950552713649898e+01 -9.916114321864835546e+00 3.766844976246672871e+01
1.758540056030424026e+01 -1.054160011961634780e+01 3.891537125763259297e+01
1.931625152237212006e+01 -5.809619972897310802e+00 3.644685021230412758e+01
1.904591726686507869e+01 -6.298306515373352177e+00 3.613442081667243855e+01
1.842774971332528722e+01 -8.131427741738995962e+00 3.615711767674002886e+01
1.824517785729320352e+01 -9.237660519480520804e+00 3.678257455987569813e+01
1.844789936118883134e+01 -7.892647519322357752e+00 3.598851254719026116e+01
1.862075078221381474e+01 -7.145616303072873876e+00 3.590793561245725130e+01
1.918228095429476809e+01 -6.189599437572851137e+00 4.529760421066408327e+01
1.753385090760304266e+01 -1.016179198653192373e+01 4.321093316268451190e+01
1.736121404796323020e+01 -1.071445021608047199e+01 4.137701884556368981e+01
1.729469694473008445e+01 -1.078391833201221850e+01 4.031941084053269719e+01
1.874101621943144735e+01 -7.331695928358019643e+00 4.497219900180590457e+01
1.748475966584102892e+01 -8.536030862225798543e+00 4.423839091476015994e+01
1.733174903842294867e+01 -9.647664810524904766e+00 4.344944507063507189e+01
1.789698770497702185e+01 -1.031141322854305642e+01 3.823755300303903226e+01
1.940701002683837473e+01 -4.801973919586915329e+00 3.642080535147119491e+01
1.818140226632543133e+01 -8.703448222011394009e+00 3.627392693120023637e+01
1.868720553737116319e+01 -6.610936225663987642e+00 3.577070399028156800e+01
1.986521486455842123e+01 -5.312954273649032721e+00 4.531795136555422232e+01
1.706094786482653092e+01 -1.075197238459531413e+01 4.234099950260742418e+01
1.696858828695306087e+01 -1.100905689001264243e+01 4.106906749085063524e+01
1.821642534756966469e+01 -7.320509656489683437e+00 4.508648824711658420e+01
1.770549111406167597e+01 -7.973519055189971283e+00 4.481086451939374626e+01
1.860670933992172849e+01 -6.506348700749989611e+00 4.530280358383639339e+01
1.712963516907498729e+01 -9.133397828249057326e+00 4.368773534594777885e+01
1.761899495223367751e+01 -1.041848497485543668e+01 3.848134239692729608e+01
1.698841738140804836e+01 -1.090958982861298310e+01 3.930852831239022294e+01
1.922321534544240862e+01 -5.300788829495258092e+00 3.623427343138816070e+01
1.961739937667627842e+01 -4.140693793835793279e+00 3.662028036843002354e+01
1.800899427649570939e+01 -8.359826336534959879e+00 3.576800644326889511e+01
1.787221533849239208e+01 -9.189420128526263554e+00 3.623724196707443213e+01
1.823984946265035845e+01 -7.409918233668367549e+00 3.549262916000733270e+01
1.897617309322638235e+01 -5.674174955761740691e+00 3.593742649084757801e+01
1.786846097699662650e+01 -9.838396377502188983e+00 3.682886313307675152e+01
1.937454441523521353e+01 -5.430043323987050918e+00 4.545278696310787581e+01
1.835111574244981369e+01 -6.211186507226461373e+00 4.540979668413866221e+01
1.867107896341462592e+01 -5.599319776941238835e+00 4.551166966221128973e+01
1.710661457986196510e+01 -1.062460893691537578e+01 4.297570058705628782e+01
1.702602541305514094e+01 -8.894925994030053573e+00 4.392477730298155336e+01
1.760155006482896667e+01 -7.188181835289254806e+00 4.515647150725458658e+01
1.803115241098117139e+01 -6.823074107457697046e+00 4.530771292793524196e+01
1.769458271088118195e+01 -1.037560919331371778e+01 3.755684591850889120e+01
1.669929231256674029e+01 -1.109226354267116932e+01 3.962927158965234753e+01
1.707280696076629667e+01 -1.083772957388231006e+01 3.891314958476840502e+01
1.860010195127089361e+01 -6.319692258403127205e+00 3.556078792880533257e+01
1.832859509345099269e+01 -6.923485390232809955e+00 3.540708285508669206e+01
1.804938453937465326e+01 -7.882193787603752000e+00 3.543086430218507132e+01
1.997255089328065480e+01 -4.752950701205240769e+00 4.534368515661612520e+01
1.899113208557034227e+01 -4.987273118464626620e+00 4.561341613204977818e+01
1.701500856571047393e+01 -1.087841754319949494e+01 4.170578778045391033e+01
1.683693087810421929e+01 -9.940129614833153937e+00 4.329312497922303038e+01
1.683390003979129190e+01 -1.105067932712195677e+01 4.034851778699198377e+01
1.692676981528984470e+01 -8.517683773273819980e+00 4.434887470404504484e+01
1.717198504035565421e+01 -7.553236066212737576e+00 4.500508716039816193e+01
1.770024194197327105e+01 -6.343764664243772167e+00 4.547170887961893726e+01
1.700915457212521886e+01 -8.128556142165935583e+00 4.475635802836147548e+01
1.656674190248031664e+01 -9.254138287312660083e+00 4.361069900235173691e+01
1.713859098070283693e+01 -1.059114520448014574e+01 3.804489853019426704e+01
1.779194457525063555e+01 -9.422731288658226845e+00 3.637668092646305240e+01
1.717127048111312249e+01 -1.068264134234256169e+01 3.850651169155113251e+01
1.787107125334287971e+01 -1.017738842268055954e+01 3.727219855227131973e+01
1.922713335230556808e+01 -4.283721738036182280e+00 3.608196108766309607e+01
1.890642328805898131e+01 -5.049986155401969157e+00 3.574035660861696329e+01
1.783580428126172990e+01 -8.795142364683288250e+00 3.587632377609030954e+01
1.938977754424121969e+01 -4.535920999803392917e+00 4.554078162725846113e+01
1.845054186186826684e+01 -5.279531325707092826e+00 4.562118630284716403e+01
1.790998257146153705e+01 -5.571772739855076928e+00 4.562865918324046532e+01
1.663625334939156986e+01 -1.079206036815354430e+01 4.199694566747070468e+01
1.665169441534310835e+01 -1.067875344701275786e+01 4.255458806717669518e+01
1.650040979642941608e+01 -1.110064752908798802e+01 4.068366878377344165e+01
1.733141890540252206e+01 -7.001912273970336997e+00 4.526280538947676746e+01
1.674221528556025262e+01 -7.918391427699852159e+00 4.485344572566580013e+01
1.656466860350971615e+01 -1.113383513398923697e+01 3.891093367613373033e+01
1.759054628200693315e+01 -8.588058270830636332e+00 3.537920111504973164e+01
1.796999105747132930e+01 -7.236032996928962291e+00 3.504346043862522464e+01
1.859179632613453137e+01 -5.441868886106146164e+00 3.539996995170386640e+01
1.907809497487633621e+01 -4.266932400914313028e+00 4.564826598015823578e+01
1.634304571548042873e+01 -1.087937048649048144e+01 4.146918081992303229e+01
1.644007774413832479e+01 -1.053642811588764161e+01 4.272659374221077400e+01
1.631973206297084289e+01 -1.099500671869829915e+01 4.091322255917629747e+01
1.643952335045257840e+01 -8.768877675771925340e+00 4.415609361288512957e+01
1.631226236701090215e+01 -8.283558510931896990e+00 4.470152064883960463e+01
1.603488214693532754e+01 -9.508167658142719247e+00 4.320232144537847319e+01
1.733880212452491065e+01 -9.607767774595851407e+00 3.597088416002372213e+01
1.711369154404659199e+01 -1.037019528597923035e+01 3.634476843885068575e+01
1.815408018576169269e+01 -6.341094864982631307e+00 3.498689247559519089e+01
1.749186337897734589e+01 -1.043920587803014222e+01 3.687515468178591505e+01
1.665811518630171051e+01 -1.076383621164292670e+01 3.760839115531662458e+01
1.671787545781426232e+01 -1.089273077009428548e+01 3.829169375892900007e+01
1.617894431297794000e+01 -1.118218950996305949e+01 3.967523723690678139e+01
1.749935049547607235e+01 -9.141209412368340281e+00 3.569207954871531996e+01
1.765116912990658093e+01 -7.871758050537093432e+00 3.487366972378227103e+01
1.818075121697473762e+01 -5.775309687827304472e+00 3.492472035029643251e+01
1.855770870173118325e+01 -4.506222959214893464e+00 4.576238193130537724e+01
1.736907842076297115e+01 -5.864193317734049948e+00 4.563580064566961880e+01
1.762080623179615557e+01 -5.251268822757483967e+00 4.572780189805769879e+01
1.688987982117629727e+01 -6.362785549394702755e+00 4.548134501425148812e+01
1.619638690307707307e+01 -1.073268166798387035e+01 4.213307725515912949e+01
1.603286602323623100e+01 -1.119211736074904806e+01 4.029879189698169739e+01
1.663170123011943957e+01 -7.180696309465701255e+00 4.521742805872034410e+01
1.612201000481712043e+01 -7.821209665793799282e+00 4.493667656484493023e+01
1.614709342086314336e+01 -1.003495868810339076e+01 4.291494139927114304e+01
1.852207951732696856e+01 -4.818239066895635858e+00 3.520301362810158707e+01
1.883678621852072155e+01 -4.426858064516129510e+00 3.554354752624563218e+01
1.787241381794171957e+01 -4.638406799197461794e+00 4.581960804410319099e+01
1.600440594044598086e+01 -9.297515269610302724e+00 4.350827478559531869e+01
1.574072014620706739e+01 -1.078604175450553981e+01 4.171118236868960594e+01
1.577252910565099953e+01 -1.044766609996574580e+01 4.247687566484603394e+01
1.567176589873540138e+01 -1.098097826765219764e+01 4.075755836910838781e+01
1.590867633120638303e+01 -8.933520917288912955e+00 4.391730562892684020e+01
1.593200106723527831e+01 -7.359406492679780420e+00 4.517150473238640984e+01
1.576071687284926348e+01 -8.352334231738545611e+00 4.459545277130632712e+01
1.547628261758757517e+01 -7.658963063935338766e+00 4.494811342257933262e+01
1.820742753957136273e+01 -5.209597207790167772e+00 3.486252265093177272e+01
1.689373877246594802e+01 -1.066238903619116485e+01 3.682844034347367312e+01
1.596432992690004937e+01 -1.123987762713332295e+01 3.887301321605708182e+01
1.634711270732991650e+01 -1.112767878621694528e+01 3.836744930584394808e+01
1.604733715468648469e+01 -1.120143669745964488e+01 3.851170127713679392e+01
1.772511579222662803e+01 -6.928461305425924088e+00 3.462266160533101811e+01
1.736443388312888914e+01 -8.328314328900949803e+00 3.485413644450814274e+01
1.761122549240016966e+01 -7.548727465658664038e+00 3.467966776857923605e+01
1.671807714874818629e+01 -6.032330078881024349e+00 4.559959778029055855e+01
1.699774988133262354e+01 -5.342516336231208918e+00 4.578875626044336400e+01
1.550267464769003567e+01 -9.762032483484151868e+00 4.279363156597237605e+01
1.544127903885167719e+01 -9.340756339799177965e+00 4.340548717160962156e+01
1.581294327462770610e+01 -8.569531265856827673e+00 4.432630664423726330e+01
1.688501087484645069e+01 -9.793070125474800491e+00 3.556452078190046961e+01
1.673518201922630766e+01 -1.030116786343901580e+01 3.581393341057655988e+01
1.697851190564585266e+01 -1.047818029951790209e+01 3.648769527574113170e+01
1.712655152245113044e+01 -9.093018004999963821e+00 3.514704183390048087e+01
1.844729023033652382e+01 -4.472521948782606671e+00 3.507307569336899888e+01
1.612868678006583067e+01 -1.112154652078649164e+01 3.782301094757284687e+01
1.556532179793037862e+01 -1.128359061206950464e+01 3.991391395801818476e+01
1.717196621208758955e+01 -8.816362953216524190e+00 3.499029323560723270e+01
1.712531818643888926e+01 -4.555658302936181236e+00 4.593194837577676992e+01
1.641083543911385334e+01 -6.861224227602584769e+00 4.532660562701342144e+01
1.606714731966295417e+01 -6.200429993224350511e+00 4.556289318204058247e+01
1.528539860388431926e+01 -1.084081252817487240e+01 4.128954760601968133e+01
1.531313869112346104e+01 -8.855600259734400126e+00 4.395057757084061478e+01
1.523007841768369808e+01 -7.444595719122526489e+00 4.509411429964223572e+01
1.617756975794932472e+01 -1.093655760432477209e+01 3.717182760991637025e+01
1.770858802912438179e+01 -6.362477650601686463e+00 3.441368189472172645e+01
1.805780028578977081e+01 -4.518191630258168168e+00 3.460261168082190153e+01
1.789277644572684167e+01 -5.600986228915321163e+00 3.452201676874685887e+01
1.567825346445529888e+01 -1.127735670304302751e+01 3.937476970170003199e+01
1.536387873055470088e+01 -1.134592394946673721e+01 3.883510110368668933e+01
1.870060512415116349e+01 -3.854868993420253798e+00 3.533942047919887131e+01
1.725258133792518578e+01 -7.861319553756038303e+00 3.431599135935924494e+01
1.762439365114262912e+01 -4.290562509653071288e+00 4.592181088171633263e+01
1.622295031169688428e+01 -5.336532409732701154e+00 4.580337164409236550e+01
1.497121143953802580e+01 -1.001586469130456081e+01 4.238545431678777220e+01
1.510682711778629361e+01 -1.056058863962783434e+01 4.178431966826064325e+01
1.502340991897673206e+01 -1.096694259086806333e+01 4.060175223384874243e+01
1.492441355554903737e+01 -9.699441103045915114e+00 4.284397568520488875e+01
1.567418258395249353e+01 -6.864385764704484139e+00 4.534840616795702317e+01
1.502006402480752811e+01 -7.958727694466804614e+00 4.472420268236963636e+01
1.629567439881325086e+01 -1.088559877793870179e+01 3.678173881888552188e+01
1.646531447587404529e+01 -1.051715422782319642e+01 3.610035692194422552e+01
1.725800824143947665e+01 -7.122390180032583729e+00 3.407844191690428204e+01
1.783744955275547284e+01 -5.052437228751486487e+00 3.439324184335403345e+01
1.497714757062546553e+01 -1.114449229867997815e+01 4.011160729790186252e+01
1.700284879942201144e+01 -8.453089100028075009e+00 3.445864523653043676e+01
1.662619065030403220e+01 -4.820766430839505290e+00 4.594171274979971287e+01
1.581939431488371994e+01 -5.852632901864144976e+00 4.566464834059635081e+01
1.510609699197845401e+01 -1.035817343032483784e+01 4.222726326605801717e+01
1.482221311915809991e+01 -1.069272824824981782e+01 4.130838547626993318e+01
1.483008031348675715e+01 -1.089680548176498576e+01 4.086784622197226469e+01
1.520942784694593541e+01 -8.420989030216848192e+00 4.448906953030739686e+01
1.481341748313383633e+01 -9.141350880256492673e+00 4.357473373534202210e+01
1.487762014079937067e+01 -9.383794763799070182e+00 4.330234096683285117e+01
1.643175105561912019e+01 -9.978157780324904635e+00 3.515864924130058711e+01
1.635694828396498579e+01 -1.023222239533350297e+01 3.528351093012400241e+01
1.675321074029929136e+01 -9.044766008755736664e+00 3.460124459377264117e+01
1.757812438856587178e+01 -5.992400165973789328e+00 3.418149440724086219e+01
1.829746611442527637e+01 -3.843338734955330960e+00 3.484850620384162312e+01
1.591156052955607336e+01 -1.111545044376535074e+01 3.727859196052039437e+01
1.552991682483908953e+01 -1.126904658225577727e+01 3.811245650473521351e+01
1.546128676275315428e+01 -1.122604218724435476e+01 3.749589418819354592e+01
1.509777911037468456e+01 -1.137506686405206935e+01 3.952903659520943336e+01
1.727045300987487053e+01 -3.893031750310642636e+00 4.605223257643345391e+01
1.541593094653754470e+01 -6.368578083452641536e+00 4.552559327971142267e+01
1.473600345314932625e+01 -8.815451914795486843e+00 4.397859947868678887e+01
1.488528524597769653e+01 -6.784673642373448388e+00 4.532975588775263276e+01
1.452820449731370900e+01 -7.529700154245347221e+00 4.501597167145742162e+01
1.569670113838114389e+01 -1.110920030331310393e+01 3.673497468339486005e+01
1.604589771967754430e+01 -1.076413104066934601e+01 3.627368262627214790e+01
1.595212159331561885e+01 -1.055613497494768005e+01 3.571302395503059302e+01
1.636583610340771244e+01 -9.603952846725636761e+00 3.467700615060806513e+01
1.726345951933909006e+01 -6.383847831184056076e+00 3.384094306696204058e+01
1.747130603080517375e+01 -5.311871217039514370e+00 3.397514968041794958e+01
1.497398445041291914e+01 -1.138066215585591578e+01 3.828382410165357186e+01
1.686182590747458576e+01 -8.022761752169074612e+00 3.393112375461953434e+01
1.677144290520680769e+01 -4.158090139578133559e+00 4.606225423487912707e+01
1.603166541174629955e+01 -4.978047231479170165e+00 4.591581523997463421e+01
1.512956186861473284e+01 -5.830511987268271135e+00 4.569400311201567177e+01
1.543737859397960221e+01 -5.135256214472900815e+00 4.588940688106159627e+01
1.443993411545044125e+01 -1.027122669637400598e+01 4.197735336490376312e+01
1.441813840640897482e+01 -1.049822480390018775e+01 4.146725270649346129e+01
1.439628753708685949e+01 -1.072559350114812027e+01 4.095637651499279741e+01
1.437696726914274770e+01 -9.849282051590758869e+00 4.258812290250008914e+01
1.437438857123646585e+01 -1.095289414849572118e+01 4.044571787186909262e+01
1.431399115646118680e+01 -9.427158514995660710e+00 4.319890501362849733e+01
1.456340814354419422e+01 -8.258582178798976159e+00 4.449974534750770516e+01
1.683901951925059137e+01 -7.810246819023061171e+00 3.375012676034550196e+01
1.501243064334767574e+01 -1.133666120559539081e+01 3.771322137425155319e+01
1.466760950787335993e+01 -1.128686253227026803e+01 3.963730940921576718e+01
1.430389860243650979e+01 -1.115474387082090679e+01 3.988320245945062936e+01
1.476332868478881899e+01 -1.145197455147412136e+01 3.879718717880064105e+01
1.463023927953842573e+01 -1.146654582926394461e+01 3.914416088421751994e+01
1.662578900286910155e+01 -8.486668143413549359e+00 3.399005506652145669e+01
1.632382608568799753e+01 -4.389973552802614698e+00 4.607531635994564567e+01
1.465859938963412645e+01 -8.489484802244097850e+00 4.438235430439210205e+01
1.421049781384078869e+01 -8.992433434619901078e+00 4.373694628064657053e+01
1.597847483357007725e+01 -1.016325600647265937e+01 3.475278153706322826e+01
1.577292219953839769e+01 -1.037756202616678358e+01 3.509590144247807331e+01
1.629871405593243239e+01 -9.129215514574966051e+00 3.418980793024431364e+01
1.713854156004353158e+01 -5.808204091503680999e+00 3.362423549831766678e+01
1.684736939702711567e+01 -6.702202236850788530e+00 3.339411985341428846e+01
1.507273107121602074e+01 -1.127682377247375811e+01 3.719658089516889987e+01
1.446418286872534154e+01 -1.145762290512005599e+01 3.804975864812569597e+01
1.638976746960545938e+01 -8.950611476044802117e+00 3.404897312821654509e+01
1.476393449048775963e+01 -6.443923022531033773e+00 4.546247092094002085e+01
1.484309564655614544e+01 -5.292453718754855707e+00 4.586241124389562884e+01
1.572941125126614814e+01 -4.547270232791665201e+00 4.604925820023463245e+01
1.398335227116145418e+01 -1.065541498164671275e+01 4.093122587963470238e+01
1.390621707273870022e+01 -1.098989595560251331e+01 4.003902305257505390e+01
1.410699094885910831e+01 -8.557959574129306191e+00 4.427500200274728570e+01
1.387694066785468827e+01 -9.575400384625027073e+00 4.284512494956662465e+01
1.435570344908762941e+01 -7.199861358988287385e+00 4.513369913638180009e+01
1.396665990214664710e+01 -8.086370809752361666e+00 4.460605717822656402e+01
1.537526010786204544e+01 -1.099994567952245816e+01 3.618844409536284701e+01
1.595157400040656626e+01 -9.559256579361884221e+00 3.419548819660455052e+01
1.686930296830764675e+01 -6.344100957955104647e+00 3.337765138621576710e+01
1.678003550987872927e+01 -7.276511929676462209e+00 3.349504029331956190e+01
1.423337130975653508e+01 -1.135638123095361607e+01 3.932125373321778028e+01
1.647116316161445582e+01 -8.184169253494861351e+00 3.354635898252573156e+01
1.602137014016862082e+01 -3.959288626250352827e+00 4.620886362854140117e+01
1.411177223351387688e+01 -6.519252755949676015e+00 4.539857106513607476e+01
1.513516950223810120e+01 -4.704455759039236185e+00 4.602269777027135689e+01
1.394426726160685170e+01 -1.036654406478394641e+01 4.155109847115341637e+01
1.373892159705818372e+01 -9.968193498868453517e+00 4.221732299829211854e+01
1.377057133591285698e+01 -1.090166493184079322e+01 4.029568200167575753e+01
1.377175339020976708e+01 -9.434700302566737307e+00 4.309214093056417738e+01
1.369428818001986414e+01 -9.107838042745866503e+00 4.349542728005211956e+01
1.514274402244900841e+01 -1.111089463018543455e+01 3.632414078573393823e+01
1.513669042519155816e+01 -1.121703756225815063e+01 3.667998241285458505e+01
1.543882880793950640e+01 -1.059512872696637764e+01 3.532561868799596283e+01
1.701350299063033944e+01 -5.232098843120701837e+00 3.340727518252660388e+01
1.449486329045106636e+01 -1.140428190379610385e+01 3.731399143282273911e+01
1.386959570657662155e+01 -1.117275469152407297e+01 3.954762168240367970e+01
1.416269758312185623e+01 -1.155802824733060241e+01 3.875928316857741152e+01
1.602631066386891234e+01 -8.856466680140620440e+00 3.349670775634080400e+01
1.438208565362645075e+01 -5.726396702289178187e+00 4.568683908201953159e+01
1.542703707446812267e+01 -4.116541706107262222e+00 4.618266307180625319e+01
1.386226102428574336e+01 -1.024557583382722292e+01 4.184082890416699740e+01
