5.367649846772831523e+00 9.235551314325507466e-01 2.093761169839554981e+01
-2.298297126334226670e-01 7.142907586093548922e+00 2.077903548667842415e+01
1.346942697138574285e+00 6.898426504495484224e+00 2.084870234047069815e+01
3.468237304432360002e+00 5.136387162629071135e+00 2.082429665478730740e+01
5.194654617098765748e+00 1.934892227902529349e+00 2.098176201773449634e+01
4.419848801883687450e+00 4.349064834061670659e+00 2.101755476442021120e+01
9.243856696061626410e-01 7.240179309151409726e+00 2.086359175852358305e+01
3.251050801994132655e+00 5.753038056175089565e+00 2.086624627125063469e+01
5.719777559013718538e+00 1.486052355881023246e+00 2.118110974982142025e+01
5.205590769404437879e+00 2.914517039550250654e+00 2.110767925272985934e+01
4.917909486906985705e+00 3.572290398121602983e+00 2.104707522171943523e+01
5.493221376141392831e+00 2.256611214076278848e+00 2.116828089022930115e+01
2.342003526428371174e+00 6.601386423184519181e+00 2.092290570517421955e+01
2.796044547949959380e+00 6.177262019517687719e+00 2.089458083130567445e+01
1.888426810072520556e+00 7.025585767485075017e+00 2.095123428148635014e+01
3.037107235690755247e-01 7.399923278429914042e+00 2.086536837070857686e+01
3.974670852282359501e+00 4.884098680016703220e+00 2.095991077691450499e+01
1.434944164209467132e+00 7.449694540137393517e+00 2.097955681769158431e+01
3.813166753365696326e+00 5.434246951408828963e+00 2.100909267921428025e+01
5.208112212085396209e+00 4.024435718513002413e+00 2.124233556243403598e+01
9.814671007217875554e-01 7.873795988474157959e+00 2.100788017804495311e+01
4.374920443061834696e+00 5.115455683105945006e+00 2.115193021774867077e+01
3.762759254812581666e+00 6.153276877974278136e+00 2.111388482428916191e+01
6.071813885258632304e+00 2.050875144399866290e+00 2.142459139176020955e+01
4.936539536822796670e+00 4.796552296129959814e+00 2.129480507838795589e+01
5.495954955605012238e+00 3.367174850339691883e+00 2.130309764519562421e+01
5.783748186391699520e+00 2.709027805497863373e+00 2.136376106917752438e+01
2.768921987871495016e+00 6.772998811572576550e+00 2.105275951580343374e+01
3.192210064307339223e+00 6.425263662783566865e+00 2.103925433919569699e+01
1.960300196428120145e+00 7.515597015280722104e+00 2.109955842084745470e+01
2.494868439078380185e+00 7.293893348127026499e+00 2.114247035047474199e+01
5.498688073867078252e+00 4.477190822621311739e+00 2.143786882362421053e+01
1.658771807761385109e+00 8.063473558656335527e+00 2.119130912270593825e+01
4.429503238304737245e+00 5.819449479466567432e+00 2.129099269549847051e+01
3.661821049248182636e+00 6.686627903709731591e+00 2.123677894803238431e+01
6.450983393606699146e+00 1.150431714194809496e+00 2.149532382540593645e+01
6.362144607287052445e+00 2.502984243525285812e+00 2.161994801927738763e+01
5.786292928377800848e+00 3.819792400517736386e+00 2.149851285449107152e+01
3.133335404242385103e+00 7.097557285606184152e+00 2.121228193642242488e+01
1.088591973985062022e+00 8.475549277652691060e+00 2.123110083326396591e+01
4.811221241069740806e+00 5.347423448196368945e+00 2.134461525241714241e+01
6.649571409694297053e+00 1.845368541697607334e+00 2.168056153330358882e+01
5.968242064995590290e+00 4.295542812729213011e+00 2.170224771268706476e+01
5.320866520735992644e+00 5.096143076167127361e+00 2.148080782195936678e+01
6.074263461944374498e+00 3.161387467451225675e+00 2.155923885735534995e+01
2.337222282909182436e+00 8.253468161853426466e+00 2.137503848823037345e+01
4.274830455486345215e+00 6.553980580596131311e+00 2.136180777396761243e+01
6.892278496699907109e+00 2.480714822485931226e+00 2.195232722622910160e+01
5.809131687223350049e+00 5.016861464775609569e+00 2.173539734869289219e+01
3.074375078218575474e+00 7.770501496976295996e+00 2.138547984567086502e+01
1.822011664865335057e+00 8.752796930127841435e+00 2.145412988851893132e+01
4.964694688732191885e+00 6.335394763436167587e+00 2.156675527508260970e+01
5.142843834735281838e+00 5.715632052310576583e+00 2.152377522428042411e+01
3.739043257496115658e+00 7.212141476181991528e+00 2.140461423067587177e+01
6.992772544483355723e+00 1.225640083906165634e+00 2.184780207698502608e+01
6.438063329589378547e+00 4.113818345252941100e+00 2.196674054782167218e+01
6.502629744369683884e+00 3.423898931035810556e+00 2.187984160515231835e+01
1.195870813592715409e+00 9.078135902131029056e+00 2.145463583242976924e+01
7.107608119667454538e+00 1.714714276005854243e+00 2.203135759127316362e+01
6.366630105527288919e+00 4.866493380193187335e+00 2.206130613504184623e+01
5.515470412574338788e+00 5.843114421558342819e+00 2.176124676172520367e+01
3.015394125965614069e+00 8.443357315603062574e+00 2.155865881902520442e+01
4.786648470381918763e+00 6.954632850451765158e+00 2.160969530747603784e+01
4.344353421314451680e+00 7.326733595177890912e+00 2.159694344304949354e+01
7.412557551594048277e+00 2.509146811419842305e+00 2.237130030542151715e+01
6.119839172255526094e+00 5.556592721656354428e+00 2.203298333352311289e+01
7.135659311335028399e+00 3.115634615615812564e+00 2.222406359133626097e+01
3.458712099758330716e+00 8.071125686429676094e+00 2.157142316968444717e+01
1.680670166128091836e+00 9.299828490497795030e+00 2.161511302826817982e+01
2.613754322419703069e+00 8.903441703463123247e+00 2.164439010432100474e+01
5.334466033462901713e+00 6.668761849067806224e+00 2.184992100404442894e+01
7.566899128815227193e+00 1.583960894600150882e+00 2.238243387631557368e+01
7.681210552712312456e+00 1.029078728261575426e+00 2.237450696614239831e+01
7.336156531533535308e+00 6.076014783802008434e-01 2.201511571866813455e+01
7.748017540868098685e+00 2.060872904681265716e+00 2.258635190816443838e+01
6.909034235313608718e+00 3.931879122590673958e+00 2.223155163293467496e+01
6.725595252194628948e+00 4.462143632389127923e+00 2.221377887525631678e+01
3.901723590546673837e+00 7.698892239935683612e+00 2.158418595444433308e+01
2.212338271368285980e+00 9.363358967158212920e+00 2.173009425023553121e+01
5.882672678061175553e+00 6.382648033082219285e+00 2.209035098439755274e+01
3.027268552975348026e+00 8.992950285934972143e+00 2.178122772608140068e+01
3.519645221192798434e+00 8.683932776562699019e+00 2.181417560797423860e+01
1.303087477309948561e+00 9.680344426242514899e+00 2.167803614619132446e+01
5.104475662817613113e+00 7.289112583973918369e+00 2.190068646867693047e+01
4.722025866014191386e+00 7.507231930590537949e+00 2.178861021730229908e+01
7.868490019515038902e+00 4.819404857289085742e-01 2.242704219721858294e+01
7.927431244258916543e+00 2.537566790500325187e+00 2.279027012256774043e+01
7.652333945941551363e+00 3.144093805753240822e+00 2.264300607452330283e+01
7.141884028818642705e+00 4.336246475609295103e+00 2.245458961059495451e+01
6.905999944562469572e+00 4.923202238035676359e+00 2.241330039079338832e+01
6.668523395758051642e+00 5.510336841018300902e+00 2.237198850514069193e+01
6.431430631067211579e+00 6.096595170832313393e+00 2.233072928762630482e+01
7.377307536439928981e+00 3.750339742145893940e+00 2.249579167599312157e+01
4.025758782325578267e+00 8.341770280530747428e+00 2.185890530544019583e+01
3.039221241739546553e+00 9.542469298717596971e+00 2.200377238500816901e+01
5.652456844656272850e+00 7.003376493699357219e+00 2.214104966636812932e+01
8.023619201937462364e+00 1.453073182463618052e+00 2.273388927806595561e+01
7.680157854080401414e+00 -1.139492955181025183e-02 2.218269648012223172e+01
4.657384209840526701e+00 8.059779617369420279e+00 2.196750796706638553e+01
4.023716700780106237e+00 8.924543227661727585e+00 2.206972178635264825e+01
1.811327525859591558e+00 9.822814170099849918e+00 2.181571767367475090e+01
5.422648821545645426e+00 7.623909583838401005e+00 2.219195465719748839e+01
8.203033188504258888e+00 1.929771556168692337e+00 2.293781508737023600e+01
8.328206168243147189e+00 6.696879641839270647e-01 2.283999352209574241e+01
7.336368417699048905e+00 4.790982093900693961e+00 2.273711401726135151e+01
7.002398877491204487e+00 6.032891020434991702e+00 2.278738615580675386e+01
6.201246047566844943e+00 6.716721297115465283e+00 2.238141424001282687e+01
2.431195583193802801e+00 9.957654517731091559e+00 2.202111569825619952e+01
5.970735736039373798e+00 7.337995353063408999e+00 2.243217951374864683e+01
8.382556114972496530e+00 2.482815730986546843e+00 2.322137708703063907e+01
8.107353870399721885e+00 3.089424329152631543e+00 2.307397713709976372e+01
7.832159603321433572e+00 3.695857099680438296e+00 2.292658311846344787e+01
7.567553137558478582e+00 4.288807274211263731e+00 2.279696700745175164e+01
7.319573395532247950e+00 5.365399301061314574e+00 2.287515876239895007e+01
6.581646440043679824e+00 6.584220556797271584e+00 2.261041999826816706e+01
4.592712120008266119e+00 8.612363144173245999e+00 2.214641786705329096e+01
3.533440121726480143e+00 9.325329865540570751e+00 2.207393627748059473e+01
3.051191591913312351e+00 1.009257742286804671e+01 2.222656276558872079e+01
5.336596482877198788e+00 8.360499499655121625e+00 2.243040820202021024e+01
8.478417724898450913e+00 1.322232222088011611e+00 2.308525278787486457e+01
8.177933502568571100e+00 2.007641052813918803e-02 2.259480747418507462e+01
4.527969001628664003e+00 9.165341462528331817e+00 2.232545825108702431e+01
5.740610589834102662e+00 7.958287049830665261e+00 2.248285439592918422e+01
8.658106810067044634e+00 1.875525594525578210e+00 2.336901999784107886e+01
8.562239661010133673e+00 3.034780745981623618e+00 2.350494012987327963e+01
8.023404720493852338e+00 -6.287743655266707643e-01 2.234984900002928043e+01
8.616505488280235880e+00 1.099858016858675652e-01 2.307264047920495287e+01
7.757810754246683871e+00 4.827408570909089924e+00 2.309821600681135223e+01
7.221479000696627182e+00 6.576423258305400310e+00 2.314496053895262051e+01
6.729852189308228816e+00 7.072517048192718647e+00 2.289048996220667931e+01
7.570378682254175651e+00 5.969213936224001316e+00 2.324414659228083124e+01
8.022378490823163233e+00 4.234413663574351894e+00 2.322781359210893370e+01
3.551055697822776303e+00 1.015027397973171119e+01 2.240800445755446191e+01
4.039676039690736964e+00 9.657823536492704974e+00 2.236673026850350254e+01
4.932322531763237983e+00 8.762970622800970943e+00 2.237792637889234015e+01
6.170421692537344960e+00 7.988556827494589285e+00 2.280536399466739184e+01
8.766629723343545066e+00 7.600046898651802163e-01 2.331783999305643107e+01
8.286910285034954526e+00 3.641395695048743608e+00 2.335740391099301760e+01
8.837550373446056540e+00 2.428090613732384551e+00 2.365247334798767298e+01
8.927914461392509438e+00 1.282434181717775123e+00 2.357424470502353131e+01
8.428612210942704408e+00 -7.011591181434358999e-01 2.276616409616244496e+01
6.471219546120686950e+00 7.595690015917170967e+00 2.288525303995912452e+01
5.779571275990566193e+00 8.585625943181906194e+00 2.278733180633663480e+01
9.107485007581484382e+00 1.835478060221450658e+00 2.385790262474310097e+01
7.948124680952370014e+00 5.366281132289508982e+00 2.339961018436978435e+01
8.212843082922288929e+00 4.772843064258284862e+00 2.352928801402192605e+01
8.477237392729783494e+00 4.179895303148073005e+00 2.365878609820187606e+01
8.361504611372325257e+00 -1.148710368932404524e+00 2.263392518151414023e+01
4.513744290819516003e+00 9.715662594286952114e+00 2.259448607995419778e+01
5.375273547375353900e+00 8.987898986784820465e+00 2.273479889601661696e+01
8.741566731149458036e+00 3.586964702273761851e+00 2.378825248984363938e+01
9.054884763574703399e+00 1.999421228793542005e-01 2.355046918716387694e+01
9.216169105956625529e+00 7.203572088347541813e-01 2.380690293085297071e+01
9.016942473362753674e+00 2.980588601622901734e+00 2.393592155711903402e+01
8.942167844604398397e+00 -2.868444942092784333e-01 2.336647489796146360e+01
7.147112571930099634e+00 7.104645900515575541e+00 2.325116850826812609e+01
7.860351279630399368e+00 6.441513918960944274e+00 2.363861318284950030e+01
6.877619887595705528e+00 7.560571691703288799e+00 2.317041466847957665e+01
7.922896910390339720e+00 -1.308551687265728347e+00 2.231730906389590885e+01
8.829389778898843133e+00 -7.735393240078394239e-01 2.318247414689263053e+01
4.970961721511206299e+00 9.390178892477125672e+00 2.268226522430234127e+01
4.018112287777832137e+00 1.048301144134822138e+01 2.277011419895822897e+01
6.599780357841285472e+00 8.018842482007773498e+00 2.312780670416268691e+01
9.287193831368590224e+00 2.388243422858977283e+00 2.414127927772422666e+01
9.377414732674434816e+00 1.242639287721428509e+00 2.406333183091367189e+01
9.557982282685276942e+00 1.795925096706523227e+00 2.434678850897196867e+01
8.403203647416221500e+00 5.311832368948372185e+00 2.383081262403226575e+01
8.138537788545805896e+00 5.905553837301291686e+00 2.370121780772793230e+01
7.582453695772607638e+00 6.976807787230319136e+00 2.357605362081626410e+01
9.230046878330263382e+00 -8.459130614972294460e-01 2.359878506321192049e+01
9.342784886062416305e+00 -3.592628787656492739e-01 2.378281834500807790e+01
8.699966000478454475e+00 -1.668540987613330806e+00 2.291796597029848925e+01
8.248779190529926808e+00 -1.672692434922449234e+00 2.258279145919904352e+01
4.499496970788462669e+00 1.026570675581636749e+01 2.286337949844895334e+01
3.531683539567139540e+00 1.088354664524559645e+01 2.276643752113412944e+01
6.209463760193588477e+00 8.615969789120791589e+00 2.310991492720962626e+01
8.932392000504552954e+00 4.125422535470701924e+00 2.408974733654329370e+01
9.504155923339709489e+00 1.608516362136629685e-01 2.403932928748782061e+01
9.469368903427842099e+00 2.940949121978727376e+00 2.442465144712635805e+01
9.829167470823657382e+00 1.202841428129143075e+00 2.455267794994322728e+01
9.198676058884297291e+00 3.532579834388215989e+00 2.421911631596731240e+01
7.303905867770582816e+00 7.513238164387486151e+00 2.351333670821386690e+01
8.667738593569158212e+00 4.718320356146621819e+00 2.396035260872313799e+01
9.133178613196593076e+00 -1.517261203377360035e+00 2.340048024215133537e+01
7.822497071452280792e+00 -1.988482627823968230e+00 2.228474640076016655e+01
8.486012854602746458e+00 -2.175142444985685763e+00 2.279074857003150001e+01
4.954612295052915449e+00 1.003215419632045347e+01 2.299617896392745919e+01
5.414349889579010089e+00 9.615236942057705960e+00 2.303940013441842183e+01
5.818526112794992322e+00 9.213197791389143632e+00 2.309191697253065811e+01
6.639540593679186031e+00 8.646337087139038147e+00 2.343249754420811470e+01
9.740119055125422420e+00 2.349076352732866635e+00 2.463024014509601045e+01
9.665485908533142378e+00 6.810378318272898301e-01 2.429583207740137496e+01
8.272991962588575277e+00 6.478931929580709514e+00 2.401483754556481998e+01
8.011173479861664504e+00 6.925995581872235185e+00 2.393636105839870609e+01
7.025542404821956133e+00 8.049195862201159457e+00 2.345065864574441505e+01
9.544652287154592685e+00 -1.515089300535202632e+00 2.383889572557766812e+01
8.272739937336153204e+00 -2.681683040292471620e+00 2.266352295965287666e+01
4.485214709688513324e+00 1.081594530154195333e+01 2.313236948007013538e+01
4.001123788767524836e+00 1.112478549389960669e+01 2.308376892430066363e+01
9.953830275707156616e+00 1.212570806190218786e-01 2.452833350083902531e+01
1.001108662787728498e+01 1.756549715408169732e+00 2.483600145830018491e+01
9.614545448542322958e+00 3.631781773245267075e+00 2.467540801921554205e+01
8.784949678804826689e+00 5.259011425806190410e+00 2.419759832363322261e+01
8.624892547890112837e+00 6.048552460077612380e+00 2.421552810266971179e+01
7.939784244027359605e+00 7.641007498757794281e+00 2.411682097571807759e+01
7.472012915919449938e+00 8.229895281124331774e+00 2.390526190652895977e+01
9.792025584936990157e+00 -3.987720387078458328e-01 2.427161138255781481e+01
9.630598315355330286e+00 -9.182791222769237649e-01 2.401510321844554596e+01
9.036112254229674789e+00 -2.188412897840350091e+00 2.320206142944423178e+01
8.824387038980788134e+00 -2.695118509330373335e+00 2.307484145219655503e+01
9.377284909882803277e+00 4.120814522522826984e+00 2.452639754494702373e+01
9.111100008696832120e+00 4.713723572665945660e+00 2.439704870543241100e+01
9.912456633249226101e+00 2.980810212164681783e+00 2.490167100667574474e+01
1.011811487013303257e+01 6.413854973883965638e-01 2.478505608802553439e+01
7.107382239874505458e+00 8.595592056264566239e+00 2.375884556996794572e+01
9.458617398004655286e+00 -2.111768882705980399e+00 2.366266542421774943e+01
5.395601524475454269e+00 1.034858963162422896e+01 2.339790186067343924e+01
5.857418994816518065e+00 9.840079523625259839e+00 2.339616396686187372e+01
4.933258055643351625e+00 1.085757664754202700e+01 2.339964737649910020e+01
6.248239343677485458e+00 9.243486736884241495e+00 2.341432439862916226e+01
1.028234963821886616e+01 1.163073238215938776e+00 2.504199419769125612e+01
9.199590653708709098e+00 5.430831586262049093e+00 2.464444580253851314e+01
8.407401830906584550e+00 7.052152317965132866e+00 2.432834998709465069e+01
9.903136691463783947e+00 -1.386297364365975282e+00 2.429808294737532037e+01
9.862684087146748269e+00 -2.061038141875751961e+00 2.416908915489443288e+01
4.470901434681843867e+00 1.136626356692011264e+01 2.340140095218039562e+01
9.555883379918384435e+00 4.709185560139652615e+00 2.483373985942341733e+01
1.021839729290132937e+01 -4.286795592422470991e-01 2.478556553220348846e+01
1.038286703937986566e+01 9.134102588586713589e-02 2.504252719447244147e+01
1.021043012736304689e+01 2.329642048983509461e+00 2.512799990178646325e+01
1.048161319055751228e+01 1.736946590362610010e+00 2.533400440027934053e+01
1.003026089679096522e+01 3.731000334776373162e+00 2.513162071887323279e+01
8.758662206123158711e+00 6.855860610181025550e+00 2.460362642704219027e+01
6.758328910237239917e+00 9.406617675817681601e+00 2.386501786144473769e+01
8.541806623748151139e+00 7.625387269302129845e+00 2.464184966522075015e+01
7.918422593394539355e+00 8.410661472615556633e+00 2.435992373985207848e+01
1.005615375429710312e+01 -9.486098094507201539e-01 2.452859760634341768e+01
9.372465683982486695e+00 -2.708556042284245624e+00 2.348634689603890990e+01
6.252877819182348418e+00 1.007526109144768256e+01 2.379480310081705596e+01
9.747542627736612175e+00 4.167469162734713350e+00 2.492418758876224771e+01
1.054712240531417322e+01 6.115447231765565039e-01 2.529945047889000520e+01
1.040983906753839250e+01 3.067585780837399856e+00 2.544308861070575389e+01
9.113227366420108666e+00 6.191545884965972135e+00 2.472956170696086176e+01
7.514133006911155377e+00 8.721523428197729189e+00 2.415603122996965624e+01
1.017564843604129088e+01 -1.854218005081726961e+00 2.458103494880940687e+01
9.822241484792183286e+00 -2.735675149433212550e+00 2.404017406651556144e+01
5.891420374228076184e+00 1.036435170427037633e+01 2.368128870386219020e+01
5.448493218936564020e+00 1.107813846408839709e+01 2.379783421264230370e+01
1.070322783737093175e+01 1.244706833128337076e+00 2.552206145303970430e+01
7.189174134698665952e+00 9.141700457705500327e+00 2.406686018667678084e+01
8.272580957131143720e+00 8.073187353253370446e+00 2.455704839307867360e+01
9.734733676489089049e+00 5.298524136201503865e+00 2.514157208523758413e+01
9.512923211452255501e+00 5.828711745627875196e+00 2.504176538732284030e+01
1.048281314634664874e+01 -9.789674569575695928e-01 2.504256899580913398e+01
1.027858854789776721e+01 -1.379098872655390995e+00 2.475460317073432748e+01
9.685990011402626720e+00 -3.097294884226410971e+00 2.384210593899822328e+01
8.994131359443416684e+00 -3.359465050933742702e+00 2.333198328218911399e+01
4.859943094115294571e+00 1.164008696549207045e+01 2.375650542004556343e+01
1.003719615996073777e+01 4.516392573528879240e+00 2.529916943141479990e+01
1.081170770401551806e+01 6.144323428083758171e-02 2.555672070313243083e+01
1.064734533388498861e+01 -4.588165331344704612e-01 2.529964767515108193e+01
1.068067376555648451e+01 2.310220492505106638e+00 2.562575749442280681e+01
1.085463104106189469e+01 1.767982979402479948e+00 2.575449592483100858e+01
1.044593446307055373e+01 3.830266250139771955e+00 2.558784482299852314e+01
9.282274395234701103e+00 6.908103118734786996e+00 2.512150302261791879e+01
8.994938724398579666e+00 7.624998731658778617e+00 2.507763380652577112e+01
7.817982282081479717e+00 9.139839559969841432e+00 2.459479334750262680e+01
1.027160301947078302e+01 -2.762775581966251615e+00 2.459365551422663643e+01
9.361212039709501553e+00 -3.302764929041944075e+00 2.359417037348342561e+01
6.255512771434142749e+00 1.054400427001569973e+01 2.402997761308894908e+01
5.925404794081196691e+00 1.088866659573675477e+01 2.396643841472374703e+01
1.099443218103229647e+01 6.390196663221345830e-01 2.580522442803351169e+01
1.112415566109255138e+01 1.326694899765023417e+00 2.600221525973525516e+01
1.070938013593322857e+01 3.407722382206091805e+00 2.580931490933069128e+01
9.603184685362903039e+00 6.334677807998936316e+00 2.524373819604834424e+01
7.271037649022057181e+00 9.688319372497133486e+00 2.437515448025804687e+01
8.676320253549661743e+00 8.199111425163652100e+00 2.495559971468024330e+01
8.364552089461211537e+00 8.591416998152494600e+00 2.481441588526132591e+01
9.913613525885773825e+00 5.888062077231745128e+00 2.544949680814086079e+01
1.063903626237137523e+01 -1.625169792605787977e+00 2.516703122343025001e+01
1.044819330436515870e+01 -2.322116890237983622e+00 2.486402111779094426e+01
6.649430187244556478e+00 1.031056690612093618e+01 2.419362186072862286e+01
9.349938785555128362e+00 -3.896602287102235440e+00 2.370195249328263287e+01
1.087964603769754390e+01 2.883260040988183448e+00 2.591741238012851767e+01
1.116099446957205821e+01 2.091893789544791105e+00 2.613596550522199280e+01
1.021002865774750390e+01 5.275686030348129663e+00 2.563539811766237619e+01
1.091217838724487166e+01 -1.009357798251107052e+00 2.555714391695916987e+01
1.029211557672926780e+01 -3.318428582725362119e+00 2.457341278470757118e+01
9.999296872391804314e+00 -3.485660192619915776e+00 2.419763363317747462e+01
5.249133668779911943e+00 1.191403710777480995e+01 2.411176885073716036e+01
5.959370698767028074e+00 1.141300906622774214e+01 2.425160623073586308e+01
1.053589705304763058e+01 4.602625677929840009e+00 2.583982254302196324e+01
1.107662876655237305e+01 -4.893223685470930451e-01 2.581431363352617225e+01
1.086169498285943114e+01 3.929622977093766956e+00 2.604420323493926048e+01
9.771853119347856165e+00 7.051233716349130098e+00 2.563543477977086127e+01
9.451303722882466118e+00 7.624688133774300880e+00 2.551341488079418696e+01
9.130315202401947161e+00 8.198354931250369404e+00 2.539126622101803576e+01
8.467166362507734689e+00 9.274293635930980884e+00 2.519976070428480597e+01
1.092532705371571922e+01 -2.207430621664066006e+00 2.545484178588708346e+01
1.072072147168196743e+01 -2.789863106661729208e+00 2.514698950067583638e+01
7.670724550202350223e+00 9.817778494522134025e+00 2.476789787883278748e+01
6.502234218785214459e+00 1.097959376481795601e+01 2.442228210967407165e+01
1.113333001008626155e+01 -1.624119169957064290e+00 2.576307496375288864e+01
1.125918662840907913e+01 8.855383545962539071e-02 2.606265430781172299e+01
1.107853443788838277e+01 3.456105716954619211e+00 2.620896942357021686e+01
1.154453878630817165e+01 1.408959850268883152e+00 2.648176868426071451e+01
1.009252158289546486e+01 6.477142124938964685e+00 2.575750217557783728e+01
1.038872050360081012e+01 5.865104232615024671e+00 2.594324749076197634e+01
8.810696979170666410e+00 8.772299028090175810e+00 2.526903541941127429e+01
8.123002041304136611e+00 9.776988658050816738e+00 2.513037836847681206e+01
7.352923134583076781e+00 1.023511228324998790e+01 2.468354076643499795e+01
7.043115374840131615e+00 1.054621339978681682e+01 2.459297027762016086e+01
1.067336225597680155e+01 -3.527299227486757616e+00 2.502786309048898872e+01
1.148654334601927296e+01 7.096131570905455099e-01 2.636467400508495373e+01
1.138321664497202867e+01 2.780474367722950646e+00 2.646757638727923023e+01
1.068528500233789558e+01 5.252275205713011985e+00 2.612922399478909341e+01
1.134141101155213249e+01 -1.039746843035149748e+00 2.607176788808917678e+01
5.993309322420701690e+00 1.193724002952220786e+01 2.453671809627733680e+01
6.498325856262932021e+00 1.190168795049504702e+01 2.487852974921609928e+01
1.138069800803655873e+01 -2.210162904454537891e+00 2.602914286497711061e+01
1.101541334656608839e+01 -3.225219895894969380e+00 2.550051760960239022e+01
1.111158310928104065e+01 -2.824772037183874929e+00 2.564009630835482056e+01
1.098142439746112053e+01 4.640281133446898743e+00 2.631493623680647076e+01
1.155020662660662190e+01 -5.171146579839390744e-01 2.634557212917439983e+01
1.155432792795797425e+01 3.414488316661110634e+00 2.673556141246285733e+01
1.166005512688684576e+01 2.166058328228968932e+00 2.670252246965712217e+01
1.180244379450980041e+01 1.013364992126960740e+00 2.674294917169338959e+01
1.127744038539961124e+01 4.028475690262520281e+00 2.650057246970770208e+01
1.020290897083707371e+01 7.042821866130806185e+00 2.602908048595744361e+01
9.898282024686205105e+00 7.529728311803861374e+00 2.589554632451383398e+01
9.406337571286758958e+00 8.449284978863449425e+00 2.572020795820449379e+01
8.882528525676535835e+00 9.316941119727545129e+00 2.555334151881264759e+01
1.157894325156589233e+01 -1.512322673525265726e+00 2.633433207149069588e+01
7.778957488075350035e+00 1.027926921415695993e+01 2.506104709965879707e+01
5.638234654937743784e+00 1.218792722326168132e+01 2.446694159387897471e+01
5.042119711001139315e+00 1.240208751026114342e+01 2.428028259426474733e+01
6.970571872136005709e+00 1.134149317127282330e+01 2.493512552063483412e+01
7.434748235294117436e+00 1.078154447215757905e+01 2.499171683691500334e+01
1.175927460231533139e+01 6.354312423459375185e-03 2.661977173186628676e+01
1.196482300560166401e+01 1.491257682227293824e+00 2.696122409954338650e+01
1.050814395844940385e+01 6.669868970287175181e+00 2.621261206736021521e+01
9.199478553875087172e+00 8.993201367411810310e+00 2.569299682696955500e+01
8.560070355517453322e+00 9.737462722155056483e+00 2.546730674367314506e+01
6.027243368829016568e+00 1.246172346945548881e+01 2.482197246979096761e+01
5.492121212039431377e+00 1.292956916862217476e+01 2.480987434226207355e+01
4.913701420195661917e+00 1.291176845894783298e+01 2.450158264605458669e+01
1.150451045760654090e+01 -2.860078265486491134e+00 2.613432293112600746e+01
1.183116464448466587e+01 2.800416954559299398e+00 2.697050477388367895e+01
1.196792808740504022e+01 5.289353335318673910e-01 2.689345835197758205e+01
1.080450315622005419e+01 6.057462989668072950e+00 2.639844529360670577e+01
9.794113935763288481e+00 8.093950371643572339e+00 2.596955324621469074e+01
1.114342635483485289e+01 5.077312434819027942e+00 2.655924118632338349e+01
1.175570210332271337e+01 -9.823794852646472453e-01 2.655154828220918972e+01
8.029450651010190398e+00 1.054678657658369190e+01 2.537471094995316179e+01
7.467195367465994771e+00 1.129933901844842303e+01 2.529742219302993789e+01
7.499532506872667703e+00 1.181685807689178525e+01 2.560296498449045188e+01
7.795893309338310040e+00 1.103335144313949634e+01 2.538825093685806067e+01
1.191631356354022486e+01 -5.042994601274292110e-01 2.676711463078044062e+01
1.181684081450358370e+01 -1.985469543217410759e+00 2.659729982098694023e+01
1.142621224760588383e+01 4.597440929049000147e+00 2.675590335383808238e+01
1.171196436239394778e+01 4.188641288924269901e+00 2.697181857850749864e+01
1.210800695333385057e+01 2.185920472076031906e+00 2.720545062466360164e+01
1.217641201340614998e+01 1.051247199216816419e+00 2.716694779174265051e+01
1.118973070095244715e+01 5.611827656720558721e+00 2.670481112588259620e+01
1.031316863505567483e+01 7.607991452769449658e+00 2.630038188635801433e+01
1.057952097809556058e+01 7.179185614697206397e+00 2.643024672187122448e+01
9.682360223167719937e+00 8.699615132454100674e+00 2.604914373744745859e+01
8.954386183989669235e+00 9.861929266797140770e+00 2.583785450474476519e+01
9.237857260251887581e+00 9.482103512747556806e+00 2.592596422360567132e+01
8.479566760620233623e+00 1.029713034727174836e+01 2.563477207502962329e+01
6.922921305362433664e+00 1.228167969798139225e+01 2.541269974228941209e+01
6.345436582559225158e+00 1.274656373800419651e+01 2.522245549136413700e+01
8.157116496962276031e+00 1.128528787570962599e+01 2.578489090256451988e+01
1.222426299362800073e+01 -2.173788355686301355e-01 2.713961332998180254e+01
1.170724881067187617e+01 -2.461682923381357746e+00 2.642143507100378130e+01
1.204320359095347470e+01 3.594582742944124387e+00 2.726573484410183212e+01
1.092371224040659605e+01 6.862537550817321197e+00 2.666763998218979026e+01
1.132380214822492803e+01 6.299065355043996561e+00 2.696720027826304289e+01
9.588060172588818375e+00 9.213003761730123031e+00 2.611673875164512992e+01
1.199594645776601709e+01 -1.478603637481854971e+00 2.681664222104387463e+01
6.006658775598484823e+00 1.304119298102653168e+01 2.519501990464344132e+01
8.025487546270918315e+00 1.193590726617615339e+01 2.604523847006739246e+01
8.222209560593279676e+00 1.081208525326059977e+01 2.564077864496277925e+01
1.245844190158213038e+01 4.110985957237980326e-01 2.744951323477069138e+01
1.216959453796031276e+01 -9.250656349024667380e-01 2.703088029167280126e+01
1.238484325826564358e+01 1.573415258760337387e+00 2.744038910846979817e+01
1.239067984009329848e+01 2.904105013960145865e+00 2.756793844397982696e+01
1.005295619270262009e+01 8.436537966261667520e+00 2.631047360227479359e+01
1.157495605129235905e+01 5.166189583373375527e+00 2.701117407333964593e+01
5.441740836988524066e+00 1.342981928488105048e+01 2.511228388530496858e+01
1.218402850241328217e+01 -1.977319757971278458e+00 2.702144325933796054e+01
1.186075052645817962e+01 4.757541058517223753e+00 2.722714702444777757e+01
1.172388835834333776e+01 5.735588105495139644e+00 2.726675844457735209e+01
1.088132255285191441e+01 7.614280098154154963e+00 2.684714426804926646e+01
1.042345207312039257e+01 8.173454786713270082e+00 2.657179978644573026e+01
1.010515239073288285e+01 9.044898768553006008e+00 2.654150375995126865e+01
9.026291404955982145e+00 1.040704592033191922e+01 2.612266514807329543e+01
9.501338508177033404e+00 9.919805846643891201e+00 2.633136993352389155e+01
8.591806398703978331e+00 1.084646615341014275e+01 2.595377677560455609e+01
6.663839087442494424e+00 1.303159697401567740e+01 2.562318147007234970e+01
5.986023297267599297e+00 1.362072025024156652e+01 2.556811053403207623e+01
8.518763410657561153e+00 1.153761384191382611e+01 2.618201534723885970e+01
7.531181198457876924e+00 1.233430522565704557e+01 2.590846850856880579e+01
1.271472993832057519e+01 -1.705763636945250572e-01 2.770628726097615058e+01
1.258350807413049388e+01 -8.677462418853680859e-01 2.751024654087190413e+01
1.245111377833339894e+01 -1.529790153333511427e+00 2.734092269083725668e+01
1.256245847639787883e+01 2.114622321772400060e+00 2.767650687848875535e+01
1.264114516412076306e+01 9.917759128076873987e-01 2.769717088440569341e+01
1.214654308335438415e+01 4.348821347384863145e+00 2.744311717799739370e+01
1.257335684422802302e+01 3.775291184600125138e+00 2.783933357345821591e+01
1.133912608549030843e+01 7.055105555068880818e+00 2.712247889384571309e+01
1.187265224720295009e+01 6.304296837623586391e+00 2.752204615838775936e+01
9.976550440837351985e+00 9.432562733847273506e+00 2.654006960498274736e+01
7.125310537370352471e+00 1.274833572688935845e+01 2.582338085709017861e+01
5.391272338574324863e+00 1.393006978676632990e+01 2.541470025678840017e+01
8.411849307161780587e+00 1.198230509930846388e+01 2.634775055071287397e+01
1.291771394613118673e+01 3.200269744726027987e+00 2.814877357497609722e+01
1.289744075504338205e+01 4.100796793310095834e-01 2.795394455190618288e+01
1.164705583369959463e+01 6.735206066024225890e+00 2.737406964246403263e+01
1.053392881887773491e+01 8.740116240842668915e+00 2.684377365189816800e+01
1.193977199091917463e+01 5.278665402164948617e+00 2.740279200707585971e+01
9.098066589232034929e+00 1.095138617532978564e+01 2.640707353335761809e+01
8.102560843913924060e+00 1.245809941963062251e+01 2.638539638284769495e+01
1.299687898929284025e+01 -8.105011624625346744e-01 2.798899157266894733e+01
1.280276448901362585e+01 -1.269229010514137057e+00 2.775343326364242102e+01
1.282812353798086669e+01 1.703073190438614049e+00 2.792328623662668718e+01
1.224957528590926970e+01 4.989848940259089538e+00 2.766509092512171364e+01
1.274008152460600662e+01 2.657428283343864273e+00 2.791263437592277441e+01
1.228968550533522830e+01 5.744053330434087279e+00 2.784377152858822058e+01
1.094191492685665423e+01 8.420323489228202618e+00 2.714135367092205797e+01
1.036540022383564086e+01 9.652075538065970406e+00 2.696336803903345469e+01
9.542465374689941271e+00 1.057279569641665695e+01 2.663386030565308715e+01
9.986775125208334103e+00 1.019419924567335123e+01 2.686064759690345483e+01
6.982222889143107736e+00 1.331662706846537070e+01 2.602386204034875306e+01
6.518398342596601225e+00 1.354339282386265886e+01 2.586853859369808006e+01
5.965273253288106758e+00 1.420087556452056532e+01 2.594161195274185516e+01
8.879895708576235336e+00 1.178851004077774434e+01 2.657859350550456412e+01
7.560052223728831677e+00 1.285160831981340301e+01 2.621389355113517539e+01
1.315373374274065732e+01 -1.716519983730491750e-01 2.821071428489641519e+01
1.311006126783997416e+01 1.063241064737428410e+00 2.820574782785455881e+01
1.258138379599051149e+01 4.509092910493919248e+00 2.791469373444408930e+01
1.300574181838828558e+01 2.244293740773968260e+00 2.815940632654329434e+01
1.309551809088424079e+01 3.743421438096127041e+00 2.838514036214526470e+01
1.140088569858190759e+01 7.855229987280995196e+00 2.741602583743333810e+01
1.175441968304855855e+01 7.247589057520826827e+00 2.757716805548160721e+01
1.202125880057329788e+01 6.872374537295908858e+00 2.777705822794674617e+01
1.064416134328439156e+01 9.305759660946435474e+00 2.711524596166381329e+01
9.169779757840053946e+00 1.149546510451158987e+01 2.669135300946479816e+01
8.595566757543561920e+00 1.224005075508446261e+01 2.662032801049767272e+01
1.288525203935109076e+01 4.173699267655525347e+00 2.820342344934752177e+01
1.337917531064588594e+01 4.525086838686840363e-01 2.847536059961508670e+01
1.327140193034278326e+01 1.832730722356197717e+00 2.840617702741069905e+01
1.318029685869658785e+01 2.988599718056323962e+00 2.840977509694607761e+01
9.515819818187869927e+00 1.107580295989267150e+01 2.681680387598590443e+01
5.172405804168075605e+00 1.461337961444846201e+01 2.573736615751279899e+01
6.623407668332993659e+00 1.400827264962071617e+01 2.624819245616605912e+01
7.970023612433473126e+00 1.298565627824873836e+01 2.657844339059132821e+01
7.589376499008685606e+00 1.336917979460390171e+01 2.651948361979930979e+01
1.268187329177458089e+01 6.397022707184471635e+00 2.836204013064293505e+01
1.075438720277466942e+01 9.871644376341613736e+00 2.738682478568318146e+01
1.037520611778367119e+01 1.041349593851256294e+01 2.728406305435332158e+01
1.267376768641641327e+01 5.237363399061875313e+00 2.814178306588595646e+01
9.619120353156205283e+00 1.149811524128862139e+01 2.707836558939521510e+01
9.997210010302223893e+00 1.095581715959517233e+01 2.718120995974670961e+01
7.300430515119143315e+00 1.360151088670203023e+01 2.642429092667197210e+01
8.435756529053596964e+00 1.296383833589212031e+01 2.690035945155934627e+01
9.241474861856222134e+00 1.203961592319627627e+01 2.697568137850750958e+01
1.301646038702730124e+01 4.669444844364944558e+00 2.838652036601852302e+01
1.362948920432089750e+01 1.182303187330527861e+00 2.877046653183757741e+01
1.345384094110328377e+01 2.494209599925973464e+00 2.865790170299883499e+01
1.327330622397727211e+01 4.286394099546462222e+00 2.862148548059267128e+01
1.360225254543589379e+01 3.237398433231270189e+00 2.888033422626287816e+01
1.216977095685309607e+01 7.440072915327763603e+00 2.803190443393230780e+01
1.242576612131407110e+01 6.918674505331913416e+00 2.819693676143795358e+01
1.110827647598255652e+01 9.263923967866803721e+00 2.754805784273230529e+01
1.146256763406927881e+01 8.655319187756186139e+00 2.770952085706247203e+01
1.181633940576573316e+01 8.047460401614920045e+00 2.787077963749821308e+01
5.547900112636438230e+00 1.498669271589195162e+01 2.621261133825225187e+01
5.944420180339888837e+00 1.478068686321281255e+01 2.631489954971420531e+01
8.838928666484598295e+00 1.250160003499186168e+01 2.693802740394469097e+01
8.029092040507389783e+00 1.342545187402946993e+01 2.686267495883326006e+01
1.371467915410948635e+01 1.962388761941005422e+00 2.888906271428038863e+01
1.355524211878043772e+01 3.825300473836954929e+00 2.888138738310259512e+01
1.293825673637346263e+01 5.874771663172465352e+00 2.852731974330329123e+01
7.618909908511162676e+00 1.388665719917191055e+01 2.682502860591063509e+01
6.488805199101942200e+00 1.486891937022631183e+01 2.673361595606667862e+01
7.053735395671619557e+00 1.437782666650168117e+01 2.677930981728839654e+01
4.905731520395828049e+00 1.522165161412142531e+01 2.604768177045811939e+01
8.864674306773833834e+00 1.298274969720569594e+01 2.724543504899102331e+01
9.236055613965126199e+00 1.259971992343486669e+01 2.730574219601768249e+01
1.396894646546091678e+01 1.548531366488586247e+00 2.914937122904258970e+01
1.290787915612285985e+01 7.104332828213192563e+00 2.875261834848526377e+01
1.319461375923352975e+01 5.352522853685034221e+00 2.869258048684325502e+01
1.136702241127275670e+01 9.551865526138033857e+00 2.791112674478995004e+01
1.078478721698581033e+01 1.046885223421417699e+01 2.770210748966777459e+01
1.224488983105172402e+01 8.062474492987126595e+00 2.831740258560625989e+01
9.848602582693292362e+00 1.179601634018447243e+01 2.743998687850749718e+01
1.043381952678106295e+01 1.092268977375410088e+01 2.758291780440116270e+01
9.581731291576881304e+00 1.232301002832824288e+01 2.743638467356769439e+01
1.389808171402880532e+01 2.637341961487411179e+00 2.914298475864297089e+01
1.345122386493359201e+01 4.829674643457024352e+00 2.885800226499928911e+01
1.368142129294330012e+01 4.307602017680716600e+00 2.905754829113164206e+01
1.391167881977448850e+01 3.785276796822869549e+00 2.925714576030663849e+01
1.256941412569800853e+01 7.663162345862706282e+00 2.850704549505784513e+01
1.324779685289830589e+01 6.486781717274570980e+00 2.898743727712532348e+01
1.191228783975739525e+01 8.577484624181678896e+00 2.814692027766610138e+01
1.112725948497545758e+01 1.013229660825138012e+01 2.785804291268382826e+01
5.923451415147130028e+00 1.536008391002351381e+01 2.668792772399161706e+01
7.932643316033158420e+00 1.418980097618625358e+01 2.725111080932133589e+01
7.579191785813830684e+00 1.440090545855237814e+01 2.714439632792094415e+01
5.335690006551084608e+00 1.574553051001021231e+01 2.666329895494143543e+01
8.679069845712641396e+00 1.347916669370124332e+01 2.739773871966365704e+01
1.002036551357986838e+01 1.209015791647557947e+01 2.774466701934375124e+01
1.415795439135238887e+01 2.092046817668874681e+00 2.937194278193080521e+01
1.332438202827563956e+01 5.885809147557972132e+00 2.894349372955952759e+01
1.031399999756440344e+01 1.153207510604958053e+01 2.775907063407527176e+01
7.539597808459554074e+00 1.491560491873549310e+01 2.746404685332868922e+01
9.230349198096241992e+00 1.315964482888156084e+01 2.763570025416055387e+01
9.922193806211716094e+00 1.260661536448592557e+01 2.789743904277274922e+01
1.414159142563892857e+01 3.263499581567697039e+00 2.945644362956738860e+01
1.417742578476116577e+01 4.457708629520825028e+00 2.963300744917941643e+01
8.321116765549030347e+00 1.393543817257124928e+01 2.739757524977191494e+01
6.877357043019549643e+00 1.529897632030166754e+01 2.728127217332105303e+01
6.214711342036761010e+00 1.568244816544557274e+01 2.709850800689450168e+01
1.357114260883918533e+01 5.451465187120276390e+00 2.911689929897582019e+01
1.437148329429908600e+01 2.741858887388708865e+00 2.965572289073407219e+01
1.386676779205038379e+01 5.020930682504437748e+00 2.934759962145116674e+01
1.339001417442800879e+01 7.290137110306452506e+00 2.930835790881057790e+01
1.369105659840384881e+01 6.073152185260301650e+00 2.937579148143165142e+01
5.846625377629985465e+00 1.591855515613390892e+01 2.706464020600596498e+01
1.040247044635957252e+01 1.222071651887216781e+01 2.817242736376999801e+01
9.224041377412712350e+00 1.371977470734163340e+01 2.796578313232508251e+01
1.450064715298058005e+01 3.639418390569640671e+00 2.990346333448849592e+01
1.381079457155300894e+01 6.693924543521813320e+00 2.963431869046143063e+01
8.246807934955635133e+00 1.449336316227287824e+01 2.767771156682911737e+01
7.499985071359319910e+00 1.543015744125843547e+01 2.778360895355498528e+01
9.743606552252828124e+00 1.330502271717149654e+01 2.816216352654464927e+01
8.734792194906406237e+00 1.410673696415836886e+01 2.782174240832393153e+01
8.006955893273259406e+00 1.504348937581142032e+01 2.788004399973180725e+01
6.506113476290714459e+00 1.600499936035093640e+01 2.750929778253068392e+01
7.023817096094211010e+00 1.578610049052536723e+01 2.770628100283020245e+01
1.026264680459429179e+01 1.289025179455159709e+01 2.835855154011468926e+01
1.398657445611187100e+01 5.642595789308328058e+00 2.960635794454459457e+01
1.428208984565584849e+01 5.212022577987138305e+00 2.983692297716250152e+01
1.467261861642604259e+01 4.638529266086316660e+00 3.021105287042895071e+01
1.405864279291731833e+01 6.261579752875821470e+00 2.981289335675457863e+01
1.012343083048572545e+01 1.336726724617053108e+01 2.852464156992298072e+01
9.778409455153001417e+00 1.387211348170069414e+01 2.853313315461668154e+01
1.437288461561159991e+01 5.928361233862302626e+00 3.008393479379755320e+01
1.469736358144693789e+01 5.403041275641912833e+00 3.032618031387043089e+01
1.439782358012559094e+01 6.793291347783656953e+00 3.029052250273920777e+01
1.479803506201253249e+01 6.170718727894235478e+00 3.059455514239827778e+01
1.511262492409434977e+01 5.594010074840063851e+00 3.081541666149148995e+01
1.527658569786121134e+00 -3.784470393631760743e+00 4.355084386261765417e+01
2.025372540302853519e+00 -4.273931098901109671e+00 4.358018422912395806e+01
2.253205334944710980e+00 -3.778326727610465507e+00 4.383940598960225543e+01
2.149550792159760082e+00 -3.259509063874418633e+00 4.397559221520453576e+01
1.610829492520617690e+00 -3.108383037320536335e+00 4.381462230500682153e+01
1.903630130379762031e+00 -2.677059851848308636e+00 4.405182594967967447e+01
1.410801266701414702e+00 -2.574897666610421965e+00 4.389411722650435621e+01
1.071264853425709651e+00 -2.956945010305469079e+00 4.365333368274790615e+01
2.389850625931306372e+00 -2.610700423665847314e+00 4.425599647399327807e+01
1.970374411632499045e+00 -2.134872247516339527e+00 4.423509427376070136e+01
2.809218999487599344e+00 -3.086382900643094285e+00 4.427689297316331363e+01
8.714590530897210474e-01 -2.423387569163935495e+00 4.373301115190987787e+01
1.210890988840656268e+00 -2.041340771585234748e+00 4.397360608871601784e+01
1.550952009475818683e+00 -1.659074691222086617e+00 4.421419483532679351e+01
2.169287898089420796e+00 -1.810510952376141347e+00 4.440969551102334378e+01
3.107734651412795035e+00 -2.599960264659007425e+00 4.453881417630049810e+01
2.788078032439734955e+00 -1.961983662359253477e+00 4.460524284324514355e+01
5.845726792077650114e-01 -1.739431064015839912e+00 4.370685366606195998e+01
1.049324767974790795e+00 -1.342361900905705063e+00 4.401389596251785719e+01
3.493986512806667832e+00 -3.129659610723539487e+00 4.453066937723228591e+01
1.258970807727042507e+00 -1.017280549078185325e+00 4.415620473742689711e+01
1.927529810456494852e+00 -1.256422027525457175e+00 4.446397384832383892e+01
2.546466796798399379e+00 -1.407803444017027727e+00 4.465952957394389244e+01
3.406960362171412626e+00 -2.113405185301875822e+00 4.480072406807941121e+01
3.020965316704293357e+00 -1.570614660731065815e+00 4.479705023326147284e+01
3.760006258852576888e+00 -2.697294784333005513e+00 4.476352271874564082e+01
5.480195371028057094e-01 -1.025749774756079535e+00 4.381366236606186959e+01
2.304948472045347696e+00 -8.535644476669717040e-01 4.471381496162201330e+01
4.176055960751788199e+00 -3.124711800188045618e+00 4.473004754292335861e+01
1.838154559221462925e-01 -1.306586753926370248e+00 4.357829799622646050e+01
-6.301841126275062321e-02 -1.713620498541534865e+00 4.338041395221394225e+01
1.682855626168528573e+00 -5.641975939359737957e-01 4.443722593870523951e+01
9.666959113538720061e-01 -3.746411472557997779e-01 4.409813873502724135e+01
3.132460662411880481e+00 -1.055565686655173696e+00 4.497450337089687622e+01
3.581254340476403009e+00 -1.660240430896618324e+00 4.498541206881160548e+01
4.029941921379206704e+00 -2.264916775254361525e+00 4.499632153015223679e+01
4.479511836465295715e+00 -2.638295552218825613e+00 4.499192225780271315e+01
4.684780552731638431e-02 -7.091418711261207042e-01 4.361343073811119098e+01
-3.606365073748215577e-01 -1.167603694139577319e+00 4.332453093286574131e+01
4.601112973475083856e-01 -3.108500494147880544e-01 4.386313885896380782e+01
2.683421625468692451e+00 -4.507130590434063611e-01 4.496359238727845309e+01
2.107576863434585945e+00 -1.109970776532760300e-01 4.471823729718311569e+01
3.926142286726883146e+00 -1.055239595195723412e+00 4.530879878558656770e+01
4.365964445618653045e+00 -1.727431223017529049e+00 4.529628304579335207e+01
-6.833814803096692758e-01 -1.514912855745278231e+00 4.303791090294109978e+01
1.532969166857145904e+00 2.285245212818253213e-01 4.447305634227177507e+01
6.750256179752234242e-01 2.669162023733965827e-01 4.404017502288834152e+01
3.272978810749734624e+00 -5.012218793029026287e-01 4.519667976231832540e+01
4.620586387022711072e+00 -2.229819260762451183e+00 4.519820453352198086e+01
-8.336756190610999928e-03 -6.459657856712856805e-02 4.366969522626472866e+01
-4.545504157383203347e-01 -3.923258736870431362e-01 4.341306651163040442e+01
9.577856004747188345e-01 5.686333791124598136e-01 4.422750211941492182e+01
2.467557515296603832e+00 1.331828436136974769e-01 4.492479338784585963e+01
3.037863245398709999e+00 -7.809700127010044124e-02 4.520700616654328030e+01
-6.584149994429880914e-01 -6.212077144441595644e-01 4.326860725732348811e+01
1.892630486962492586e+00 4.722393567961188920e-01 4.467956446497946388e+01
3.861759857964802478e+00 -5.517592432995525042e-01 4.542988016375986859e+01
4.995793832735060391e+00 -2.577702917539280936e+00 4.518025152179206572e+01
4.701654304466693191e+00 -1.190093995292010209e+00 4.559612711857987222e+01
-1.160332105499786159e+00 -1.161906037275987957e+00 4.282276274274097005e+01
3.835136552164081780e-01 9.084710184216422402e-01 4.398222585737280355e+01
-6.328224190015924178e-02 5.803232361216432711e-01 4.372592909458649046e+01
3.559280288010464588e+00 -1.534232899899944935e-01 4.540561988894992140e+01
4.449594681449759115e+00 -6.022560878423969255e-01 4.566287879893402391e+01
5.175239330496585133e+00 -1.741717356500218639e+00 4.555070628832857693e+01
-5.101459147154200346e-01 2.519413106510027256e-01 4.346917739255576407e+01
1.437695814611357648e+00 8.928897210898320003e-01 4.450311136401467138e+01
8.622649109547076973e-01 1.232647005268644014e+00 4.425744289587574798e+01
2.821748227570585854e+00 5.050288731105909701e-01 4.516812351086836230e+01
3.391120573062404997e+00 2.941456350045136836e-01 4.545017336722923318e+01
4.046068658465023837e+00 1.647076754901265552e-03 4.564905482711236573e+01
5.211140259428340471e+00 -2.194683493816600883e+00 4.540017722070420803e+01
-9.557024102956687139e-01 -7.561124852711016697e-02 4.321276581375254011e+01
-1.314607117757229160e+00 -4.617032324699084089e-01 4.289423639943306199e+01
2.252623769103381246e+00 7.159548764999422721e-01 4.488607156099156725e+01
5.037383869618575538e+00 -6.527668929492294048e-01 4.589592990002076078e+01
