-1.036834999558615955e+01 2.254704725719228975e+00 1.840567736949693867e+01
-9.277353226729095681e+00 3.030186594016770485e+00 1.859081323583308532e+01
-1.167728593523919400e+01 -1.372697206465553599e+00 1.869020667801871838e+01
-1.171126415832005740e+01 5.838440007996843484e-01 1.832507820580008939e+01
-1.203078354998347699e+01 2.817407609875635099e-01 1.844938903432245425e+01
-4.144546953461870409e+00 4.140988751303973814e+00 1.921444546258960528e+01
-6.680101596225406446e+00 3.886265747382473990e+00 1.892196578848846045e+01
-1.091905374303494725e+01 1.898810139732380220e+00 1.839553132369675836e+01
-1.124626159875981557e+01 -2.024690714104730116e+00 1.867920073971298933e+01
-1.234812126010735334e+01 -2.032287860548309330e-02 1.857366976883415433e+01
-1.210884744200261842e+01 -7.202575380152453910e-01 1.870121977108601286e+01
-1.146965347209600417e+01 1.542985619978431977e+00 1.838535056260000644e+01
-3.217955647236431016e+00 4.087267593913720631e+00 1.929562730313740460e+01
-1.065815307665790179e+01 2.930184030506197246e+00 1.860066348555282190e+01
-8.731704442243595210e+00 3.418031730145095537e+00 1.868336956609310207e+01
-1.177481076070547061e+01 -1.528821534755261613e+00 1.890923973940574498e+01
-1.202007920563437793e+01 1.187280149147727171e+00 1.837513130533755756e+01
-5.383346981532011633e+00 3.967343895208736537e+00 1.905077829265722755e+01
-5.018367628530729263e+00 4.338120782207736781e+00 1.917721021647177793e+01
-2.295253496954143380e+00 3.867150598761081692e+00 1.933173199531938380e+01
-8.186140257976321166e+00 3.805815939443188078e+00 1.877589009260036690e+01
-7.540156644738254421e+00 4.255797408219634370e+00 1.894624334387581754e+01
-1.014908868460159042e+01 3.304438283069616400e+00 1.869047699866820622e+01
-1.097154592471037660e+01 2.658798419384228673e+00 1.858955306843575173e+01
-1.154049401654125440e+01 -2.217526916187400499e+00 1.923270692259419690e+01
-1.230315257924259953e+01 -1.033033421456546197e+00 1.913918647415242447e+01
-1.249747841949212557e+01 8.852702484767176472e-01 1.854917352029656286e+01
-1.254008688774996827e+01 -6.870152614571599370e-02 1.871221815741279215e+01
-3.840605734984700259e+00 4.567015325434169881e+00 1.936018404917943769e+01
-5.930149965072189389e+00 4.420292186481449725e+00 1.912272131527608821e+01
-9.457911625594666916e+00 3.783292076404758397e+00 1.880427723596774570e+01
-1.174237786713566045e+01 2.160387883938339471e+00 1.857527275400823186e+01
-1.206261271639815646e+01 -1.593043821909124302e+00 1.933791447159208587e+01
-1.297189230956998607e+01 5.832848335494049685e-01 1.872322365941157685e+01
-1.283147485482870920e+01 -5.370651274291858845e-01 1.936912277000576310e+01
-1.229287139179598931e+01 1.804600764031150995e+00 1.856506311163470357e+01
-4.531515977264503725e+00 4.708985374548825042e+00 1.932701054791948536e+01
-2.484012669504872317e+00 4.556135875565214377e+00 1.949723617140789855e+01
-6.895103704872662220e+00 4.705128624108607660e+00 1.911633194289349547e+01
-1.094775303742055428e+01 3.605408501219317774e+00 1.879550298643098927e+01
-8.912657357994355323e+00 4.171304723218730359e+00 1.889686635847610674e+01
-1.221603160938813026e+01 -1.818168442811382457e+00 1.973954127985847506e+01
-1.262386014727063177e+01 1.704252187496425597e+00 1.865346523158793346e+01
-3.264342241126693356e+00 4.817992300941920547e+00 1.948702336115059452e+01
-7.776182724875685182e+00 4.975356362523203124e+00 1.918718327605169094e+01
-8.486604971358215010e+00 4.481120908744837372e+00 1.900006715727825934e+01
-1.157441675008174720e+01 3.062761866908780384e+00 1.877333070627186373e+01
-1.207005941610687572e+01 2.742352125539651908e+00 1.876418408367992541e+01
-1.259723248637364179e+01 -1.225512589502379734e+00 1.969266466335214361e+01
-1.183516923486713068e+01 -2.410400000000000098e+00 1.978639344443308445e+01
-1.316527970778592938e+01 2.708339571797631629e-01 1.916127422872686381e+01
-1.304945922677337755e+01 1.560120314047715340e+00 1.881672434035207786e+01
-4.044662102223108846e+00 5.079852069465450981e+00 1.947681025405992372e+01
-5.311836374136508887e+00 4.970864997693486664e+00 1.931680239002946564e+01
-6.250193998528457584e+00 5.154359994980325155e+00 1.928636611091003417e+01
-1.038316224577399183e+01 4.132828787787376612e+00 1.892620219321955233e+01
-1.335959134586500596e+01 -4.089885266077979142e-02 1.959896781685217348e+01
-1.297842757745028663e+01 -6.330737636901653254e-01 1.964580627977089833e+01
-1.334086722945603043e+01 1.252070378596134903e+00 1.891491744329075431e+01
-1.256569667988274830e+01 2.422008183453084662e+00 1.875500651715875478e+01
-2.821120160759347240e+00 5.139375280844261873e+00 1.963587808298003523e+01
-7.131203287123188517e+00 5.424621465727182290e+00 1.935723606656058138e+01
-1.217752748512078043e+01 3.466973476451927105e+00 1.895718247792795097e+01
-9.638471709592220549e+00 4.536555531361225135e+00 1.901772604986723181e+01
-1.244867452326887047e+01 -1.827079140793037126e+00 2.008970627058053893e+01
-1.346015806196212949e+01 1.037967039716672479e+00 1.904451673116220789e+01
-1.322845929331998782e+01 2.221982566935045256e+00 1.893217720159357498e+01
-1.309696980145415246e+01 -8.770262331093807706e-01 2.006968516798497149e+01
-4.824977686788156639e+00 5.341716331573586274e+00 1.946659683853897960e+01
-8.786749248451524608e+00 5.155819521408973038e+00 1.922399113239394808e+01
-9.142507120278761334e+00 4.774734993724750964e+00 1.909717822394794240e+01
-1.200941585987164295e+01 4.076237159301471458e+00 1.906583636620690925e+01
-1.123742562499001885e+01 4.280785141412550843e+00 1.899038044236612066e+01
-1.306240211086821823e+01 -1.243571357264041000e+00 2.039311239955619826e+01
-1.218288017869097395e+01 -2.626885699369581051e+00 2.046242946591372913e+01
-1.375068295408329355e+01 5.704354519369395637e-01 1.970136967003839601e+01
-1.351773745593530407e+01 -3.496921975903796165e-01 2.014765693478561559e+01
-1.370644601200844725e+01 1.920385564417450341e+00 1.910646561063180471e+01
-1.283872662314399804e+01 3.040014121024379623e+00 1.894508060514852232e+01
-3.452105472417103638e+00 5.559190381789983704e+00 1.969092867602710228e+01
-2.036781440261970388e+00 5.036003970352447290e+00 1.969478012484438523e+01
-5.605288094409437427e+00 5.603584433164129130e+00 1.945638317024484465e+01
-8.092152613602509703e+00 5.765939779771462881e+00 1.945043328228290846e+01
-1.087367533540979814e+01 4.662217179896011920e+00 1.908610589413185110e+01
-1.275023864167889620e+01 -1.879312661627854153e+00 2.055126619885522743e+01
-1.394867300151986633e+01 1.493025142758798829e+00 1.936597458401392657e+01
-1.393557086119798782e+01 4.916503802406140267e-01 2.001852365828057145e+01
-4.387944555970712202e+00 5.811342173380603882e+00 1.965984055581999357e+01
-2.568774540513915294e+00 5.564596355344901824e+00 1.979433401200493492e+01
-6.421105767934475850e+00 5.918693543302715909e+00 1.954425131057693221e+01
-1.278139967915450903e+01 3.871711566863454745e+00 1.914126742879776089e+01
-1.036434590694316071e+01 4.901836276589182084e+00 1.913859611334361333e+01
-1.367623062467885120e+01 -6.599885937499999633e-01 2.069655344288535659e+01
-1.414154574648168072e+01 1.180998661615749512e+00 1.980364048776968389e+01
-1.383354618843755013e+01 2.740300614330186679e+00 1.921111494664158315e+01
-5.188549933508768142e+00 6.051486002041229106e+00 1.964067625767530956e+01
-7.237666535765739262e+00 6.234268026265601392e+00 1.963220060097345510e+01
-9.661242672166919121e+00 5.297708169507975740e+00 1.927056932751584739e+01
-1.206321205992668588e+01 4.638558809306957187e+00 1.919878510004046746e+01
-1.311166914352738999e+01 3.657866086411753148e+00 1.913508276780501305e+01
-1.152748016731697867e+01 4.957048199305805092e+00 1.918550603906995633e+01
-1.329413132849209589e+01 -1.387814669767225562e+00 2.084370674474672214e+01
-1.291219753681806992e+01 -2.115317430931949794e+00 2.099082846441816486e+01
-1.414596507325413910e+01 7.752114900471593351e-02 2.074996585111865954e+01
-1.347261212028614352e+01 3.199063034787778204e+00 1.917312831472507639e+01
-1.407242730863126567e+01 2.589512370872200098e+00 1.929821699619348863e+01
-1.443674873780299706e+01 1.947911716386003578e+00 1.968714321578542226e+01
-5.911324003160010498e+00 6.154974101898387673e+00 1.965908667737279103e+01
-3.031525861370333974e+00 6.168299328841445828e+00 1.992470933475951966e+01
-1.589545977777340635e+00 5.515871133982384933e+00 1.989231445283500577e+01
-8.055148482722790604e+00 6.550194112125305779e+00 1.972025030828961434e+01
-9.087024736756866616e+00 5.830804644587035845e+00 1.944799874420217378e+01
-1.286254962242380451e+01 4.728300742592122852e+00 1.934368516190201248e+01
-1.109090484173886004e+01 5.267466763233319860e+00 1.925958046210395125e+01
-1.451088610687094516e+01 1.022190320440522715e+00 2.043757829754738609e+01
-1.453302048056718476e+01 1.792067620572918685e+00 1.990599493543508203e+01
-1.385473582848248952e+01 -8.817546246564451629e-01 2.119707298404931706e+01
-3.950910907230328117e+00 6.280967994515146202e+00 1.985307594297122336e+01
-2.071999258624902751e+00 6.097959426277859585e+00 2.001384447280759460e+01
-8.653279645031203060e+00 6.263446812632887273e+00 1.960710301123888755e+01
-1.055838113264113431e+01 5.654532765953628193e+00 1.938852460292090640e+01
-1.338481077583976031e+01 4.276162667936013406e+00 1.932521250298023219e+01
-1.347277053446114436e+01 -1.609110533567602586e+00 2.134423237919629202e+01
-1.461614628595178367e+01 8.153362431847243075e-01 2.080340062239565668e+01
-1.421369645849812180e+01 -2.158282047696023498e-01 2.113900318532695266e+01
-1.443823695379664152e+01 3.258452759624729467e+00 1.948987051827424821e+01
-4.771154802284372387e+00 6.500092014054630774e+00 1.982525186719748689e+01
-5.503420613629340430e+00 6.523141229673540487e+00 1.981249369440618224e+01
-6.727761497427744430e+00 6.470779254356833654e+00 1.974715870797638217e+01
-7.236544844607295524e+00 6.744938041965464315e+00 1.983233404469894623e+01
-1.233976540311863879e+01 5.180898449896241154e+00 1.936214470546404698e+01
-1.181744283450294652e+01 5.633096312645700543e+00 1.938056103343780023e+01
-1.391134203883722265e+01 3.767426641803351295e+00 1.940755858288671121e+01
-1.468356775662817881e+01 2.830634712318304214e+00 1.974908424729989065e+01
-1.459208339320028536e+01 1.459498027357498007e+00 2.023266569771682200e+01
-1.492492447753244811e+01 2.403361167324284509e+00 2.000837826630508332e+01
-1.309103779640761545e+01 -2.336674899063519995e+00 2.149146974936963161e+01
-1.403323803217216437e+01 -1.103161206734493804e+00 2.169758110963807596e+01
-1.341221354526605225e+01 -2.491520575939154991e+00 2.205306081094657955e+01
-1.365141002871693843e+01 -1.830604746100164881e+00 2.184475568802686141e+01
-1.285136220725314438e+01 -2.997961860387378774e+00 2.169930744296193126e+01
-6.217856790329091332e+00 6.707288576915876988e+00 1.986210904199482030e+01
-3.494273711182007691e+00 6.772008892043054118e+00 2.005507785379155905e+01
-9.387405962139800053e+00 6.506026968749032413e+00 1.967207382223562107e+01
-9.972894335695418278e+00 6.080277399828657003e+00 1.953031539251662707e+01
-1.355916819398577822e+01 4.880395240737552598e+00 1.958100704089244104e+01
-1.128487495589650713e+01 6.020200534287097227e+00 1.950952449093100682e+01
-1.439230480064809292e+01 -4.374470031256975089e-01 2.163947190593039949e+01
-1.468368999187468660e+01 5.218740889573639796e-01 2.119246489342865303e+01
-1.500531788881076523e+01 1.978614800998558687e+00 2.043283089929308005e+01
-1.421168415519819384e+01 -1.324720593271224045e+00 2.219792955248035682e+01
-1.457091614022647974e+01 -6.585253848076022543e-01 2.213994149327042393e+01
-1.317280707753674562e+01 -3.153030140297349959e+00 2.226143163731266839e+01
-2.554626692709319524e+00 6.680268922318142621e+00 2.013541309598117124e+01
-8.871685635684679383e+00 6.865753013638028257e+00 1.980819917331594482e+01
-7.455493059034239423e+00 7.275860589747215279e+00 2.003077131868664296e+01
-1.306583742619689659e+01 5.221693617994444203e+00 1.956868288983047677e+01
-1.388861524554439164e+01 4.724432396491867081e+00 1.965131726585218885e+01
-1.508648093365995280e+01 1.552972635999132711e+00 2.085682228806644289e+01
-1.475131041298616985e+01 2.284113715171439962e-01 2.158152942204661073e+01
-1.467908282569024259e+01 3.961839950086796680e+00 1.977513995896557475e+01
-1.497095182109230471e+01 3.823679675659151567e+00 1.998700512954555464e+01
-1.397252571571713098e+01 -1.985508259320352353e+00 2.240629248970054732e+01
-1.373340315207144791e+01 -2.646392535028622373e+00 2.261464762831798581e+01
-4.353833686146947102e+00 6.948616876262394548e+00 2.000978780889741060e+01
-5.439051588510572799e+00 7.103970535332168268e+00 2.003741294322554722e+01
-6.524264813703366528e+00 7.259454905310088080e+00 2.006503963561052473e+01
-8.284763968055694150e+00 7.397489827647603100e+00 2.004218330722212116e+01
-1.075241614098316667e+01 6.407230048232344544e+00 1.963842853663501486e+01
-1.242724436265061883e+01 6.049399597263571238e+00 1.968652766868741821e+01
-1.428385335529962674e+01 4.343081611852253054e+00 1.971325468186511642e+01
-1.198978425845401397e+01 6.250705581210125317e+00 1.966264371857256421e+01
-1.520652005641648863e+01 3.042758503606320719e+00 2.025220868103403404e+01
-1.518762108337598526e+01 1.112805205539033171e+00 2.144042978042108416e+01
-1.493001022259460697e+01 6.874804592095602566e-03 2.208197960395014547e+01
-1.538683292520989276e+01 2.883308395042518235e+00 2.055281410012564081e+01
-1.471121222679782825e+01 -9.018033732800566638e-01 2.268455308449376417e+01
-1.349407097017666857e+01 -3.308011048148276956e+00 2.282320727233401314e+01
-1.876643696538668582e+00 6.620052439391856502e+00 2.016241984622791605e+01
-9.687731561937631852e+00 7.181122755798129198e+00 1.989609597055163093e+01
-1.021968154065221057e+01 6.794459951785718488e+00 1.976736922579547340e+01
-1.308036165694377573e+01 5.766907061883214780e+00 1.976162564578057612e+01
-1.373347389151449960e+01 5.484446908340833815e+00 1.983670666951981687e+01
-1.439253474129481170e+01 5.172877443168924394e+00 1.997749711526913430e+01
-1.145718682909708264e+01 6.637462447792483289e+00 1.979142552126835852e+01
-1.528895795249019152e+01 6.726352734374999587e-01 2.202404442202376345e+01
-1.539176167092351832e+01 2.124225773703163345e+00 2.105280479938407012e+01
-1.457173479368526969e+01 -1.655199729988782176e+00 2.311520765833592961e+01
-1.415734779852784619e+01 -2.290719619065563428e+00 2.300308810773967139e+01
-1.397370145805899888e+01 -2.866978189269969501e+00 2.322688064745769410e+01
-4.796153632652309540e+00 7.596009943915951190e+00 2.024530493531205977e+01
-3.936637163115580762e+00 7.397007234285863042e+00 2.019426317329146414e+01
-2.170641794504931887e+00 7.142525346053326452e+00 2.028025518698824570e+01
-3.037634420590507922e+00 7.263047297587974072e+00 2.025707292993855191e+01
-7.698095942811705505e+00 7.929313339599450394e+00 2.027616676641092042e+01
-1.500612881774578611e+01 -3.173813168620923109e-01 2.259452554351164721e+01
-1.551937027484861353e+01 1.923301761911337060e+00 2.141847970923951294e+01
-1.548358147458988476e+01 3.681112399284330206e+00 2.049563958973319089e+01
-1.491977214761105763e+01 4.664772383292868696e+00 2.006021005914962174e+01
-1.569740976388240128e+01 2.695731692146336123e+00 2.124882766244130394e+01
-1.500997962656240325e+01 -1.039807063862929537e+00 2.332410742060489639e+01
-1.549977840006123486e+01 3.080994164606110086e-01 2.284089911803629391e+01
-5.802653978466018714e+00 7.807645181915937371e+00 2.029683083053051718e+01
-1.413615800310020987e+00 6.890255628594216475e+00 2.026211889868307736e+01
-6.830447380241039923e+00 7.811214554700057100e+00 2.026781284396827587e+01
-9.126729091308547481e+00 7.614272863001694702e+00 2.009032079154691175e+01
-8.565741911829290345e+00 8.047408575937550879e+00 2.028452125638253634e+01
-1.083884426797893674e+01 6.948757729717766729e+00 1.988088264179831555e+01
-1.303679061795233451e+01 6.465558289862130437e+00 1.999236620989714908e+01
-1.216195683137616790e+01 6.867709481514943981e+00 1.994442393376799672e+01
-1.564383671713235202e+01 1.703830595716436580e+00 2.186012036682789983e+01
-1.584861669200854450e+01 3.361654438401639133e+00 2.109707805846588258e+01
-1.521117962506464316e+01 -4.786358274791809309e-01 2.317144877396621894e+01
-1.389563940162672750e+01 -3.459487711611381133e+00 2.367917579386837446e+01
-1.445277399065377999e+01 -2.426647705329060489e+00 2.362989991982268734e+01
-1.519158535361160212e+01 -1.342776230741148380e+00 2.390793415683218370e+01
-3.519883364013878246e+00 7.844919763967793003e+00 2.037853784637118792e+01
-8.004728830081754509e+00 8.480562894792408102e+00 2.047871617008441092e+01
-1.043505182931493458e+01 7.565739264895702476e+00 2.011955164794565576e+01
-1.433752938999996474e+01 5.789890766683646994e+00 2.015385096604615711e+01
-1.390806760557775590e+01 6.089499710827668721e+00 2.009280992648015740e+01
-1.565434833317307195e+01 1.336699443829848066e+00 2.219679830563048029e+01
-1.550449088437186340e+01 4.390300195126385141e+00 2.048490707445666814e+01
-1.461493100537955669e+01 -2.798387361044389454e+00 2.428389273754837419e+01
-1.493217937125041850e+01 -1.986196933904931905e+00 2.403301784587056744e+01
-4.303944871337392897e+00 8.058612073558521161e+00 2.043744309795117431e+01
-1.676794127432223114e+00 7.736678884467065309e+00 2.046644373748731383e+01
-2.598345616429909022e+00 7.790799194592713306e+00 2.042249154778735942e+01
-9.888493056034585393e+00 7.778249041170682609e+00 2.019128421855590005e+01
-9.327638758038155231e+00 8.211807996107999941e+00 2.038569125035047591e+01
-1.146249244157348279e+01 7.320560244386928872e+00 2.008951227862767297e+01
-1.516039490982525706e+01 5.367534087803531584e+00 2.034518755940698753e+01
-1.489694840185326363e+01 5.621892349950366352e+00 2.030399885729214304e+01
-1.299064013769056558e+01 7.183783938673942160e+00 2.026251929353988146e+01
-1.595275570334722914e+01 2.294021021615772593e+00 2.198072744636830222e+01
-1.600356741847964415e+01 3.267619493449580137e+00 2.144495932316556619e+01
-1.576044751071103356e+01 4.318868523923385716e+00 2.073889831531157313e+01
-1.585531733829047951e+01 1.128737636112068676e+00 2.275037627842591448e+01
-1.545131510762082705e+01 -6.987442037005286988e-01 2.378269944676083369e+01
-1.571061204057346039e+01 -5.604126856189738798e-02 2.365766814688014108e+01
-1.606605272684503305e+01 7.635747466588795884e-01 2.356749477337675103e+01
-5.088007195714784103e+00 8.272316080286215012e+00 2.049634858399259585e+01
-6.430543864418635458e+00 8.210683308979287887e+00 2.043299107220510180e+01
-7.136393192989050505e+00 8.362546829468763931e+00 2.047042181986221721e+01
-8.930760752740196651e+00 8.784757327291083939e+00 2.065227976050429959e+01
-1.364694929611064467e+01 6.882178513350284632e+00 2.029851158083393869e+01
-1.233432660316559470e+01 7.485427676817534959e+00 2.022650477356503274e+01
-1.601982015035063966e+01 2.000464750481265153e+00 2.236947481094196277e+01
-1.634755635125504369e+01 3.251653140741920023e+00 2.209200583129457129e+01
-1.429751314777417726e+01 -3.611145927316029347e+00 2.453487870009553973e+01
-1.563647699059841578e+01 -9.092536951513449095e-01 2.450911968142716191e+01
-1.589601321046370863e+01 -2.659272487883201364e-01 2.438410799020622832e+01
-1.608172589064392710e+01 -4.760801370231556029e-01 2.511048482756436684e+01
-1.629975883605208153e+01 2.159593094222559961e-01 2.495474299017447706e+01
-1.611393103426392415e+01 4.257478593025079694e-01 2.422799564221181612e+01
-1.504166134629146434e+01 -2.228638472186723174e+00 2.477433821432629202e+01
-1.515140164104041531e+01 -2.470966127141076552e+00 2.551470461451648930e+01
-1.477915987257961383e+01 -3.162248458703420972e+00 2.539532508074211847e+01
-1.417328621422994495e+01 -4.111734415873813830e+00 2.548267187876981765e+01
-1.537694569105423348e+01 -1.552995961583611750e+00 2.463441598968050528e+01
-5.872279371527609371e+00 8.486213955468752346e+00 2.055527079963761850e+01
-4.594915432875840366e+00 8.576992219738951206e+00 2.066856327561011852e+01
-1.008953432154005547e+01 8.376207261410188565e+00 2.048686342239106750e+01
-1.408255297412299178e+01 6.694190131092910612e+00 2.034873771903190942e+01
-1.446390214549517950e+01 6.284801692816002650e+00 2.035734931102224721e+01
-1.300095076427405871e+01 7.744171805936807651e+00 2.048414086212892826e+01
-1.640379975156624326e+01 2.124650072076140539e+00 2.300966199854141081e+01
-1.631032435027847782e+01 3.839861975174236441e+00 2.164122897844009330e+01
-1.617469424538585088e+01 4.398258448954480926e+00 2.131192494500317380e+01
-1.603762224044140439e+01 4.956920756441503428e+00 2.098242608448945390e+01
-1.571954710851386672e+01 5.513592600978191705e+00 2.080654295308790935e+01
-1.582194810785681582e+01 -1.119969051174749541e+00 2.523547693286062454e+01
-1.548666780275057242e+01 -1.795490776519408804e+00 2.537521884046209664e+01
-1.593202984224810059e+01 -1.362887647905049349e+00 2.597661359825072580e+01
-3.896959128987590226e+00 8.421841294807757450e+00 2.063284675965165249e+01
-5.159518244666173814e+00 8.972982937719322649e+00 2.082636035498437010e+01
-3.177187001134301969e+00 8.415283792611354841e+00 2.064459724396952467e+01
-2.151015802629776097e+00 8.403972033229702987e+00 2.071424902165883708e+01
-9.614237976442881362e+00 8.725246819865935421e+00 2.064268911430071185e+01
-8.255684057157251843e+00 9.228351039334524941e+00 2.084830377096720966e+01
-7.442687011829146826e+00 8.914508040548339451e+00 2.067325548177789329e+01
-1.118264380768036936e+01 7.950505673064397705e+00 2.034309043242871340e+01
-1.050828533396220443e+01 8.044589587965951694e+00 2.035153614292927671e+01
-1.540125549644041492e+01 6.071020819380795075e+00 2.063043175726918577e+01
-1.501973823933251140e+01 6.480269130755699436e+00 2.062188230714792070e+01
-1.373091053252958815e+01 7.772835723336652514e+00 2.066662527204196209e+01
-1.188341479323524297e+01 7.839028329426492192e+00 2.034689580718970348e+01
-1.425701206691482703e+01 7.298797618275791876e+00 2.060460828582143122e+01
-1.638553577569804176e+01 2.664212129510309168e+00 2.254214055238804448e+01
-1.648592281036504303e+01 5.878697539406113962e-03 2.568141483530331826e+01
-1.651785719087298432e+01 9.079006976420199715e-01 2.479875497647877580e+01
-1.642219777562909755e+01 1.585130468749999855e+00 2.347715787288516509e+01
-1.526162135554121235e+01 -2.713547979293654322e+00 2.625529628500716584e+01
-1.485736821764932358e+01 -3.346653303000359791e+00 2.631333247657191166e+01
-1.559682288702723341e+01 -2.038174568420413557e+00 2.611595519038946733e+01
-1.626783743683742856e+01 -6.865186243018136514e-01 2.583702089084466280e+01
-6.657254125427760627e+00 8.700299986856908419e+00 2.061424596473645821e+01
-1.463834835867846706e+01 6.889520400160766833e+00 2.061327072863742416e+01
-1.250666190450030335e+01 8.103025680972868017e+00 2.050850633612522245e+01
-1.669063799946253113e+01 3.395091087141606678e+00 2.294157271445169144e+01
-1.664021496497201014e+01 4.179072088946393038e+00 2.234097669643546169e+01
-1.667214853261284091e+01 1.487271779454464760e+00 2.442360350259668778e+01
-1.649618167766379173e+01 4.459415093683906761e+00 2.196498792751420837e+01
-1.670399915067108765e+01 6.978711220592279663e-01 2.552581374759686383e+01
-1.445332999896904447e+01 -3.979497440061396940e+00 2.637132446185393420e+01
-1.594935827763931435e+01 -1.587463060704433326e+00 2.685167792901613026e+01
-1.561423207876579689e+01 -2.262832638404647323e+00 2.699121418786555537e+01
-1.628494478438877735e+01 -9.113562944771399499e-01 2.671230138682652822e+01
-4.274262297557894108e+00 8.999113532897293766e+00 2.088729858474686196e+01
-6.097729402864183079e+00 9.200039435627795470e+00 2.088310873355209196e+01
-2.834305743697742130e+00 8.985953650460036357e+00 2.091079446626039484e+01
-9.679273201869266430e+00 9.257977214454717441e+00 2.090278372016518915e+01
-9.068020816644914106e+00 9.541936137068589119e+00 2.102321128208445700e+01
-1.094570336152295731e+01 8.552254107931627658e+00 2.061686624831159875e+01
-1.320505960729843054e+01 8.246682701700459361e+00 2.072857873673514106e+01
-1.477820028793744811e+01 -3.666125316243532772e+00 2.716910999619657119e+01
-1.518258202805929535e+01 -3.033251276689455711e+00 2.711140558496406072e+01
-1.617005448004522350e+01 5.629733291846345189e+00 2.133365580616858992e+01
-1.669108982249475304e+01 2.853214618929345914e+00 2.324540748960995629e+01
-1.671005018628921590e+01 3.861433934915230459e+00 2.271774925901395648e+01
-1.671543067468395805e+01 2.133559818915379491e+00 2.386918376757428817e+01
-1.637525063509922063e+01 5.411136742473593664e+00 2.163426961164319806e+01
-1.659000465605230445e+01 -1.036038678614032010e-01 2.654090814829838152e+01
-1.552848547189278783e+01 -2.582591667589381412e+00 2.784652539058537712e+01
-1.595938588129405922e+01 -1.812468519898619235e+00 2.772656333911412219e+01
-1.680804386743091428e+01 5.886748178936235254e-01 2.638532893165949744e+01
-1.692242678371494335e+01 1.390427218186162772e+00 2.536996082334335512e+01
-1.702633777316112429e+01 1.281322264951743506e+00 2.622949777073072397e+01
-3.565862255598554853e+00 8.910241445940460636e+00 2.086143601262750380e+01
-4.651706557362008887e+00 9.576605210005752156e+00 2.114183753859709824e+01
-5.537717253697053366e+00 9.699939885893323677e+00 2.115207160568169797e+01
-1.029052586361408750e+01 8.974018371303907671e+00 2.078235159485256034e+01
-7.664474304297172580e+00 9.462614469587579791e+00 2.097687534963758793e+01
-1.193094348180446218e+01 8.335653012098463321e+00 2.056684110631222495e+01
-1.579021596246263393e+01 6.598132986724053239e+00 2.121653908543092371e+01
-1.549773251595520485e+01 6.784784223016455229e+00 2.100962924369999030e+01
-1.432452183257263378e+01 7.880658719743855123e+00 2.092623960567321717e+01
-1.267902192705190068e+01 8.720717215534936173e+00 2.079052716964169889e+01
-1.509741965788366258e+01 -3.353085318849676089e+00 2.796667085411285569e+01
-1.476704779305143056e+01 7.840663620423470093e+00 2.111864153766704888e+01
-1.699671308364222710e+01 3.584346573600976971e+00 2.364545968776301166e+01
-1.691357531015864168e+01 2.154536365615736138e+00 2.451183550542122092e+01
-1.704928520030936312e+01 2.002737276569903191e+00 2.513161279929521896e+01
-1.587119638265771826e+01 -2.132148887154370343e+00 2.858134886078185488e+01
-1.629478833935190352e+01 -1.136654872897608248e+00 2.758738778085633214e+01
-1.660201053789747050e+01 -3.284678683123672949e-01 2.741588300530447242e+01
-1.690932658024443569e+01 4.792849306448510593e-01 2.724459710334434703e+01
-6.933462359107804396e+00 9.368731641296038859e+00 2.091766100800562711e+01
-8.477865419789296197e+00 9.980351146777215021e+00 2.126471481412987430e+01
-1.098829758656383326e+01 9.209254738234150750e+00 2.093199471793473165e+01
-1.383152703458386235e+01 8.584212090092314895e+00 2.111731812218057769e+01
-1.437419705997825581e+01 -4.298521267547181779e+00 2.722692128953375601e+01
-1.559404940036072418e+01 7.497459877153167085e+00 2.138817884467488639e+01
-1.668062697222073254e+01 5.078793040680475990e+00 2.228866914159715762e+01
-1.678788077517015154e+01 4.747032998159050443e+00 2.258847940176519486e+01
-1.699662107639416320e+01 4.126091356488833739e+00 2.334113699152011279e+01
-1.696879529999867486e+01 4.518318086481845519e+00 2.304083191957395016e+01
-1.699719175386691816e+01 3.042511061057990851e+00 2.394976738036671904e+01
-1.700900065386896998e+01 2.682148629739207202e+00 2.426132354010045589e+01
-1.544014776899986963e+01 -2.902634260752419149e+00 2.870116009244232913e+01
-1.630189553350787079e+01 -1.362317309780037844e+00 2.846163529954841209e+01
-1.660907541537218179e+01 -5.538595329459191641e-01 2.829061530593367735e+01
-1.691661320220055842e+01 2.550221297410944499e-01 2.811939673443341903e+01
-1.712790972370235565e+01 1.171970984368915447e+00 2.708903736311240706e+01
-6.423724517609561424e+00 9.823409206894908152e+00 2.116230783438594543e+01
-1.049146210704905435e+01 9.571666315290270788e+00 2.107774267200020191e+01
-9.880156983665219883e+00 9.855441881606756382e+00 2.119807545232210444e+01
-1.315809342322899234e+01 9.092842928157907068e+00 2.114627314923523471e+01
-1.630251730263563203e+01 6.302710126842596239e+00 2.168496978368375494e+01
-1.671243187226319549e+01 5.864723800271605114e+00 2.228523909917047874e+01
-1.469492706199418208e+01 -3.985553697822000085e+00 2.802414744554003789e+01
-1.694780991288337191e+01 5.211712288762919698e+00 2.288080876058526769e+01
-1.717625853717470719e+01 2.616746147136987499e+00 2.489305451265334668e+01
-1.719961868804625027e+01 2.044730060352008660e+00 2.598456437408075104e+01
-1.732680565454935717e+01 2.658963173929579593e+00 2.574634253599955969e+01
-1.565623263805373711e+01 -2.416804155087648898e+00 2.953698784160535240e+01
-1.722384435012540393e+01 1.062385802749128860e+00 2.794834964119987930e+01
-1.682980804122656693e+01 6.180480952492126839e-02 2.906317501665068548e+01
-5.914945137694549437e+00 1.027722460845914654e+01 2.140649077734433092e+01
-7.155038928598094650e+00 9.917179019345041979e+00 2.122145693720396764e+01
-7.886352547930757240e+00 1.001094455402082595e+01 2.128060739387035127e+01
-9.344907426819450080e+00 1.022710343235513619e+01 2.140273834063092551e+01
-1.157045066935820898e+01 8.923881265131530682e+00 2.082751298400021156e+01
-1.218253085177397388e+01 9.082615454579276104e+00 2.093609821285001615e+01
-1.617875767858323499e+01 7.124831293935481646e+00 2.180201469338507181e+01
-1.439208183888652748e+01 8.462975124456905363e+00 2.124808929374679067e+01
-1.686509800659292679e+01 5.698260190630894506e+00 2.261240527694689817e+01
-1.500914883358471563e+01 -3.673051585483161130e+00 2.882095728568556581e+01
-1.527723107330724162e+01 8.383065237333669373e+00 2.163282675319655013e+01
-1.730310925595773597e+01 3.774037594877309942e+00 2.434973272812069922e+01
-1.730339659682914188e+01 3.231824748995983931e+00 2.465419033076095445e+01
-1.608718490404412904e+01 -1.646734355770046898e+00 2.941685312524699114e+01
-1.652244250968325900e+01 -7.475347769449042223e-01 2.923405951662340385e+01
-1.713717254246826371e+01 8.705511415511830720e-01 2.889229017828967372e+01
-1.739937858400881510e+01 1.827491523710917942e+00 2.770393022363759172e+01
-1.730334900707452306e+01 1.936229119255166164e+00 2.684438239365719170e+01
-1.118913732641467895e+01 9.806746438094556595e+00 2.122730373398696457e+01
-1.168607013680792583e+01 9.444504219409985524e+00 2.108163957319128201e+01
-1.274672878719894875e+01 9.286954022622884608e+00 2.112836541066490526e+01
-1.569056464709619547e+01 8.211707822920017108e+00 2.176748482865428969e+01
-1.730275802462616141e+01 4.315546799132580880e+00 2.404560939910173545e+01
-1.729755776139707990e+01 4.857737576593136986e+00 2.374107090133318820e+01
-1.745401880315017706e+01 3.273651523087061754e+00 2.550808534780015080e+01
-1.747767603190001040e+01 2.700807852973988066e+00 2.659977019126221620e+01
-1.522531086312379323e+01 -3.186869990041194534e+00 2.965665905462190111e+01
-1.674314691295226609e+01 -1.307770602866373533e-01 3.000686662946304395e+01
-1.705048483285079541e+01 6.771162851196220744e-01 2.983586058290192611e+01
-1.741470728334850548e+01 1.773635337746430451e+00 2.863754544972933047e+01
-6.809328348698389100e+00 1.048968997710771234e+01 2.153257447701104255e+01
-1.069227277130546128e+01 1.016894324212484690e+01 2.137293565648532834e+01
-8.108032618380978107e+00 1.055878550318180409e+01 2.158405880378007424e+01
-8.864913648466368201e+00 1.073553113280442162e+01 2.168315279736339463e+01
-1.643492356704550161e+01 6.975413829900705132e+00 2.203613546630525377e+01
-1.363714321088337833e+01 9.465005482266729331e+00 2.150200061798836160e+01
-1.445959932664430703e+01 9.044943383369671963e+00 2.156971326502355524e+01
-1.704981439767130169e+01 6.318559096063548708e+00 2.293658160070668117e+01
-1.713244880560709404e+01 5.831341937178526003e+00 2.320490224883727137e+01
-1.721499159606111107e+01 5.344625524337766720e+00 2.347294152493381247e+01
-1.749336096530114659e+01 3.801499618135327552e+00 2.506054423585997881e+01
-1.544143750487074662e+01 -2.698977507634059858e+00 3.049174049087387317e+01
-1.587228593380094743e+01 -1.929023326269864391e+00 3.037227695803317218e+01
-1.619885141963334974e+01 -1.254741865829291703e+00 3.023503816879034289e+01
-1.015657118852022833e+01 1.054093000410473913e+01 2.157777149355050383e+01
-7.455053318053542988e+00 1.037838693665866074e+01 2.147810383764387154e+01
-1.680874727734987673e+01 6.983680793000673681e+00 2.266236124612183289e+01
-1.495372790736894686e+01 8.766897090117179658e+00 2.166853844357407866e+01
-1.578704601719434031e+01 8.925855059808318615e+00 2.214664444786954078e+01
-1.656753307166458455e+01 7.649168279246329583e+00 2.238784052179921247e+01
-1.617730978649269957e+01 8.288659030186556365e+00 2.226734387427521611e+01
-1.752140713747803247e+01 4.437991516020196592e+00 2.482375585750863678e+01
-1.767229102016918318e+01 3.937838039225806330e+00 2.598170134627999772e+01
-1.760460487697015353e+01 3.315452182591756003e+00 2.636146544875743203e+01
-1.757490040245782836e+01 2.591628445051860297e+00 2.745937813747949718e+01
-1.739745239271393018e+01 1.808233481717537616e+00 2.951765800085055957e+01
-1.631049613195404646e+01 -8.627485280045547045e-01 3.105267233912726965e+01
-1.759027349585695532e+01 2.537987534430652392e+00 2.839328922817226442e+01
-1.127352935123399291e+01 1.051476901100168782e+01 2.164963696427477657e+01
-9.621794157521438962e+00 1.091227233313553135e+01 2.178224895270418671e+01
-1.204398992243217670e+01 1.018402516492603382e+01 2.155795153683155618e+01
-1.229039715366822705e+01 9.577976773202207639e+00 2.123797354914697166e+01
-1.725525004183313982e+01 6.589901264682959336e+00 2.352761146325017449e+01
-1.754677677313964068e+01 5.074762359166640202e+00 2.458735092248089416e+01
-1.767902439410167759e+01 4.370469963684881165e+00 2.546644290737165406e+01
-1.775030199344885773e+01 3.357252873294454432e+00 2.721483513054228709e+01
-1.598376662825925365e+01 -1.537427877371969398e+00 3.118944100245095541e+01
-1.738017673274160302e+01 1.841803708179180932e+00 3.039750450629180634e+01
-1.696376337816233004e+01 4.862209438685514140e-01 3.077906119020569520e+01
-1.663703093814693545e+01 -1.884691290912106354e-01 3.091593109271108375e+01
-1.078621984824874858e+01 1.068893570746260480e+01 2.170895659198587069e+01
-1.025093232643498808e+01 1.106033787015168635e+01 2.191343708368999899e+01
-7.543762418267793812e+00 1.087604483911592190e+01 2.175258395779229659e+01
-1.281445039574166422e+01 9.853319578703706227e+00 2.146625550577443420e+01
-1.713567894432792116e+01 6.997827315689218786e+00 2.332966799049547646e+01
-1.452709527139287182e+01 9.626747225698522925e+00 2.189121314786924799e+01
-1.734820474097570653e+01 6.042304564890507379e+00 2.382938960427348007e+01
-1.744120526630897317e+01 5.495195325776660589e+00 2.413129363849121845e+01
-1.784843857722671956e+01 4.074383692603449347e+00 2.690281886038877701e+01
-1.794656550963620134e+01 4.791371895274224357e+00 2.659058976520126194e+01
-1.587373528821278690e+01 -1.029479279827505867e+00 3.176107765596236732e+01
-1.620015924940367213e+01 -3.551035440888309913e-01 3.162479021688070446e+01
-1.760562547066684047e+01 2.484708814933572540e+00 2.932694640465482294e+01
-1.758833174383520515e+01 2.519722864611045221e+00 3.020667690842756059e+01
-1.717192455348646263e+01 1.163635427674786671e+00 3.058835657905427041e+01
-1.652658258154520254e+01 3.192737801516146168e-01 3.148843247049569527e+01
-1.411573108139694277e+01 9.836888474946855254e+00 2.185738223881924114e+01
-1.538988515680805946e+01 9.352935437336153512e+00 2.216880402389728744e+01
-1.772329585448755296e+01 5.965301712969691472e+00 2.504641702984783080e+01
-1.610285190546210288e+01 9.443805147397053901e+00 2.277032165099101846e+01
-1.660946460405898506e+01 8.356687712787739031e+00 2.279610982556930665e+01
-1.684277970849182182e+01 8.110674682652494027e+00 2.309475771598492599e+01
-1.779573480118512308e+01 5.291554427014646400e+00 2.543273063591052008e+01
-1.776569863871795363e+01 3.303324525533392730e+00 2.814906982703887550e+01
-1.786186078642938213e+01 4.939410191563261776e+00 2.587229481569077549e+01
-1.706288549835752022e+01 1.728969285060985461e+00 3.110342996250236069e+01
-1.685460948369442136e+01 1.051718044320322454e+00 3.129438726021850670e+01
-1.778106630028551294e+01 3.249569360504831916e+00 2.908273568476117177e+01
-9.827597296975500996e+00 1.157368878178312599e+01 2.221472701358169743e+01
-1.185508297964613256e+01 1.086078825448325347e+01 2.192648017553691986e+01
-1.344225649456137539e+01 1.031543916202276989e+01 2.191809617113857556e+01
-1.288218677922612798e+01 1.041981780784893452e+01 2.180420150155554992e+01
-1.746074106329878717e+01 6.861309434816812214e+00 2.411873148055340366e+01
-1.758457266581122980e+01 6.131430836925130912e+00 2.452072424740194734e+01
-1.789865158410482593e+01 3.969696778056131414e+00 2.768001465814061390e+01
-1.809554907106161536e+01 5.094440383663218164e+00 2.767733841494717595e+01
-1.576344032647304161e+01 -5.218331510231387638e-01 3.233378916088781097e+01
-1.727103870934490359e+01 2.406615297170332290e+00 3.091278694090113177e+01
-1.608994257697307262e+01 1.525454797615577729e-01 3.219657701001474237e+01
-1.695371105688016300e+01 2.294168622364376020e+00 3.161860145908693909e+01
-1.674555905959915236e+01 1.616579849710426009e+00 3.180893760638542034e+01
-1.088007139374012056e+01 1.120840110119713806e+01 2.204462619315156502e+01
-1.040529187653144660e+01 1.158595209016922745e+01 2.225657542126793942e+01
-1.241704060184574132e+01 1.070838571019591967e+01 2.191121069157289725e+01
-1.459465570404391954e+01 1.020915028531324253e+01 2.221300972052896583e+01
-1.580091568967291771e+01 9.498100735129119343e+00 2.248875274940905555e+01
-1.804686400840582650e+01 4.581519879263066919e+00 2.814469415265086383e+01
-1.804469096839278919e+01 5.508340621486610189e+00 2.627807761779682494e+01
-1.779641090320703256e+01 3.195826171874999844e+00 3.001584927622383248e+01
-1.747920907814291880e+01 3.083771349198094924e+00 3.072192958735917756e+01
-1.641775239487785498e+01 8.845626119580837221e-01 3.200269037245319481e+01
-1.716188334014887573e+01 2.971600990184838587e+00 3.142801151811962868e+01
-1.294991347738698728e+01 1.098624454715903020e+01 2.214208338940247955e+01
-1.722141703739777796e+01 7.676152819926201687e+00 2.372221631946184317e+01
-1.499242114753392840e+01 9.780764009605848130e+00 2.219091989772068985e+01
-1.406892392317647200e+01 1.065692308620933382e+01 2.230199113928643584e+01
-1.798685624085012336e+01 6.140022591519391781e+00 2.595175874469266830e+01
-1.772787494556006749e+01 6.767407548767531367e+00 2.490992380902042669e+01
-1.665127721631285596e+01 9.062312345501178257e+00 2.320326207727836376e+01
-1.793390809530976426e+01 3.986872342527802093e+00 2.875969771959066890e+01
-1.814423391070263136e+01 5.607357903659354825e+00 2.720977911609945110e+01
-1.565340463963878648e+01 -1.412728004742258570e-02 3.290677003650550603e+01
-1.164192908962246875e+01 1.163759110150510878e+01 2.239216211937884893e+01
-1.041557953113948010e+01 1.196967113235899660e+01 2.250103850866561217e+01
-1.243604636828620436e+01 1.120648326598927014e+01 2.220304142592829422e+01
-1.354339657579056500e+01 1.110462281017570696e+01 2.239092664731231963e+01
-1.792901552087793604e+01 6.771701496278746291e+00 2.562540327725503531e+01
-1.581479043946757201e+01 1.007077128159508383e+01 2.283102914323499277e+01
-1.711764365797435516e+01 8.571522183087781244e+00 2.380064728804291008e+01
-1.819501698771136233e+01 5.193116602815246452e+00 2.860900765087284725e+01
-1.793314558494105171e+01 3.848155657172511734e+00 2.978097640222669895e+01
-1.630881273930972597e+01 1.450276253440038632e+00 3.251914907379656228e+01
-1.598107042865438743e+01 7.183297922127246382e-01 3.271319679031839200e+01
-1.663646564095168401e+01 2.181567293710879873e+00 3.232487780011373246e+01
-1.684451593128419944e+01 2.859372302794238596e+00 3.213428417617301136e+01
-1.743268729354982938e+01 3.688962559803414365e+00 3.119038571344188782e+01
-1.097390307576778312e+01 1.172775823527249983e+01 2.238021680360812482e+01
-1.501507756185616671e+01 1.073509179420213755e+01 2.276131029249234317e+01
-1.766605082976261798e+01 7.132473173693129276e+00 2.470922683095604810e+01
-1.748660592778803036e+01 7.743315509871085744e+00 2.441203914478674619e+01
-1.774999022660209391e+01 3.801788682783374895e+00 3.048444442412935729e+01
-1.814136200694068890e+01 6.178313368452161392e+00 2.670966844002805374e+01
-1.641869427319518593e+01 9.959451029331155780e+00 2.339408104271080546e+01
-1.808023746921881170e+01 4.637812796790010239e+00 2.886486823368704080e+01
-1.824376765476684525e+01 5.706373434937178857e+00 2.814141675579435997e+01
-1.711527633716966790e+01 3.576620121018552645e+00 3.189679999975906810e+01
-1.554399838167459791e+01 5.511422486646349039e-01 3.342406291027963761e+01
-1.301762939427752030e+01 1.155259100824642715e+01 2.247989768718020542e+01
-1.412441253982705369e+01 1.114370508064505927e+01 2.263388747761880637e+01
-1.239883162216378309e+01 1.195759797121021073e+01 2.267064248772084412e+01
-1.730712129077049966e+01 8.354272716658011078e+00 2.411465170380846601e+01
-1.459951564273498370e+01 1.076206054055903394e+01 2.256817967751560872e+01
-1.696368875267292609e+01 9.310044370463186780e+00 2.387549175638879717e+01
-1.812793549420522865e+01 6.993510025856609857e+00 2.658949852565390159e+01
-1.787116722143719727e+01 7.403376671568129730e+00 2.529900368524089060e+01
-1.669313713827397905e+01 9.768866243663206106e+00 2.361092095954846570e+01
-1.806980333265374483e+01 4.500299380489048318e+00 2.954586179248103761e+01
-1.825700803103129388e+01 6.389031981488126455e+00 2.771293462798044160e+01
-1.788671640569906174e+01 4.453721361504232590e+00 3.024902606266105209e+01
-1.738613803398466828e+01 4.294427092521556411e+00 3.165879286103730195e+01
-1.679786716724207807e+01 3.464295539596640161e+00 3.260369935737576697e+01
-1.587217512948140197e+01 1.284117105259344083e+00 3.322986581557257324e+01
-1.619985342684707774e+01 2.015990094037154456e+00 3.303595684815842759e+01
-1.106780855148767628e+01 1.224752549758428444e+01 2.271606495069897846e+01
-1.401119869048497080e+01 1.161150924656982042e+01 2.289035643069125570e+01
-1.341802363178802260e+01 1.190808607371466188e+01 2.285732604089733400e+01
-1.771181932556676486e+01 7.946345341176630939e+00 2.503541548320497157e+01
-1.755246080702719169e+01 8.489328043022339898e+00 2.477166275387386918e+01
-1.770359951628144302e+01 4.407138572771903462e+00 3.095215800988572852e+01
-1.823801322319743079e+01 6.848271586695264368e+00 2.714043142402045206e+01
-1.805787464799828257e+01 7.664978667081775221e+00 2.620018589989529190e+01
-1.616515423398959328e+01 1.036946705084315035e+01 2.336585128061214078e+01
-1.820654643538083306e+01 5.152760338648853633e+00 2.931004861811958406e+01
-1.802345359584964157e+01 5.106021661640294695e+00 3.001276432332401001e+01
-1.834333563690083935e+01 5.805428405241935153e+00 2.907329193406732770e+01
-1.652722966763523260e+01 2.747196585831104265e+00 3.284221305273391067e+01
-1.706863827445281601e+01 4.181713190202787089e+00 3.236474719633789476e+01
-1.178024337333442695e+01 1.236252012952836310e+01 2.286132375520899984e+01
-1.050949254725510329e+01 1.248949851139285627e+01 2.283692447158678007e+01
-1.460437454983155803e+01 1.131509081823836560e+01 2.292339609803155653e+01
-1.301103521480217751e+01 1.205849665762015022e+01 2.284903879038576235e+01
-1.739289163606964550e+01 9.032999267539210564e+00 2.450743841177608218e+01
-1.582868480211050866e+01 1.064420307160488299e+01 2.317384088422657840e+01
-1.775702283693134120e+01 8.640957340079168603e+00 2.546613152134556657e+01
-1.609696260397173617e+01 2.583860361010484219e+00 3.356728692286713311e+01
-1.576929177206143784e+01 1.852268018427708940e+00 3.376131894277025225e+01
-1.765715948331792617e+01 5.012652152029053454e+00 3.142120367615666154e+01
-1.544139068055518216e+01 1.120295888013117303e+00 3.395555394898852342e+01
-1.673501376907510263e+01 1.047585748022630803e+01 2.401879585923364857e+01
-1.816031828893488154e+01 5.758600929295400128e+00 2.977611611927203938e+01
-1.733961358546751796e+01 4.899714388347756966e+00 3.212672021829143176e+01
-1.645970739050512321e+01 3.363979594521857575e+00 3.332749966105482997e+01
-1.543577893653602118e+01 1.126214133961498831e+01 2.330997693450853347e+01
-1.791638466033106880e+01 8.097982416108260750e+00 2.572948488981794313e+01
-1.695410684316759387e+01 9.995355873740736641e+00 2.418173750614753814e+01
-1.717348215092794916e+01 9.514221345876331171e+00 2.434470783458352727e+01
-1.784030697709499336e+01 5.059296759603060245e+00 3.071657083041159453e+01
-1.673037845094522780e+01 4.081567575607612852e+00 3.308900424710383703e+01
-1.700119026349739570e+01 4.798853326085347426e+00 3.285058433268080336e+01
-1.840196207561070096e+01 7.394008243093494137e+00 2.836285563830486112e+01
-1.533838058369653545e+01 1.688568737757338623e+00 3.448721805884306946e+01
-1.824457049294824884e+01 7.926575483211861339e+00 2.710307036354520704e+01
-1.833464396702785493e+01 7.518221950783493313e+00 2.757379070303411339e+01
-1.837265822124033576e+01 6.599840359383932764e+00 2.871699915374033907e+01
-1.116173626393426588e+01 1.276741657216751058e+01 2.305198710390439487e+01
-1.460923711734635866e+01 1.186864629333210353e+01 2.327892105347466511e+01
-1.381841331820828600e+01 1.226363884990591657e+01 2.323474275767945230e+01
-1.238798430968412667e+01 1.280055936970969732e+01 2.328573663457236975e+01
-1.509626112641351803e+01 1.161728828903553712e+01 2.336501603464126831e+01
-1.755780449207013305e+01 9.320454635579674019e+00 2.513693845238213953e+01
-1.739576721484082356e+01 9.732898428719250816e+00 2.495622608281949439e+01
-1.810083052774843893e+01 8.634774476251502406e+00 2.671401246719494793e+01
-1.602922347155231364e+01 3.200931035214789500e+00 3.405213517682926749e+01
-1.779386814742117551e+01 5.664852987462230871e+00 3.118716543338446456e+01
-1.797707429244394817e+01 5.711719038119506209e+00 3.048174850975710370e+01
-1.566637385969232454e+01 2.420429100914607279e+00 3.429246319842424384e+01
-1.501053926656647697e+01 9.564772669756157475e-01 3.468122746481576968e+01
-1.629574000964805691e+01 1.113210293984314525e+01 2.393878195720549584e+01
-1.836423003762904926e+01 6.437432685013709133e+00 2.952577569850037875e+01
-1.300444032047067644e+01 1.256448298376829165e+01 2.321822688245810085e+01
-1.796158238098100668e+01 8.792581134390232478e+00 2.615946481470493978e+01
-1.784208173917217621e+01 9.200124992231978993e+00 2.596252784298564720e+01
-1.714900607833612156e+01 1.027391174304013255e+01 2.477315442692546199e+01
-1.666293777113614638e+01 4.698319459508809359e+00 3.357427862707243804e+01
-1.639207281218291001e+01 3.981034552324975717e+00 3.381311395443642454e+01
-1.761070043511692518e+01 5.618001433308918990e+00 3.188886047985545247e+01
-1.727196615260603352e+01 5.516914348132298862e+00 3.261285151269772342e+01
-1.839048664527397392e+01 7.149346192741229622e+00 2.920869492868039785e+01
-1.523532868247207972e+01 2.256856232549758978e+00 3.501727082310178929e+01
-1.490770482676065534e+01 1.525005444250653985e+00 3.521259341754521444e+01
-1.584255555762491596e+01 1.121611667776709886e+01 2.351612233564747001e+01
-1.690223779209022226e+01 1.081492288040885619e+01 2.458970770866532263e+01
-1.818108911374104508e+01 6.390985254767364232e+00 3.023133524026203034e+01
-1.799785617939067350e+01 6.344044428416971471e+00 3.093676462961052565e+01
