1.690388940915328320e+01 -1.158039374565428048e+01 3.844524336348449367e+01
1.598155153544029972e+01 -1.170611415849593229e+01 4.074325336558754884e+01
1.895196217924566184e+01 -9.394397246756049924e+00 3.525690847430992392e+01
1.741917268039086508e+01 -3.890913784385567453e+00 4.695853488029148082e+01
1.642899113608655171e+01 -6.615569629573411881e+00 4.677127559374665822e+01
1.614930368922218307e+01 -5.825660528830495011e+00 4.705707679200756388e+01
1.542941210096406657e+01 -1.114250576329094322e+01 4.235807460869719421e+01
1.522896942655323116e+01 -9.029676077091346897e+00 4.559589459936488964e+01
1.514143127843601810e+01 -7.372099796893857970e+00 4.689683101296313339e+01
1.714464048312411393e+01 -1.143198836980114841e+01 3.773475479876137229e+01
1.964084942493332164e+01 -6.729991657056376475e+00 3.454899906013712041e+01
2.000314217880607970e+01 -4.727047090701830712e+00 3.466977511227661779e+01
1.983317935942895005e+01 -5.910297785369966306e+00 3.462620669772162074e+01
1.616138004548555074e+01 -1.170633167341514635e+01 4.015975739646756892e+01
1.587722758963669101e+01 -1.179559497971402493e+01 3.959490228415739210e+01
2.060543597225316503e+01 -4.041985046030245776e+00 3.539386300884486758e+01
1.914513866297885869e+01 -8.360942434280497437e+00 3.449618373869886057e+01
1.794692639119743660e+01 -3.605876259338881784e+00 4.677049944387528768e+01
1.641871236223450836e+01 -4.799044719033541462e+00 4.716944415033447058e+01
1.495888419418401938e+01 -1.030449808600625516e+01 4.382348385401790836e+01
1.515136165503604637e+01 -1.084413577953617747e+01 4.300244797391609097e+01
1.526889195467572513e+01 -1.142722108702009898e+01 4.172640547585537263e+01
1.487541880264373972e+01 -9.968980627461704103e+00 4.440220771285948587e+01
1.568156008022139680e+01 -6.638359910762351213e+00 4.700056296255434773e+01
1.489431284317508641e+01 -8.004824630355155790e+00 4.655480623743868307e+01
1.729842240030670197e+01 -1.137883726118263361e+01 3.729067016999873374e+01
1.765536407572602329e+01 -1.107186073733487675e+01 3.653363927749580853e+01
1.919034957128018704e+01 -7.558690440058903448e+00 3.422917615877089759e+01
1.978995954463914231e+01 -5.308496977491447666e+00 3.447562120867070945e+01
1.529080375870039354e+01 -1.160257842205106549e+01 4.111447880560383084e+01
1.884216872077703542e+01 -9.006913373322298355e+00 3.466735144489836529e+01
1.689140059093783108e+01 -4.175967656369918402e+00 4.714664255463739551e+01
1.594612195482032035e+01 -5.422456539921424401e+00 4.719228167248608941e+01
1.508041420257524479e+01 -1.060352953444606250e+01 4.352665590304398080e+01
1.491609061849198703e+01 -1.105504245716806189e+01 4.253390022365545065e+01
1.499737801210000754e+01 -1.129553836828136504e+01 4.201018137656971874e+01
1.509396515187216359e+01 -8.553217783102279981e+00 4.625963911478606150e+01
1.469645787113223179e+01 -9.381749393606318321e+00 4.529556254499482293e+01
1.479190651875310181e+01 -9.633467082082194821e+00 4.498093740571117394e+01
1.788011104825165631e+01 -1.051341949820405475e+01 3.545588836567028324e+01
1.770863463034859109e+01 -1.075740146788299612e+01 3.559763368927639249e+01
1.853928325104451957e+01 -9.652709255997272919e+00 3.483846751518610318e+01
1.953436805822130395e+01 -6.333506574641040388e+00 3.429429081206006913e+01
2.022972492451711446e+01 -4.025310017818292785e+00 3.489460029417973885e+01
1.676875453699259566e+01 -1.159962432498111617e+01 3.785635050615360342e+01
1.620466427697343548e+01 -1.173441550519918231e+01 3.878908130686172484e+01
1.624439395475873837e+01 -1.171513105188939363e+01 3.811439023074475330e+01
1.551456566365713030e+01 -1.182048359368345203e+01 4.035133825646909145e+01
1.765029435812596148e+01 -3.157658414613445874e+00 4.694945669101040409e+01
1.547112010452218378e+01 -6.045658770956610084e+00 4.721512601056554814e+01
1.459558401575635145e+01 -9.024284761622018536e+00 4.579341433355123314e+01
1.485908998866131547e+01 -6.583108850038175142e+00 4.718263677069333539e+01
1.439022752523762705e+01 -7.513960483284015446e+00 4.700732225693539590e+01
1.663381782089200200e+01 -1.161882647244659950e+01 3.726849158827285180e+01
1.713996571036088312e+01 -1.131080744187507925e+01 3.674565381085349713e+01
1.717030499502286034e+01 -1.115798614614762663e+01 3.613291345053354320e+01
1.797109641013577885e+01 -1.018130405854598131e+01 3.492830255890661562e+01
1.923554421939793002e+01 -6.756736286265637936e+00 3.396236071874999851e+01
1.944520941546997861e+01 -5.586297699994579702e+00 3.405992339061695873e+01
1.556232208265887884e+01 -1.185924625771114727e+01 3.900441268681657192e+01
1.872251783669379677e+01 -8.542756229105972210e+00 3.408977312247156988e+01
1.712252159437589683e+01 -3.442672704717228527e+00 4.713752149896723864e+01
1.627325933573605710e+01 -4.366437064046716721e+00 4.731191604901749770e+01
1.525571919718771063e+01 -5.396475861033589894e+00 4.742874651716915224e+01
1.565541480011106579e+01 -4.556826281626572772e+00 4.747714764047312030e+01
1.438832617008868375e+01 -1.062789097279390660e+01 4.345247720136034530e+01
1.444531615478457809e+01 -1.090127675038382549e+01 4.285611683148803763e+01
1.450491520509641319e+01 -1.117505485449710001e+01 4.225891322548380202e+01
1.427631986784086138e+01 -1.018087185952460239e+01 4.422373646915023926e+01
1.456425022396319591e+01 -1.144869463174186031e+01 4.166202665481521450e+01
1.416422655768600336e+01 -9.733631863259185835e+00 4.499539559222031215e+01
1.439431750929136555e+01 -8.392789178244560944e+00 4.643885268478590689e+01
1.870794957802913316e+01 -8.289504290851992252e+00 3.388560354116678752e+01
1.572003987149473403e+01 -1.183063826526464091e+01 3.837250559190913890e+01
1.501482271404299773e+01 -1.175793591184182851e+01 4.057677508785741338e+01
1.456923174022675482e+01 -1.164902637701384691e+01 4.096320187459246398e+01
1.522890109969515748e+01 -1.192240860147736115e+01 3.958120793572824425e+01
1.504758279925754394e+01 -1.193485240015517590e+01 3.995942898321891334e+01
1.844257619614268506e+01 -9.049851736103542876e+00 3.416741886746581969e+01
1.664681676327721505e+01 -3.676622521857011883e+00 4.732679622929124719e+01
1.449470612215376519e+01 -8.666822182932353513e+00 4.629126670521625186e+01
1.402940063217719668e+01 -9.257211208675755643e+00 4.565903708460181321e+01
1.740281772986337572e+01 -1.070998480274461429e+01 3.501815294581413696e+01
1.710299577418152595e+01 -1.096999193065678746e+01 3.543485275133829049e+01
1.804303591803020979e+01 -9.757851824607506330e+00 3.441227123548493694e+01
1.912795554504215190e+01 -6.124148932672127010e+00 3.372123630636721003e+01
1.877596482319959037e+01 -7.086390495555045632e+00 3.348566457662342799e+01
1.588065387491635150e+01 -1.178735785900590827e+01 3.780213444068276374e+01
1.505250464366055496e+01 -1.195975320463619163e+01 3.876985688657763518e+01
1.816263441382893973e+01 -9.556945957605643471e+00 3.424505005080122544e+01
1.477482741662307753e+01 -6.166046983701947148e+00 4.733908913500985705e+01
1.503764122553654659e+01 -4.747211525154030554e+00 4.764239315698280564e+01
1.602870028617490661e+01 -3.867132966524660542e+00 4.749205124459723493e+01
1.400871237632038024e+01 -1.113516708236498864e+01 4.231340191613576707e+01
1.408746551653770318e+01 -1.153682992134617535e+01 4.124663716033976613e+01
1.389451887790458251e+01 -8.780599094680066941e+00 4.632294952494871154e+01
1.367130539062070405e+01 -9.930331190178742773e+00 4.466846344324098794e+01
1.424905264413274431e+01 -7.119619608960856105e+00 4.715022051539030912e+01
1.376673926349961974e+01 -8.218095716420554808e+00 4.672047747225176551e+01
1.640385157013196249e+01 -1.156819282356502754e+01 3.668484943939359511e+01
1.755503667245995914e+01 -1.016751610908646342e+01 3.442667934910836891e+01
1.883249367724077672e+01 -6.712388342517003892e+00 3.346010065799910649e+01
1.867369739519083183e+01 -7.707570264768502710e+00 3.360287454938369933e+01
1.457483898824556334e+01 -1.184912931429513350e+01 4.026526319814880850e+01
1.829999362302303823e+01 -8.724530173505101516e+00 3.368352187970197775e+01
1.640230112517756567e+01 -3.177340415502983184e+00 4.750692914063926509e+01
1.407953391332032567e+01 -6.286467927784308074e+00 4.746309677015481299e+01
1.541080849385630458e+01 -4.057512657122901878e+00 4.765728815655950967e+01
1.386021211459590674e+01 -1.079442675168427712e+01 4.305151021077135454e+01
1.354773917806789285e+01 -1.036344491748158347e+01 4.392650358279501432e+01
1.385766159881285731e+01 -1.145171640677040870e+01 4.160824745672834979e+01
1.353028051281981092e+01 -9.777205863279752052e+00 4.500777874151290092e+01
1.342926177301821156e+01 -9.419934686945479640e+00 4.550543985620707588e+01
1.611929369493832809e+01 -1.167273410599852390e+01 3.684265392468660849e+01
1.604127346523756259e+01 -1.174407804881538375e+01 3.723196944625023974e+01
1.668515029454806964e+01 -1.124412886058810024e+01 3.573210948372344831e+01
1.902025360141659860e+01 -5.490918150238486284e+00 3.348034799792175420e+01
1.523541737466608659e+01 -1.192686069228875567e+01 3.795595662131714931e+01
1.412030197082671279e+01 -1.171522797540390215e+01 4.063078142350909161e+01
1.458059817262978797e+01 -1.204922160800236774e+01 3.956752214116706767e+01
1.778597136742978790e+01 -9.461180063034229093e+00 3.365157140640600630e+01
1.448760921009158409e+01 -5.300302108412047630e+00 4.762396424176527887e+01
1.578419084254706384e+01 -3.367828480331936714e+00 4.767218936064561063e+01
1.371645666198360836e+01 -1.065022777067984450e+01 4.342947725304845363e+01
1.333239800106695760e+01 -1.096085789914311093e+01 4.265079714278168410e+01
1.343112810333845530e+01 -1.122595137131072995e+01 4.207540580109694162e+01
1.317863190851205957e+01 -1.012691835104272364e+01 4.434171774406630107e+01
1.363901232301277489e+01 -7.655854868493755738e+00 4.711782147289738276e+01
1.617403183919993737e+01 -1.151759198145773766e+01 3.610026518847171673e+01
1.683999491370791191e+01 -1.094551346631993383e+01 3.498887758939634551e+01
1.754671618802419175e+01 -9.863009682613251172e+00 3.398601194350167276e+01
1.706704009282069023e+01 -1.057717871955029310e+01 3.444108782318297557e+01
1.872478998700044883e+01 -6.079465660358702728e+00 3.321973166753843998e+01
1.842932772249697138e+01 -6.668028040816537327e+00 3.295905606619555783e+01
1.827062155124552589e+01 -8.218046178301213089e+00 3.327540384307991417e+01
1.927637945770175776e+01 -4.813493575075473707e+00 3.371679441293686352e+01
1.544953320592104795e+01 -1.186915994034183441e+01 3.719551130535329264e+01
1.442320693029115652e+01 -1.208429121492935465e+01 3.834516770020604071e+01
1.361110210328600445e+01 -1.162482202732291192e+01 4.083192294562128666e+01
1.393473991524201772e+01 -5.853586176598111201e+00 4.760553629420557797e+01
1.440740774679179914e+01 -4.841790580291227108e+00 4.777699500319441483e+01
1.478040726538849903e+01 -3.943076013517290423e+00 4.791825432232921855e+01
1.351171186290760673e+01 -7.031602658261133065e+00 4.735239111068816698e+01
1.615774798599586148e+01 -2.677950319919005562e+00 4.768710418511891902e+01
1.332824388744551669e+01 -9.062662522954104460e+00 4.600310438088735765e+01
1.310570626354099844e+01 -8.850776252703676406e+00 4.636036798278912130e+01
1.289732599599304486e+01 -9.820711042710883021e+00 4.502014215622907045e+01
1.560520530155171670e+01 -1.172659586800561193e+01 3.641723279653069056e+01
1.693966575684628850e+01 -1.074818435531565086e+01 3.463081165168173925e+01
1.620007712786707188e+01 -1.133025700858510199e+01 3.533137241434925357e+01
1.831637966208411328e+01 -7.416049593204689927e+00 3.301046873136132120e+01
1.891239137457644759e+01 -4.856792098777184208e+00 3.323949714413868861e+01
1.383850842949297721e+01 -1.185483763829762616e+01 4.007950458577075636e+01
1.450190135574774786e+01 -1.206675337744901100e+01 3.895641678830502741e+01
1.787731126182870867e+01 -8.906369977094067636e+00 3.327717075306770056e+01
1.338417827020743722e+01 -6.406888213545779642e+00 4.758711282844043211e+01
1.523938438394758776e+01 -3.521166551379371068e+00 4.784127889197684880e+01
1.561285938239985072e+01 -2.831388583594289354e+00 4.785618428730202112e+01
1.304350957399494959e+01 -1.067259629407803345e+01 4.340645393675945485e+01
1.280458031778355377e+01 -1.112728320085139266e+01 4.225009945511057907e+01
1.268574491451870934e+01 -1.032358091479589390e+01 4.401484720296535613e+01
1.315279236906819804e+01 -1.145473817246336168e+01 4.155449604835246191e+01
1.311139674153868384e+01 -7.989519188695122232e+00 4.694726283062163930e+01
1.594440691879119676e+01 -1.146703425895834449e+01 3.551547168175321190e+01
1.673100010045003216e+01 -1.044426971575479079e+01 3.386357207430990002e+01
1.848892425209361079e+01 -5.276123095065971214e+00 3.279294079621579527e+01
1.475069858478653551e+01 -1.202310223101282283e+01 3.753935191916130520e+01
1.412932554554884845e+01 -1.206715238069828189e+01 3.917258247115680092e+01
1.386164736620656157e+01 -1.203111521622544267e+01 3.946881325945506092e+01
1.377702426221907395e+01 -4.936403264073419450e+00 4.791165347622156645e+01
1.415361825584441391e+01 -4.360087745605900622e+00 4.796737855857191590e+01
1.276229843961332300e+01 -9.344545725840200490e+00 4.568346488001712657e+01
1.288809605190079921e+01 -7.705639807762542759e+00 4.717411749727592962e+01
1.497448513123745606e+01 -1.188734771221856512e+01 3.657533686858924682e+01
1.627734542129967110e+01 -1.118097105675108871e+01 3.495961255242214349e+01
1.705073515437753784e+01 -9.968095409629320613e+00 3.356004101886675528e+01
1.647651298303541978e+01 -1.078638538501901145e+01 3.424347373498354585e+01
1.824727069595466133e+01 -6.181863887883936926e+00 3.265260413769956216e+01
1.811430315496479793e+01 -7.066342268820395844e+00 3.267663914881227072e+01
1.848286015976303176e+01 -4.848277463965710687e+00 3.272519900202943433e+01
1.485777068257852385e+01 -1.199424714524705848e+01 3.715907142166447130e+01
1.434450531642562332e+01 -1.210183402395845320e+01 3.773383204807335289e+01
1.313440016165868052e+01 -1.171284811360327005e+01 4.041705004928579115e+01
1.783392359553717910e+01 -8.146689865688040655e+00 3.266765257561090152e+01
1.740923338485701066e+01 -9.365395347084199074e+00 3.305819273282114068e+01
1.326338456069851546e+01 -5.719367275026016273e+00 4.781664085361750693e+01
1.271785559041534697e+01 -6.873332046686291719e+00 4.748692438430578733e+01
1.452319359738331528e+01 -3.138238967726522777e+00 4.819435827864379718e+01
1.506800511324016334e+01 -2.984821196626354478e+00 4.802527124274090653e+01
1.589946587071966277e+01 -2.148563918940884943e+00 4.786654308974185312e+01
1.406326015328254009e+01 -3.769780527858145991e+00 4.814499576280613979e+01
1.258764909904508045e+01 -1.091112043090848260e+01 4.281676701326798451e+01
1.239024422709555928e+01 -1.006043214077075021e+01 4.460655866636336242e+01
1.287944394686190286e+01 -1.158174092628658158e+01 4.097974351133998283e+01
1.258344030348284548e+01 -8.323372817875702268e+00 4.677661079588092008e+01
1.571465179551852565e+01 -1.141644770367540218e+01 3.493034431065743206e+01
1.802566944850913089e+01 -6.623615248138009726e+00 3.245709056664894376e+01
1.378550710602493368e+01 -1.210242863055574425e+01 3.805809001764163924e+01
1.314283948428703397e+01 -1.201301109602057160e+01 3.937017120722685348e+01
1.367792254316697331e+01 -1.208508840447475841e+01 3.877752891899557852e+01
1.231651486779402127e+01 -8.920984557290669414e+00 4.639780909465723369e+01
1.745484986394989591e+01 -9.088115155290784841e+00 3.287167279061046088e+01
1.267993883777887376e+01 -6.426339682738952952e+00 4.765746998255992395e+01
1.535460394148704211e+01 -2.302027160215781354e+00 4.803561847450013289e+01
1.360432938996556551e+01 -4.400424204970277309e+00 4.809570703263454305e+01
1.237067796664620722e+01 -1.069495987289112904e+01 4.338344229372195571e+01
1.225979406781136838e+01 -1.104611946558114788e+01 4.248659680098142388e+01
1.227555454885954767e+01 -1.129408463777201099e+01 4.184849743521206022e+01
1.226446529220330817e+01 -9.864208179534728060e+00 4.503250654849143331e+01
1.219647989490895590e+01 -9.626358630246739878e+00 4.536390539608697026e+01
1.244963352214364605e+01 -1.145775727062809857e+01 4.150080086316236105e+01
1.509120622733265193e+01 -1.178044778157226524e+01 3.599191614233685499e+01
1.532281145949830758e+01 -1.160970919128138412e+01 3.540984791043758406e+01
1.785684278920707513e+01 -7.745674661166685127e+00 3.253511758921599295e+01
1.639488727376472710e+01 -1.031133178843280973e+01 3.328592605390189618e+01
1.597267457698456461e+01 -1.107262997479904243e+01 3.439326614714937591e+01
1.806521182671033898e+01 -5.695714147224799184e+00 3.234602874494420632e+01
1.805333381676237892e+01 -4.839765913484047388e+00 3.221071827847375602e+01
1.426581622583265307e+01 -1.211937625921983752e+01 3.712263853568195060e+01
1.205532659312983057e+01 -8.657313427762215241e+00 4.660591674823250230e+01
1.314479278606008172e+01 -5.031086885185790614e+00 4.804641913241042772e+01
1.205197438542949229e+01 -7.339207695340349780e+00 4.738684904708753010e+01
1.480974325770057654e+01 -2.455491350968040276e+00 4.820470817745359682e+01
1.213713403911977551e+01 -7.755427483930150245e+00 4.723041876942542672e+01
1.219235893452143493e+01 -1.052043781237584241e+01 4.368765394238190680e+01
1.166527065508401506e+01 -1.031222033647327052e+01 4.420324165811921091e+01
1.458898476781233278e+01 -1.192773603663252402e+01 3.625628248777358209e+01
1.655495521337168441e+01 -1.007313914344154249e+01 3.313423966720272773e+01
1.601352466084336257e+01 -1.082457138081204029e+01 3.385626985924718468e+01
1.768160719456718155e+01 -7.092949669827611103e+00 3.215725309937241860e+01
1.235016683206681165e+01 -1.164700491051841880e+01 4.066200951449618373e+01
1.265791196219045389e+01 -1.180083138774940288e+01 4.000237985529742701e+01
1.322655512608811890e+01 -1.210302309786777286e+01 3.838250637914699581e+01
1.200521408998444350e+01 -8.196619130441902712e+00 4.693609621186482173e+01
1.739725203933076259e+01 -8.075339375514662521e+00 3.205959498618577186e+01
1.721499645158385050e+01 -8.672600990019052603e+00 3.226343857124730619e+01
1.703279620092060398e+01 -9.269687268868914032e+00 3.246702863442317266e+01
1.197599001883659753e+01 -6.445699325366239130e+00 4.772778903894473501e+01
1.251826328154365875e+01 -5.509655151715405985e+00 4.796353159702995583e+01
1.397253536975090427e+01 -3.200372449732578506e+00 4.833661744647236702e+01
1.351289422220335901e+01 -3.831475061249510983e+00 4.828731795735482990e+01
1.564112324142005228e+01 -1.619038237544352832e+00 4.804603486720327510e+01
1.169899314514705502e+01 -1.071728248690497765e+01 4.336048148367858346e+01
1.163159182352865706e+01 -9.907703494904199104e+00 4.504487715102904843e+01
1.173092154618831096e+01 -1.121275765296030613e+01 4.208540676831376715e+01
1.499330189642214961e+01 -1.159153941074391447e+01 3.485808825246629539e+01
1.654567491497632048e+01 -9.724005293096274372e+00 3.258657752063345470e+01
1.544240917413936565e+01 -1.129722351756419130e+01 3.437195909040465125e+01
1.764155745419237320e+01 -6.115258483500245923e+00 3.189913254924546493e+01
1.762197045895491598e+01 -6.579197815831358653e+00 3.195491804949593373e+01
1.772844954737450962e+01 -5.448609332207170475e+00 3.190862956675504236e+01
1.827156424452669015e+01 -4.098794636057760066e+00 3.241439077702381866e+01
1.339056327592419571e+01 -1.211812180532391103e+01 3.771243573132737481e+01
1.174688439451438704e+01 -1.146077375375715768e+01 4.144716532832226363e+01
1.242450239699309122e+01 -1.199490609396938723e+01 3.927158210546121353e+01
1.152729567181607351e+01 -8.991194573345158148e+00 4.643525471638658786e+01
1.733754602109145893e+01 -7.562285033259907863e+00 3.185741207527131991e+01
1.434371219903944983e+01 -2.568838726749730572e+00 4.837050013397310977e+01
1.509639584363636367e+01 -1.772547866596356547e+00 4.821506257740704626e+01
1.171495920289203596e+01 -1.096495586006712841e+01 4.272310543351137824e+01
1.157949083666936652e+01 -9.449846499793709498e+00 4.573946137485690144e+01
1.457729254779954076e+01 -1.183429181783204598e+01 3.556572666509772063e+01
1.521042512417721149e+01 -1.143081770242578443e+01 3.451498710283031812e+01
1.605856728567002634e+01 -1.017831173928286503e+01 3.270790567089222378e+01
1.555051900673651488e+01 -1.086275944470675014e+01 3.346905291841419228e+01
1.355461632922363258e+01 -1.213322057432227297e+01 3.704252125571598242e+01
1.377942774997659825e+01 -1.213745010874341723e+01 3.673979689505034685e+01
1.408677163255456932e+01 -1.207502345231697660e+01 3.652082198553532066e+01
1.224012738391261124e+01 -1.204887731733010980e+01 3.858019688512358414e+01
1.145654846454019982e+01 -8.398063470729864477e+00 4.686111040295636343e+01
1.300818460836255674e+01 -4.178337996668979315e+00 4.833367313465448234e+01
1.251605951881269263e+01 -5.039249984309800645e+00 4.814058590198560239e+01
1.138582977494568205e+01 -7.805237833225672439e+00 4.728674743726372043e+01
1.189556704164482781e+01 -5.987585333967770929e+00 4.788075683477575240e+01
1.342170953127166477e+01 -3.262525810382488345e+00 4.847892946894442190e+01
1.463026941282734228e+01 -1.885830866466651212e+00 4.838090037514128028e+01
1.538295277032037411e+01 -1.089857198096429780e+00 4.822541515682367930e+01
1.601057603173454780e+01 -8.227491024433096767e-01 4.794841695595246023e+01
1.092293857619315567e+01 -1.042697586684704625e+01 4.388403111795356182e+01
1.111715939743799275e+01 -1.005008754294157391e+01 4.469232250181071464e+01
1.116783240775415287e+01 -1.108415160184272175e+01 4.230056128810512206e+01
1.516991490124627973e+01 -1.117788896329951953e+01 3.381305641516785698e+01
1.727774369667550403e+01 -7.048405765611428286e+00 3.165483281423383488e+01
1.762368956647915397e+01 -4.831254728876031912e+00 3.169600983226478519e+01
1.785671331326576450e+01 -4.142638423420383909e+00 3.192143607358298496e+01
1.171659312373175332e+01 -1.180488875289197637e+01 3.993060546960936108e+01
1.173207015363915495e+01 -1.163286905288416939e+01 4.068870317580149276e+01
1.218139102853553091e+01 -1.188881439666235984e+01 3.958771181432423703e+01
1.277529251291625734e+01 -1.212095360468881111e+01 3.798757647872029963e+01
1.688293396489963172e+01 -8.196932683217907467e+00 3.159999705059635744e+01
1.701283091450598661e+01 -7.952467695984204887e+00 3.159711216340608075e+01
1.660965425036481236e+01 -9.092685911856348113e+00 3.190579867591363694e+01
1.656097364347385081e+01 -9.312315463936270632e+00 3.206896473638953182e+01
1.132928812016920261e+01 -7.134864692430560318e+00 4.754254260505315699e+01
1.188754863471028322e+01 -5.047414835861546045e+00 4.823477402121158519e+01
1.468393289310720817e+01 -1.260046052829954855e+00 4.847405239553764744e+01
1.115185327082529376e+01 -1.083641461065984579e+01 4.293810111996930345e+01
1.078280652837619868e+01 -9.876126712292624177e+00 4.500971426897928751e+01
1.103918909145788518e+01 -1.069299978002115203e+01 4.334061514143004246e+01
1.060470642645148409e+01 -1.095554662481372077e+01 4.251572133047162083e+01
1.390775203036625207e+01 -1.203067726604728982e+01 3.591928271882521528e+01
1.470592922411638703e+01 -1.144519488383437356e+01 3.409940631505168085e+01
1.427173470200361649e+01 -1.176668429655491899e+01 3.478580839750370046e+01
1.489725102329437512e+01 -1.105848040538982247e+01 3.325380535582068831e+01
1.695299213973891383e+01 -7.438973265528701972e+00 3.139460412489783536e+01
1.721796663145142148e+01 -6.534747363703065304e+00 3.145227850482401877e+01
1.284356444826526022e+01 -1.214706224480197072e+01 3.696253740467163595e+01
1.329310989686082145e+01 -1.215552133594894535e+01 3.635702780985485560e+01
1.125867458493070572e+01 -1.152924080802396567e+01 4.102283937949216863e+01
1.170486323518573180e+01 -1.197680120570517381e+01 3.917302718764086222e+01
1.070382564717296603e+01 -8.958739557868307557e+00 4.642928438367421506e+01
1.233803389589176014e+01 -4.515034064607729825e+00 4.833189397804492415e+01
1.127278459365416730e+01 -6.465413406730936785e+00 4.779803188514383550e+01
1.287093815452766421e+01 -3.324674385112618147e+00 4.862123622716898552e+01
1.233488611917076661e+01 -3.902304946694373999e+00 4.852369925505424675e+01
1.379297622062623674e+01 -2.630970760866743863e+00 4.851278232890584974e+01
1.416414584503663576e+01 -1.999112645966844903e+00 4.854674511461912090e+01
1.570004565202928681e+01 -3.103493581145452818e-01 4.823407723338885944e+01
1.091553855465552481e+01 -9.196689635177538236e+00 4.606109010171802254e+01
1.037885625675962764e+01 -1.066869722128664044e+01 4.332073985679448924e+01
1.082799983692922652e+01 -1.118968253094951848e+01 4.195663445758552967e+01
1.617008758343942532e+01 -9.691609665098377846e+00 3.218379245731235727e+01
1.534181171091505647e+01 -1.055862068437286005e+01 3.270135662827402001e+01
1.406366086570622542e+01 -1.188810580841448505e+01 3.513976822991681814e+01
1.508762348150756338e+01 -1.090093849989706776e+01 3.308192819115844685e+01
1.105128141498831340e+01 -1.142381718908050559e+01 4.139756125419959432e+01
1.232403248393994133e+01 -1.213888422576453152e+01 3.759264692154518883e+01
1.080407106997773958e+01 -8.077459123918325545e+00 4.706935989543816135e+01
1.060787706595461621e+01 -7.754404523090654422e+00 4.730165261891553996e+01
1.126685759833519995e+01 -5.760876843256538926e+00 4.806332442764622215e+01
1.324224561263367228e+01 -2.693102141343854061e+00 4.865507085121761577e+01
1.398485953684385130e+01 -1.430248055273474428e+00 4.872272658498208386e+01
1.513893662054205258e+01 -5.219134238825500205e-01 4.849954868384402573e+01
1.053274624860222808e+01 -6.860693637852946836e+00 4.764266948231677645e+01
1.060255901442802440e+01 -1.019251543417083461e+01 4.433965954801055886e+01
1.008730223745835630e+01 -1.033512300568309250e+01 4.398655192141888648e+01
1.571247841833156578e+01 -1.000449222457168119e+01 3.214924939703679030e+01
1.387553016463743383e+01 -1.170076673657784916e+01 3.419865276273582566e+01
1.678169066593683212e+01 -6.766329726509932918e+00 3.102527074275995744e+01
1.108190286545427483e+01 -1.176465284493347951e+01 3.994554533730330803e+01
1.077011544750875771e+01 -1.159775603650433773e+01 4.059821674932239688e+01
1.035510844280017828e+01 -1.138683482746877473e+01 4.134792213668699645e+01
1.161063116878959356e+01 -1.204278256976351180e+01 3.838286013316534451e+01
1.213252590904255612e+01 -1.216090393661157165e+01 3.688263352564811726e+01
1.022256497972066391e+01 -8.349556938408584372e+00 4.685207322196411894e+01
1.662824079896677532e+01 -7.829542135811510484e+00 3.113437333578990618e+01
1.608928530945455293e+01 -9.354929988858248890e+00 3.167099510739880586e+01
1.179760103904260049e+01 -4.478867170221443317e+00 4.842634452707682158e+01
1.361383705867557481e+01 -2.061164839708659713e+00 4.868892589281556127e+01
1.443990731890344925e+01 -6.921125983808339432e-01 4.874826421837307322e+01
1.054711955845978366e+01 -6.386970092162412627e+00 4.783038371544378720e+01
1.030443122991077054e+01 -9.401959803278769456e+00 4.568733490322171065e+01
9.788800474474044222e+00 -1.083095359361037424e+01 4.276677663767878101e+01
1.005766029977065834e+01 -1.107465232014964407e+01 4.209343259415822303e+01
1.313531832466136251e+01 -1.207531837880724979e+01 3.545544357059382889e+01
1.555699068372098992e+01 -1.018954987956253433e+01 3.229409793774580351e+01
1.420143875604048489e+01 -1.145957217524165372e+01 3.368383074723207926e+01
1.354962822580840154e+01 -1.194196140864549172e+01 3.471347556065848750e+01
1.462469886671085817e+01 -1.093912018681707998e+01 3.269477972923787945e+01
1.661386167660491253e+01 -7.296331602856150234e+00 3.097747688256149345e+01
1.280679238013018839e+01 -1.217359267339541873e+01 3.597427977847041092e+01
1.118350423964087348e+01 -1.200060572047854812e+01 3.872590172536718711e+01
1.618673526945565655e+01 -8.915778815445456473e+00 3.134471654196118706e+01
1.126069681737397410e+01 -5.055579570090680264e+00 4.832896538348012427e+01
1.277805293421873856e+01 -2.720220806372672495e+00 4.879956019258968780e+01
1.204845016918030964e+01 -3.284337041988417916e+00 4.878313146533050570e+01
1.178751696593656106e+01 -3.875418384165697283e+00 4.863157467453136462e+01
1.545627905566085580e+01 2.576248537773262459e-01 4.850941257003351126e+01
9.932461249799791503e+00 -9.844493666260436981e+00 4.497448835100507125e+01
9.881858260379827286e+00 -8.926350178081619902e+00 4.642332440970488250e+01
9.717951718925174731e+00 -1.064437437842450507e+01 4.330085033303277697e+01
9.898378271709340481e+00 -1.008564508567393680e+01 4.447593087649678267e+01
1.372873475820604305e+01 -1.198633087413358922e+01 3.531728997415495996e+01
1.433629509153788462e+01 -1.120643052814843443e+01 3.313894942721590553e+01
1.098038122371502467e+01 -1.195059220898222208e+01 3.910448121412927236e+01
1.028120518697875418e+01 -1.166631947874664554e+01 4.017329622116799470e+01
1.053791265028036506e+01 -1.180827747080491008e+01 3.961597783348730673e+01
1.151591971041631091e+01 -1.210876386837112584e+01 3.759276547154524906e+01
1.187277068533207824e+01 -1.215681491623080390e+01 3.719771628154785503e+01
1.053887958050299467e+01 -5.447033965764174646e+00 4.818435237882194144e+01
1.328866096525983664e+01 -1.470894940806791062e+00 4.893943128789490515e+01
1.383594946657113134e+01 -8.168902673211861920e-01 4.898722854072435240e+01
1.268514812025505023e+01 -2.115256101895763408e+00 4.897803666899709896e+01
1.489518791961346267e+01 4.605695659733786973e-02 4.877480970227131962e+01
9.791929913257803264e+00 -7.256466042444324138e+00 4.748716072390809728e+01
9.821324722397687168e+00 -6.308552411077841704e+00 4.786274303180559286e+01
9.640981674023189285e+00 -8.621686172216616484e+00 4.663476339323102593e+01
9.572719154501722727e+00 -1.047754288111014453e+01 4.363390936651278906e+01
1.492401804424065759e+01 -1.054721461368066571e+01 3.232334359541755475e+01
1.505508510744923889e+01 -1.020079544337506405e+01 3.188005624876144495e+01
1.536642681794593557e+01 -9.830691823034905852e+00 3.159175341275598825e+01
1.369711708299908004e+01 -1.147394387159154761e+01 3.326839201505971033e+01
1.333441757218256818e+01 -1.183210124070678582e+01 3.414441752813134201e+01
1.013424750418249509e+01 -1.150601235058408101e+01 4.079202693114854128e+01
9.510554910492503566e+00 -1.119377256103254048e+01 4.167109463563942029e+01
9.505116185135161544e+00 -1.098710955814656032e+01 4.227267913121782072e+01
1.066214706677095947e+01 -1.202441050891787455e+01 3.827877453144888875e+01
1.187096272276611231e+01 -1.218320482838514351e+01 3.619680466580399525e+01
1.561752874256218071e+01 -9.397551669514276895e+00 3.127295472395057274e+01
1.124833512241900735e+01 -4.452024758176588826e+00 4.853421974943020700e+01
1.225802417262664434e+01 -2.600961765372870715e+00 4.892692251924972879e+01
1.429132104136200176e+01 -7.857065722352932213e-02 4.901374317682799386e+01
9.829384966398279744e+00 -7.703542828655521646e+00 4.731656807412294086e+01
9.693032856849571388e+00 -9.607325030511733033e+00 4.531340706798340534e+01
9.057723295469559233e+00 -1.062007623728365679e+01 4.328098586871639952e+01
9.081222431803341877e+00 -9.812826341685909171e+00 4.493923165241890416e+01
9.069475582519530121e+00 -1.021642801823454327e+01 4.411015372242512456e+01
1.232047195634698689e+01 -1.219166405526066121e+01 3.559155200395564123e+01
1.300631622253123787e+01 -1.193630437134374667e+01 3.426658705062888544e+01
1.397925432466050921e+01 -1.112704056134014330e+01 3.260916522565698017e+01
1.142151046510864809e+01 -1.217474557622858988e+01 3.680278674094721225e+01
9.658844008847069063e+00 -1.134984899800817892e+01 4.129828346179201048e+01
1.025896789846895807e+01 -1.192438266587993390e+01 3.903594022620703186e+01
9.792356129223058758e+00 -1.173487355638635776e+01 3.974843464197949316e+01
1.061743516740677684e+01 -4.968829872179694185e+00 4.838859365502401033e+01
9.816230089896933464e+00 -5.838688022683384382e+00 4.803963818082833370e+01
1.123829918058438793e+01 -3.848527760220526783e+00 4.873945481340485486e+01
1.313957109982781191e+01 -8.576121827140371634e-01 4.920403432730986992e+01
1.259246261934327293e+01 -1.511541725538251724e+00 4.915614651596120410e+01
1.213725966690658531e+01 -2.088464465011752313e+00 4.908584660536223510e+01
9.641424846412039784e+00 -8.139949727790058986e+00 4.698964508841844889e+01
9.070192408652758331e+00 -9.353402171766560969e+00 4.567825664249690476e+01
9.059149622368904531e+00 -8.893929647812896633e+00 4.641736413007464535e+01
9.026266742152426303e+00 -1.085109263924945111e+01 4.260333854509018181e+01
1.250549664778347569e+01 -1.211451186795437351e+01 3.510248732693013096e+01
1.435628039881742701e+01 -1.076288813946769807e+01 3.218077550447581103e+01
1.455391562984015508e+01 -1.021202456061903519e+01 3.146662390363917439e+01
1.311924203358401719e+01 -1.172225725591125567e+01 3.357544540523959142e+01
1.287723920003822542e+01 -1.201798080350952347e+01 3.464611612110093120e+01
1.409125197234812354e+01 -1.091335526191798166e+01 3.224678417974041622e+01
9.623998765722289406e+00 -1.151152806071315560e+01 4.062104808320015081e+01
1.078211477125102569e+01 -1.211147993309937299e+01 3.731714622131202219e+01
1.122616898012132758e+01 -3.243998139979136663e+00 4.894504151170912110e+01
1.060489851864645949e+01 -4.365018791844144985e+00 4.859393360897303893e+01
1.168134574319859986e+01 -2.666417925441478598e+00 4.901542104855101911e+01
1.368723477962449309e+01 -2.032434258156844697e-01 4.925276893158481784e+01
9.050348217140232521e+00 -7.652643695926914624e+00 4.733149787497802663e+01
9.072479030917373066e+00 -6.941438205402427286e+00 4.761327483409590400e+01
9.054753426374272607e+00 -8.273449455815228504e+00 4.687431003871817126e+01
1.319318607244158414e+01 -1.148830570802162399e+01 3.285327828885015577e+01
8.963383775596579284e+00 -1.131290613496421216e+01 4.124870956824848633e+01
8.994815798640235727e+00 -1.108206832715098855e+01 4.192581791507799238e+01
9.536841540369385584e+00 -1.189816517730218770e+01 3.896739104092519312e+01
1.014079124663511955e+01 -1.204821495757963490e+01 3.783165352095750933e+01
1.183415300728175801e+01 -1.220973539166826605e+01 3.520885286503182243e+01
9.974420089153896996e+00 -4.882130315443303559e+00 4.844819028113094816e+01
9.094605234174750308e+00 -6.230042984890161506e+00 4.789514578597401595e+01
1.059314822101484488e+01 -3.761205214339374159e+00 4.879927466991061635e+01
1.189472052957750847e+01 -1.414024616254756506e+00 4.933065788692814380e+01
1.251436824791701419e+01 -8.676520381952876892e-01 4.941156846471707809e+01
8.494637752142478959e+00 -1.069507926758752170e+01 4.281591898812268937e+01
8.303986463026127751e+00 -1.027405937455991491e+01 4.375128078340582505e+01
8.544787596861944223e+00 -9.915181317333354727e+00 4.456101428782403673e+01
1.408776241257659656e+01 -1.058659103124896461e+01 3.166657537232675423e+01
1.220532804530741444e+01 -1.209394624282009012e+01 3.457880279210029784e+01
1.246277765971895768e+01 -1.193064446019409708e+01 3.381951037760050127e+01
1.333432636565304463e+01 -1.131481135490881584e+01 3.252361831474003395e+01
1.128148712165541490e+01 -1.219252876423156451e+01 3.621258589104356673e+01
9.212974234709369270e+00 -5.512553222409979803e+00 4.820150003216112111e+01
1.306176159919083801e+01 -2.131109943933510165e-01 4.946044586033318069e+01
8.424328950189400089e+00 -9.377639405525100003e+00 4.547274882504215299e+01
8.415856944512775328e+00 -9.033120275346620431e+00 4.602689347732397351e+01
8.392620500975429110e+00 -1.054610625726034812e+01 4.322284591188957137e+01
8.501009270788575378e+00 -1.090452608786314315e+01 4.221700858336316031e+01
8.432796802993900442e+00 -9.722155187063071580e+00 4.491861246960525733e+01
1.290417490984166626e+01 -1.161246921086502581e+01 3.300676092189774380e+01
1.355723203960863721e+01 -1.088756300543617250e+01 3.179830721455727627e+01
1.085862777774620902e+01 -1.218325261389297509e+01 3.634383619454220593e+01
1.071115416448878044e+01 -1.216096628892075948e+01 3.672462705429801133e+01
8.913883138824569841e+00 -1.149921305168119368e+01 4.046558783973456030e+01
9.303371844731353590e+00 -1.180344555475588741e+01 3.932346202711965333e+01
8.208845772554226983e+00 -1.103893470748833927e+01 4.170135996827428215e+01
9.619438427604517727e+00 -1.207201947986347434e+01 3.738453495431117091e+01
9.477690304398512566e+00 -1.196008522266099661e+01 3.836522561612210325e+01
1.114148643750505308e+01 -1.221031180276609085e+01 3.562254028652838400e+01
9.962508708968135451e+00 -4.277910440092938416e+00 4.865364975440050443e+01
1.121614911422169847e+01 -2.601274058477159201e+00 4.913181743093149123e+01
1.067026422250411244e+01 -3.126280005942049911e+00 4.902156651140027321e+01
1.120650465935520401e+01 -1.958306726602525583e+00 4.931866563566703121e+01
1.181641110775950132e+01 -7.699389285628666091e-01 4.958625468774342693e+01
1.243641577965305345e+01 -2.229764202746774560e-01 4.966808136837414622e+01
8.270074162462497824e+00 -7.485087080282695204e+00 4.734187138069476219e+01
8.299158740582278426e+00 -6.536747196471400123e+00 4.771757387723761212e+01
8.420200825812253598e+00 -8.764362451721060765e+00 4.640155308519545230e+01
7.931014882391465015e+00 -1.077015329597204918e+01 4.235041219285247394e+01
1.268909229963562701e+01 -1.150267205489673650e+01 3.243802998127934245e+01
1.230437820367488477e+01 -1.171383005110387998e+01 3.290540806682470532e+01
8.864361149503942272e+00 -1.168558057888919066e+01 3.968223266147997208e+01
8.282659931390334407e+00 -1.123353578703262023e+01 4.117500296367038004e+01
1.003564394878747912e+01 -3.643347054562785736e+00 4.887584434848031378e+01
9.331262363640993485e+00 -4.795414542736757824e+00 4.850779915334364034e+01
8.401039409332675234e+00 -6.066442675356566561e+00 4.793513213700445874e+01
8.413411418479650905e+00 -7.833361284228138821e+00 4.708714808198023150e+01
8.321918824992669883e+00 -8.302669103585659016e+00 4.672499938182519230e+01
7.773488953732223372e+00 -9.172110847574579395e+00 4.563698549732755794e+01
7.728200870641030562e+00 -1.047221213757366520e+01 4.316476857962246072e+01
8.007961653726509255e+00 -1.001761078195575827e+01 4.418252322414490152e+01
7.784860060803806547e+00 -9.631552923958155432e+00 4.489801160674667102e+01
1.172654149280949376e+01 -1.204745023585987163e+01 3.394213716689191074e+01
1.191966862814365768e+01 -1.192498903312206515e+01 3.337278684635231940e+01
1.153341984331743042e+01 -1.216991197219951104e+01 3.451148926322999699e+01
1.000106675536601664e+01 -1.214718690588424543e+01 3.664649865396893347e+01
8.473549430944391503e+00 -1.134471237736712190e+01 4.081104173987769457e+01
8.814832240822095599e+00 -1.187195558191526068e+01 3.889887622978588411e+01
1.065984014922603329e+01 -2.483467666217958669e+00 4.920834869994549621e+01
9.405509623851520118e+00 -4.159832237437460556e+00 4.873032511405363465e+01
8.559048652502404764e+00 -5.109833871272079442e+00 4.834361228345192529e+01
1.119698038074877289e+01 -1.316507098894783123e+00 4.950517618472861869e+01
7.781142511918889504e+00 -8.634774076385395958e+00 4.638574039345680688e+01
7.471736757117777294e+00 -1.011992440442222652e+01 4.380445980627793290e+01
7.118216145801551598e+00 -1.058625976498843180e+01 4.256186821120226682e+01
7.367294223673535924e+00 -1.084523987108277687e+01 4.188482786190225937e+01
1.134783518113111356e+01 -1.222780669455404379e+01 3.482618744901331098e+01
1.029574529903131008e+01 -1.219175970026705969e+01 3.588490002389828248e+01
7.983658601725346138e+00 -1.137652218895740752e+01 4.037332585537475182e+01
7.601798408972465282e+00 -1.115415000765633380e+01 4.110128493568380748e+01
8.735989834840777846e+00 -1.195451230203226700e+01 3.809597458081095311e+01
1.011267848012716009e+01 -3.008654621742083091e+00 4.909803468545403149e+01
8.696478660979567010e+00 -4.585251619430428249e+00 4.854918117761136642e+01
1.182104063847610576e+01 -8.994076112835983072e-02 4.983512671909527114e+01
1.065019512513586086e+01 -1.840971883496097306e+00 4.939505300632615103e+01
7.776929656205178176e+00 -8.013950036445770309e+00 4.684297414978126284e+01
7.707861918711444105e+00 -5.902935555236560994e+00 4.797509734667902848e+01
7.064030059578664478e+00 -1.039834817609564510e+01 4.310670983197531569e+01
6.935888167380344527e+00 -1.022216573714738530e+01 4.342666398807882189e+01
1.137586652629084583e+01 -1.191932639895252599e+01 3.292549307724199537e+01
1.131905185138869285e+01 -1.204321230014068789e+01 3.360699474097890516e+01
1.100149716103569375e+01 -1.222809497221852126e+01 3.503276247803184873e+01
9.098083263748126370e+00 -1.209582413069113116e+01 3.693741678938229711e+01
1.086151655085990342e+01 -1.224587802514601265e+01 3.444356123147554882e+01
8.165775184184168367e+00 -1.161848856764720139e+01 3.951184896696287296e+01
9.479377452604150989e+00 -3.525488105576805253e+00 4.895241701944547685e+01
1.010373091826381398e+01 -2.365663458278068454e+00 4.928488233690152498e+01
7.503543874839552430e+00 -6.843541955748830397e+00 4.753996836380792956e+01
1.120101988537278537e+01 -6.366755647209586533e-01 4.975338068328589713e+01
7.489715229283683051e+00 -7.317514216028220275e+00 4.735224715328395462e+01
7.130659219332929233e+00 -9.311198583120502192e+00 4.524680270428154216e+01
7.136570651715623548e+00 -8.908231345837359427e+00 4.580836988793866738e+01
7.098880859298214219e+00 -9.848972857224499222e+00 4.423815953164196912e+01
8.656987086368424400e+00 -1.203707309568521744e+01 3.729307748485244645e+01
9.291109765625000350e+00 -1.213340788055719699e+01 3.656839081251384727e+01
7.493745402719832249e+00 -1.140833243983280632e+01 3.993559620825271139e+01
7.207390146255518104e+00 -1.124155403967690603e+01 4.048158152158227097e+01
1.029714776944022425e+01 -1.222307244669218385e+01 3.493433861345938851e+01
8.299397045216407420e+00 -1.187140874230689747e+01 3.845515990022961716e+01
8.117190698116187875e+00 -1.177995682821665824e+01 3.882957761446795075e+01
8.770685525181928455e+00 -3.950315825117957313e+00 4.877148382466459964e+01
7.787081866506960992e+00 -5.424620620463320719e+00 4.817948795414870489e+01
8.023264664424814896e+00 -4.892162643285632662e+00 4.839369358118356956e+01
1.049743709643237288e+01 -1.090861312494002089e+00 4.963573469777909963e+01
7.224162899405048854e+00 -7.719656309903869307e+00 4.699014676500222976e+01
7.136739563420210430e+00 -9.540926445992095495e+00 4.487740527740305652e+01
6.399727629581001942e+00 -1.032446772586164840e+01 4.304864690548394890e+01
6.817512639962559184e+00 -1.071749007921979846e+01 4.203801789349595452e+01
6.803336857987134501e+00 -1.092035771055901883e+01 4.141905027421510255e+01
1.071844361734292406e+01 -1.216143490983086650e+01 3.384119802417635725e+01
7.645996650889189894e+00 -1.158709678602773607e+01 3.931031512388872784e+01
9.156906696459580886e+00 -1.215994762336397450e+01 3.595801485595817581e+01
9.732869235497048521e+00 -1.220026683912837484e+01 3.542598452182750179e+01
9.554421260870430643e+00 -2.890879962275085369e+00 4.917460145465597066e+01
1.013779070546382499e+01 -1.778020335591334433e+00 4.945971129259095989e+01
8.061160899538952762e+00 -4.374908302348644362e+00 4.859059981784918136e+01
1.120523360171318750e+01 4.319030520155385522e-02 5.000228943466201059e+01
7.140358561842356622e+00 -8.194562374210242695e+00 4.659876878894485230e+01
6.861449946706397185e+00 -6.444819323716605375e+00 4.768874203339879614e+01
7.142469861085197991e+00 -8.505264989017685906e+00 4.636993813810648390e+01
6.346544646314910665e+00 -1.054799998382886450e+01 4.235070700748342176e+01
6.429206691506220928e+00 -1.003295897443221030e+01 4.365155236754646495e+01
6.921035335356004126e+00 -1.107477635143120409e+01 4.102757978025040586e+01
6.495362718041848282e+00 -8.913140600914820411e+00 4.560507030830335395e+01
1.057536703392819533e+01 -1.207698912168778094e+01 3.323819866851366811e+01
8.577028975225333696e+00 -1.211962864089858449e+01 3.649030437776376345e+01
1.015715478790510495e+01 -1.224085548003700019e+01 3.434485220856574728e+01
1.034938752422661246e+01 -1.223166341928485679e+01 3.404088595275884188e+01
7.003531160360791930e+00 -1.144016370529431725e+01 3.949759291349904800e+01
6.825066841657977612e+00 -1.126146592908933108e+01 4.016123033905606121e+01
7.783831772324138143e+00 -1.187086215876154149e+01 3.801133162393274745e+01
8.844755315308216126e+00 -3.315371994554826784e+00 4.899378759910020165e+01
9.637112975334330756e+00 -2.215342965187898638e+00 4.937194696920123960e+01
7.013902846559395776e+00 -5.739244047222864964e+00 4.801510927159655751e+01
6.709102659466101848e+00 -7.149888218468169576e+00 4.736262768198167805e+01
1.050140378971007493e+01 -4.107538668102357349e-01 4.988409702403887280e+01
9.716767775440700916e+00 -1.539998903196166724e+00 4.956923741518387061e+01
6.488111128454157495e+00 -9.450227358917217657e+00 4.485678901369944782e+01
6.458657540641394412e+00 -9.741649229241343022e+00 4.425405153325674945e+01
6.502600772985367428e+00 -8.375516250806844809e+00 4.635410438158481838e+01
7.923125920733739669e+00 -1.199497140663737937e+01 3.702871594078652606e+01
7.419395153938521226e+00 -1.168794067258596669e+01 3.876027316575660819e+01
6.240091427930813062e+00 -1.099538160382078011e+01 4.095385922239321985e+01
9.169990468295738495e+00 -1.220877359395341699e+01 3.496710310229480001e+01
9.025452701571703429e+00 -2.664480000656662906e+00 4.923084965991940010e+01
8.135688267213046387e+00 -3.740018967989581000e+00 4.881290470809938142e+01
7.220233222342002932e+00 -4.950886211588345631e+00 4.832371359012026346e+01
9.109422760833520982e+00 -1.989150685575488353e+00 4.942814355326451192e+01
6.605856631331471718e+00 -7.762697157997621389e+00 4.685836903192233649e+01
5.826210288638210777e+00 -1.034819879091172368e+01 4.258200113609368032e+01
6.293308513734513276e+00 -1.077173596368440123e+01 4.165213787473992113e+01
7.267926574752324953e+00 -1.187031443839235401e+01 3.756722090322080732e+01
8.446044107953945002e+00 -1.214616831588725887e+01 3.587989066398341009e+01
7.426313765717781123e+00 -4.164716359980324079e+00 4.863198926257580013e+01
1.061638215172703781e+01 2.962939740932825083e-01 5.013573986208075439e+01
9.797173929548497640e+00 -8.649805052757081336e-01 4.976643429687788966e+01
9.189820478412773497e+00 -1.313734257006551331e+00 4.962546237512862035e+01
6.297487550434001768e+00 -5.843456664523691835e+00 4.785733967592424420e+01
5.722633984772878435e+00 -1.016757157817563950e+01 4.299875397192312931e+01
5.899235799490059939e+00 -9.790945392837199890e+00 4.385254656764533365e+01
5.813973734998921117e+00 -1.055347104367156419e+01 4.196637843942205137e+01
5.928634466199775410e+00 -9.499584407001599118e+00 4.445512974082372182e+01
5.856150033176765746e+00 -8.850268385966824525e+00 4.542708272071085673e+01
5.932661371113755244e+00 -8.439291125668166416e+00 4.602912353116101229e+01
9.837236142462954192e+00 -1.221744809878477334e+01 3.363757670846434422e+01
9.452809704220246800e+00 -1.223583289081733838e+01 3.424628798106555649e+01
7.864074063819362692e+00 -1.205692781546308012e+01 3.642642947209313320e+01
6.167734898371127095e+00 -1.116494407753902784e+01 4.017605429915915494e+01
6.513466701998972042e+00 -1.147198428282828964e+01 3.905972916326734889e+01
8.312822889054409359e+00 -1.217270824608839241e+01 3.526955388884698550e+01
6.721214182164357176e+00 -1.159587535140012626e+01 3.869093782550476845e+01
6.645537381438763269e+00 -1.168706876937243422e+01 3.809439625510955807e+01
8.317162694915072763e+00 -3.089058372732836677e+00 4.905001620757018799e+01
8.497837554202241961e+00 -2.438235400205049697e+00 4.928706154698289765e+01
6.443810484099492086e+00 -5.484059077381098213e+00 4.803404232299068610e+01
6.069490291560913242e+00 -6.901660957334311952e+00 4.736798030131093640e+01
9.912260876984127833e+00 -1.581779800061391683e-01 5.001735723740810613e+01
