1.090801847323227136e+01 -1.062525372740386587e+01 3.209574785719090784e+01
1.346478454374237366e+01 -7.139708437213274195e+00 2.950543089578810196e+01
1.342037479935013877e+01 -7.761204280388555254e+00 2.977772207660948922e+01
1.348084148297739127e+01 -6.892167500387263779e+00 2.941719564451783242e+01
1.368375336861070757e+01 -6.453116351042486265e+00 2.959780918816075612e+01
1.338236259107929271e+01 -2.860594031222951639e+00 2.906026868167760568e+01
1.356103581534757652e+01 -3.648143943632695674e+00 2.927264965946924491e+01
1.323415933453995663e+01 -1.805788259399954132e+00 2.890383259181333386e+01
1.301404151029779754e+01 -1.283695542823374280e+00 2.865176900213046096e+01
1.114967959376145501e+01 -1.077042904211532814e+01 3.262518986873730853e+01
1.227997061049061145e+01 -9.979903045649333393e+00 3.165575711889438892e+01
1.146919547607768841e+01 -1.054521261295180778e+01 3.220838168712944594e+01
1.248895442268581135e+01 -9.551777370688762758e+00 3.106041396877628458e+01
1.321211690185331911e+01 -8.744085307130264439e+00 3.050921748415920121e+01
1.337832069824621684e+01 -7.963471129798592507e+00 2.989982784176666897e+01
1.269837543539906299e+01 -9.392702459546907079e+00 3.097895452648113590e+01
1.384775196110432383e+01 -5.540896256425352107e+00 2.966973390604066907e+01
1.359221480099328261e+01 -4.117485519537076755e+00 2.931558965618343748e+01
1.372150269454112603e+01 -4.533387994193242676e+00 2.947602483423542807e+01
1.355162485717963072e+01 -2.324906705673436935e+00 2.927174394220745057e+01
1.350134513838495742e+01 -8.371293785622730965e+00 3.041860159578398282e+01
1.382457125564140199e+01 -7.531828159770880937e+00 3.012389354626829530e+01
1.387718604681150936e+01 -5.913045742939755378e+00 2.973269340793895310e+01
1.383326501898272554e+01 -5.000456276183585125e+00 2.962976629291876662e+01
1.372089253156754296e+01 -1.789219389727147114e+00 2.948321343759955582e+01
1.386109717597738467e+01 -3.241161747040726571e+00 2.962909442320607667e+01
1.287808862310785152e+01 -8.069450195439341611e-01 2.850111755740293162e+01
1.274123834010570100e+01 -9.732626039562466858e+00 3.154756103814503021e+01
1.354592457368178948e+01 -8.928054758811150293e+00 3.103281705344944541e+01
1.379101844323713699e+01 -7.998032783382381439e+00 3.032787436218008992e+01
1.385813751594592169e+01 -7.065938771304312027e+00 2.992001487100828427e+01
1.398144200301071294e+01 -3.904772385810024282e+00 2.978166707055720863e+01
1.377173481088050622e+01 -2.846976956212145637e+00 2.952331016546346376e+01
1.394102008863104025e+01 -2.311289379291698864e+00 2.973489183853774875e+01
1.350077148338211153e+01 -1.267150666074752019e+00 2.923115323737117066e+01
1.328064853900356290e+01 -7.450656249999999536e-01 2.897906829425556552e+01
1.364258459040411253e+01 -8.731735715308815315e+00 3.089667821273046755e+01
1.316053780990503874e+01 -9.414525952011905119e+00 3.138508673181362241e+01
1.424483349472384042e+01 -5.984878302384283977e+00 3.018946556123906433e+01
1.418590959914276084e+01 -5.240572599246330121e+00 3.006342913684335372e+01
1.410180207128063046e+01 -4.568826449286794045e+00 2.993429191336684880e+01
1.418449419938726130e+01 -8.169128747529020629e+00 3.085763837939051157e+01
1.421861660512574765e+01 -7.187011417496634635e+00 3.035611811210609901e+01
1.425887056931826713e+01 -7.916329836582223223e+00 3.077158142975144628e+01
1.423065814443561194e+01 -6.849821590746553390e+00 3.033019367400136801e+01
1.416115299276280837e+01 -2.833359747285040697e+00 2.998554079798324423e+01
1.439490272489260114e+01 -3.435609445283890562e+00 3.027398238264514418e+01
1.394357481199183368e+01 -1.220000180814263313e+00 2.973175113720836293e+01
1.417470951254576761e+01 -1.768236397750227784e+00 2.999641732721332232e+01
1.407323582914798443e+01 -8.719382148207794003e+00 3.128430787320871787e+01
1.387997285111463519e+01 -9.112165071878216338e+00 3.155682310196045748e+01
1.462865576496794162e+01 -4.037327282906911563e+00 3.056249222302673729e+01
1.441685369424312135e+01 -2.342632791829608152e+00 3.027229231885432270e+01
1.457953291518808037e+01 -7.308233919196604589e+00 3.079278131001857943e+01
1.460363454524719806e+01 -6.633449260298799111e+00 3.074087797214490081e+01
1.456864495654595260e+01 -5.498412038498407206e+00 3.055216705111175912e+01
1.452420420479232988e+01 -4.940164633160388341e+00 3.045728845226240367e+01
1.448209962563782760e+01 -4.604275625046548193e+00 3.039262950203159619e+01
1.458933073895966714e+01 -2.799394612346798539e+00 3.046655173705490682e+01
1.472622457332103707e+01 -7.834721552189441773e+00 3.121482291024720013e+01
1.457803999401885520e+01 -8.340264511671838576e+00 3.138752908163715105e+01
1.461310201140948628e+01 -6.056847119653014033e+00 3.064705357443927980e+01
1.482320306573286040e+01 -3.401858890760538934e+00 3.075524396501203839e+01
1.487557517552731134e+01 -6.920827307999578792e+00 3.109318258995380546e+01
1.494021985790612383e+01 -7.429384034336807829e+00 3.122919540701671792e+01
1.486255637005096020e+01 -4.639749926144756564e+00 3.085122039973966324e+01
1.497641990496893349e+01 -6.417197379944540536e+00 3.115135635780403689e+01
1.487586985989622512e+01 -5.668751777364822608e+00 3.094187909959664751e+01
1.502469120705223027e+01 -5.159394704806261167e+00 3.108794258191061388e+01
1.503777122624213014e+01 -3.781614973131842472e+00 3.101295133655478153e+01
1.519349067696196798e+01 -7.753138816382322496e+00 3.165798829668255365e+01
1.498109498790956984e+01 -6.128778472239230446e+00 3.110433792739713610e+01
1.515086034135680748e+01 -4.244682924880920361e+00 3.115974611065503908e+01
1.518718878719701948e+01 -5.680376840936530947e+00 3.132519643057002057e+01
1.522847105086707842e+01 -3.308147039856915050e+00 3.120815658742716892e+01
1.527912172144074354e+01 -4.645532163208581089e+00 3.132587651531769879e+01
1.534947426572368023e+01 -6.200799549158550583e+00 3.156213617978998442e+01
1.544141360327902035e+01 -5.165764414948863070e+00 3.156287841247946702e+01
1.543919227620778756e+01 -3.849718014450109305e+00 3.146833408353691297e+01
1.569564683409103623e+01 -4.651315191088634116e+00 3.180056868690264338e+01
1.574850867071153004e+01 -5.817706074984156039e+00 3.197791105051064520e+01
1.581428900660346848e+01 -5.211598654783702322e+00 3.199193309395049667e+01
1.590753365294343169e+01 -4.017055753618500091e+00 3.201017718340337836e+01
-4.755155459713998667e+00 5.871690457592769086e+00 3.918719953376540133e+01
-5.192068827073673454e+00 5.965079128671903597e+00 3.857589954012973266e+01
-4.906455832796133620e+00 5.435824003458971099e+00 3.898353728108976668e+01
-4.921523372570246302e+00 6.419040290468500665e+00 3.894569395752473184e+01
-4.304404982440740213e+00 5.750316559902928226e+00 3.966109594827752716e+01
-4.470518860814309825e+00 6.297504048255556874e+00 3.941985233699596591e+01
-5.318156374451229240e+00 6.557158684063565168e+00 3.838984777808765614e+01
-5.087681277743128838e+00 6.965739126053778207e+00 3.870454728026630420e+01
-4.636809668349155089e+00 6.844647840166979691e+00 3.917849216606485641e+01
-4.185862023909084684e+00 6.723240144246838135e+00 3.965258673115793187e+01
-4.019529996286851592e+00 6.175983354022791083e+00 3.989402246294753951e+01
-5.484456665431838296e+00 7.103894953730106820e+00 3.814851719013012143e+01
-3.734796110938253921e+00 6.601508575089135356e+00 4.012687541226311794e+01
-4.802905682728845882e+00 7.391515816941736539e+00 3.893742642409485200e+01
-5.253955217174438808e+00 7.512848182958807186e+00 3.846329180635240874e+01
-4.352128887254554712e+00 7.270263803160599281e+00 3.941130565664308705e+01
-3.901238906471520718e+00 7.148986766582479113e+00 3.988533517453527821e+01
-5.634977801211022097e+00 7.605160445745227094e+00 3.807867365038246277e+01
-4.109852097386828440e+00 7.620658227602171486e+00 3.965337133980862916e+01
-4.479923387844014115e+00 7.858665077925336639e+00 3.926012076825655583e+01
-4.930510862113654191e+00 7.980399003639181643e+00 3.878644033112940548e+01
-3.449756040764424547e+00 7.027557106129854958e+00 4.036001960255419618e+01
-5.552378094769740535e+00 7.983419412447172903e+00 3.831892810146478467e+01
-3.658844063110942901e+00 7.499654136509464664e+00 4.012753157274538296e+01
-3.867617092126832468e+00 7.971056074779905742e+00 3.989545107797887624e+01
-4.076319707227779254e+00 8.442313572664637888e+00 3.966351506228075863e+01
-4.607732587728492923e+00 8.447089625344178287e+00 3.910902656560224244e+01
-5.883110779759157083e+00 8.033918080388710692e+00 3.797343704654360863e+01
-6.016570402746727275e+00 7.697613478575489054e+00 3.769352458615887258e+01
-3.120971401393660472e+00 7.500305164865736174e+00 4.072818524098807558e+01
-5.148356022564245293e+00 8.566991458472145382e+00 3.872260717708203970e+01
-5.850695603346551366e+00 8.453840049311358129e+00 3.817474220121808060e+01
-3.620960655419052099e+00 8.325392362298710935e+00 4.017179695651525861e+01
-5.608434648538163536e+00 8.803720526968877635e+00 3.841683785098508963e+01
-6.273133175326186972e+00 8.356856533516904051e+00 3.767095395107848077e+01
-3.247643600819580367e+00 8.090005513141202087e+00 4.058814736582549898e+01
-3.829820896607214475e+00 8.796742581657909454e+00 3.993978764520029046e+01
-4.285077466833516091e+00 8.913703430556216389e+00 3.943159600146833554e+01
-6.397636638014857269e+00 7.789941121044074102e+00 3.730982060379724885e+01
-4.825411114271166646e+00 9.033597082616724450e+00 3.904540817157815269e+01
-5.366212399303526226e+00 9.153601576349007729e+00 3.865896241835276470e+01
-6.148700765381654776e+00 8.923776582130392043e+00 3.803218363883074460e+01
-3.966322991154661803e+00 9.223969421756306630e+00 3.981568215344837114e+01
-2.792179947109957094e+00 7.973127393606826985e+00 4.109656270811468914e+01
-3.374325797226862544e+00 8.679730144750758214e+00 4.044826156632327496e+01
-5.906746329710071741e+00 9.273548691896921881e+00 3.827439010615833581e+01
-3.510991732522085851e+00 9.106953771388848651e+00 4.032401725195776976e+01
-4.719155525956503006e+00 9.435893135076492300e+00 3.931832142472531189e+01
-6.684068883371145020e+00 8.920942631796625832e+00 3.744207444122295669e+01
-4.455364797957169998e+00 9.675634964640327240e+00 3.963056210335860641e+01
-2.919166521333541375e+00 8.562812080749994337e+00 4.095637751714411934e+01
-5.200159563259949103e+00 9.501361403797515592e+00 3.895636972445738877e+01
-5.619884119284161095e+00 9.635533753709625060e+00 3.867715032229673255e+01
-6.446444970186457013e+00 9.393316160434295625e+00 3.789057693132809135e+01
-4.047955835920868495e+00 9.685831059240568308e+00 3.995460725298791260e+01
-3.647683007967570390e+00 9.534186392510500596e+00 4.020150042728787554e+01
-3.040593696535305757e+00 9.378285834530421639e+00 4.088046168868910257e+01
-3.329063608994463852e+00 9.844450588679626080e+00 4.058841131036618322e+01
-2.463548427180596523e+00 8.445785223756248072e+00 4.146502426609210801e+01
-5.153228847395292078e+00 9.958079650956168649e+00 3.920809369050419235e+01
-6.160060168012312154e+00 9.755269092425692179e+00 3.829279977871951957e+01
-4.232620112559137837e+00 1.009873000288552092e+01 3.999204608933485616e+01
-2.752203542423889093e+00 8.912250975393739338e+00 4.117233940682906734e+01
-6.977926267426610707e+00 9.486755610689307616e+00 3.746882190557272452e+01
-3.780448873881320004e+00 9.971477445648883275e+00 4.029048394290306589e+01
-4.684451709763250982e+00 1.022588947834729467e+01 3.969384104523114587e+01
-2.141671958159825362e+00 7.908211601275069391e+00 4.171364247179761975e+01
-2.092262892238115235e+00 9.119810329677678240e+00 4.142682661305179437e+01
-2.213565928724523513e+00 7.328108037782279816e+00 4.157973979576045309e+01
-1.819935797342803419e+00 7.370898097129865434e+00 4.196228169084177750e+01
-5.873575066960767366e+00 1.011747081599910736e+01 3.869533161357082918e+01
-6.828553677033374569e+00 9.795895559361490257e+00 3.783665058363978773e+01
-4.396376695471616358e+00 1.059351312990516192e+01 3.988470445765207018e+01
-2.738554951346056754e+00 9.774379572500237146e+00 4.089902217061327150e+01
-1.919480121797191963e+00 8.456368924030346790e+00 4.170765055332793025e+01
-1.941191403896261436e+00 8.708041633851614449e+00 4.163419489605212220e+01
-2.509861604945425206e+00 9.348134994138773024e+00 4.114903194504508122e+01
-6.539391943079393421e+00 1.026985390384212238e+01 3.830195219773077753e+01
-3.621132017681576443e+00 1.030223906774914866e+01 4.039624997577642063e+01
-2.704650718185117153e+00 1.008883027811116584e+01 4.081984493234067202e+01
-1.206990109839277459e+00 7.817749708757397720e+00 4.215147409242018028e+01
-5.135682520859102596e+00 1.035288311856083787e+01 3.939604216805843606e+01
-5.587001761683454859e+00 1.047990444238780583e+01 3.909819543782153772e+01
-3.913126295645598773e+00 1.075989040425290000e+01 4.020422077115077286e+01
-4.666342257750204503e+00 1.097187006409087928e+01 3.970714669121827001e+01
-1.375595129443309528e+00 8.466952097204844208e+00 4.195041441094866030e+01
-2.148076039913775492e+00 9.704316831178838143e+00 4.120960375744170534e+01
-1.419404575162759752e+00 8.970022321578161595e+00 4.180358045925268584e+01
-5.126545526628450311e+00 1.072592963051542903e+01 3.940269296809228194e+01
-6.064856699969478626e+00 1.058497613959650252e+01 3.881353281699865931e+01
-7.211390591573042741e+00 1.019924454536946534e+01 3.778250728994657948e+01
-1.557301517943187275e+00 9.634225164898778004e+00 4.152032772484556489e+01
-6.542887992754263138e+00 1.069008766725069925e+01 3.852876662280842623e+01
-7.020711718012669245e+00 1.079515342882966422e+01 3.824416432697211832e+01
-4.205538995495141208e+00 1.121818180372428841e+01 4.001218831871481285e+01
-3.106099218810304485e+00 1.096189700488091745e+01 4.052016620467193775e+01
-3.655723003532415749e+00 1.109001536299413893e+01 4.026621660471285225e+01
-2.080555506215573836e+00 1.033310628680720278e+01 4.105110162915899252e+01
-8.313083407986611162e-01 8.477547322103582417e+00 4.219358681828128965e+01
-6.049193836296732130e+00 1.096429420712061997e+01 3.906379696981823457e+01
-5.637208279163878011e+00 1.115382147478717201e+01 3.932504393222800587e+01
-2.555804724477860113e+00 1.083362532936990696e+01 4.077443563165522988e+01
-9.667959257839248144e-01 9.564168481679709899e+00 4.183089905142907128e+01
-4.759181687455978249e+00 1.136128829287614295e+01 3.980901968833801874e+01
-3.641523455460657033e+00 1.136981544129089450e+01 4.026147924058729899e+01
-2.006239962297752477e+00 1.070552693628749985e+01 4.102837764680851507e+01
-8.979668101392638269e-01 9.231838727184106475e+00 4.197261086531400309e+01
-1.456495164564890921e+00 1.057738948530325729e+01 4.128241269180832518e+01
-6.788739974433542379e+00 1.121035439731613614e+01 3.867602021289718550e+01
-5.313110689574692458e+00 1.150446958891725302e+01 3.960587546373930223e+01
-3.077532950629903841e+00 1.152146306896037053e+01 4.051092248784937055e+01
-2.160465886235513722e+00 1.130819653204932074e+01 4.093447949497696214e+01
-1.096067395531466371e+00 1.021610412547595459e+01 4.156881684074603811e+01
-6.511463825867933153e+00 1.144875313824977958e+01 3.902999602133390056e+01
-5.866759360502496357e+00 1.164758083708424863e+01 3.940302056794067909e+01
-4.584497932037543855e+00 1.163210080172492589e+01 3.999893354489604747e+01
-4.209862733901266196e+00 1.214456351506346721e+01 4.028845373492936233e+01
-1.808613111883079050e+00 1.094293839476171470e+01 4.110823228121716255e+01
-2.512333570801210225e+00 1.167345642208527856e+01 4.076112072982907364e+01
-5.297747103563140714e-01 8.919530702899661989e+00 4.221800394338142581e+01
-3.757574758467665532e-01 9.494054021577362334e+00 4.214173961186570239e+01
-7.360116028974865721e-01 9.855183656080065191e+00 4.185513253281899182e+01
-3.644311737095979886e+00 1.198760678049936956e+01 4.044632784161461103e+01
-1.881613457246793963e+00 1.158708018925123362e+01 4.100842054366371769e+01
-8.937705458948311810e-01 1.055052480486023292e+01 4.153542782875875616e+01
-1.353660306639967947e+00 1.103904652228930594e+01 4.126875848439782857e+01
-9.312564195118928634e-01 1.074357027823084287e+01 4.146135877289859195e+01
-6.420531546918634369e+00 1.179072620263586657e+01 3.920038262768051851e+01
-4.962959743678642788e+00 1.204546058226420335e+01 3.998651624754631229e+01
-6.974398968212264904e+00 1.193389775838335964e+01 3.899676936769252222e+01
-5.885283631658782433e+00 1.228371840902902612e+01 3.964604112214910003e+01
-3.078742785821817929e+00 1.183064709591211638e+01 4.060354782318839284e+01
-3.316545912724438439e-01 1.052369213691337180e+01 4.178815535931692438e+01
-6.429516098679024516e+00 1.210889298136314096e+01 3.932157336467117403e+01
-4.775497540576658650e+00 1.230154539083226339e+01 4.012947935118308607e+01
-7.308184436005610074e+00 1.162444792099242541e+01 3.855669447814000250e+01
-5.341179837133657848e+00 1.245854258956024907e+01 3.997048295100177739e+01
-3.103858862561212906e+00 1.216317354170158005e+01 4.080133840540349155e+01
-1.872518848272455960e+00 1.181677129957426331e+01 4.101882892116858415e+01
-1.250867600945453573e+00 1.150070250195903476e+01 4.125572832607682017e+01
-6.195635868503369670e-01 1.141424931196840120e+01 4.150325310924912969e+01
-4.064371843889900693e-01 1.090962294180710757e+01 4.164022262144949593e+01
-4.244130683324783604e+00 1.258811708827857068e+01 4.054813204978397323e+01
-6.384050417138038114e+00 1.286305761913287782e+01 3.958751739102356737e+01
-3.695476929245282705e+00 1.265294459852714226e+01 4.083706408752538408e+01
-4.792482408996017185e+00 1.252334278832549508e+01 4.025938653710166193e+01
-6.730917889873974325e+00 1.253708530745976901e+01 3.931144774252395280e+01
-2.454554036826928076e+00 1.243335736865933860e+01 4.111590854368601811e+01
-1.232666767874547098e+00 1.196010141837820306e+01 4.127663648119598605e+01
1.180111714211937446e-01 1.107556196372521207e+01 4.181906425850595355e+01
1.150253350531927309e-02 1.132783033459863908e+01 4.175068290158868933e+01
-5.862425863353050381e+00 1.266072773560021858e+01 3.977907647810200586e+01
-7.299252674839016741e+00 1.244581829647679072e+01 3.900213368541577097e+01
-3.075080477498845610e+00 1.254316148535571784e+01 4.097647158123727706e+01
-1.834585406830247400e+00 1.232365233206446398e+01 4.125521967878175644e+01
-4.245843424415529199e+00 1.283916671700672119e+01 4.071730440144845176e+01
-5.916118876087524958e-01 1.210370794790271276e+01 4.153452352299080275e+01
-1.801438192952543593e-01 1.181617459930388314e+01 4.168924145091281730e+01
-6.077994506514277084e+00 1.320873769857684721e+01 4.014916591055982309e+01
-6.905937370325808011e+00 1.306548503423669416e+01 3.939584714419360267e+01
-4.796841082865302752e+00 1.302560053760134373e+01 4.059739784353945424e+01
-4.262831417591433691e+00 1.312507233867450118e+01 4.104340760164419066e+01
-5.709377684269608899e+00 1.283343050928465168e+01 4.005979977018674987e+01
-5.346696131296823751e+00 1.321164792297242130e+01 4.047773320751293369e+01
-3.078853501978527696e+00 1.272959669611790900e+01 4.111841857409783785e+01
-3.636571080669818823e+00 1.331181441292887691e+01 4.142248242927180968e+01
-2.461836963547886281e+00 1.280630105208681258e+01 4.139994696779283601e+01
-1.213514219105273462e+00 1.221375344788945227e+01 4.139477851447458789e+01
6.422782788686233202e-01 1.124145165798860546e+01 4.199799727228980828e+01
2.311191672077121673e-01 1.152877989625098998e+01 4.184355413652607325e+01
-3.039543603737334010e+00 1.316899738413522591e+01 4.150883693282096232e+01
-1.844286094930730480e+00 1.288307534144275124e+01 4.168171514681709766e+01
-1.218394935476920793e+00 1.249367137675628925e+01 4.160818872816879832e+01
-6.446265703747823927e+00 1.358369321926273976e+01 4.023841290917843594e+01
-6.947111741195397094e+00 1.354584489524232360e+01 3.982988343209490978e+01
-7.624349111538591295e+00 1.295810917615411029e+01 3.900741412222271975e+01
-5.896520144696125953e+00 1.339768284944889309e+01 4.035806712983526268e+01
-4.233405410541991820e+00 1.345458626681709013e+01 4.133615578802591273e+01
-4.547578968898322027e-02 1.224695391087301921e+01 4.178051083501299701e+01
3.657750871295296635e-01 1.195945968088432032e+01 4.193667853419844249e+01
-4.830446539876930068e+00 1.359740800255400650e+01 4.124979847370357078e+01
-7.427565173839678181e+00 1.326780925110969278e+01 3.920426005091445631e+01
-5.369343395631834603e+00 1.359282295545812680e+01 4.091245306652404423e+01
-4.233805434223280706e+00 1.362926350763426875e+01 4.155073518599373728e+01
-2.441715620728730496e+00 1.302598896798061290e+01 4.159530593101372631e+01
9.592189627680665076e-01 1.171990310099380572e+01 4.217491625615493689e+01
-7.448439495225346541e+00 1.350798237364890753e+01 3.942103084224607557e+01
-5.907857428201934269e+00 1.358825249820771397e+01 4.057538321727650299e+01
-3.637162782622101354e+00 1.366111926259386600e+01 4.185166445536083302e+01
-1.335942409748342108e+00 1.297560779683030496e+01 4.192327225996001516e+01
-3.312382354984165778e-01 1.248693951613296882e+01 4.190582793518537841e+01
1.223663763734045951e+00 1.144604344946707997e+01 4.221815227873776166e+01
-6.879085530360407041e+00 1.402171350342125322e+01 3.998338451046853237e+01
-7.315192158684101997e+00 1.397296816983542023e+01 3.962442016338377471e+01
-5.303378149597666180e+00 1.383751366235281743e+01 4.105833809044847982e+01
-3.040951424714076978e+00 1.369295139793842608e+01 4.215236754659057539e+01
-2.442833176977085685e+00 1.328815982184292466e+01 4.191714881815950378e+01
-1.627162485282777515e+00 1.321268754132423950e+01 4.213132410031555963e+01
5.004279619446082572e-01 1.239014036807531127e+01 4.202633248364207930e+01
-6.248849794380081590e+00 1.431748600701667051e+01 4.067560252913511221e+01
-6.820560114035077781e+00 1.419083544497049587e+01 4.026561539709802418e+01
-4.089637420917689781e+00 1.407311760833034597e+01 4.188100769380626076e+01
-4.613648544353769587e+00 1.426307644469442693e+01 4.174541276143859392e+01
-3.565056580283738175e+00 1.388294881553739479e+01 4.201674879310429134e+01
-8.278004086371136827e-01 1.306810359957919587e+01 4.216469156490807535e+01
-7.104937033633051957e-02 1.286989773759908751e+01 4.227670687250714110e+01
1.276189519823271112e+00 1.219840434631741211e+01 4.234664539293977015e+01
-5.775947285514685170e+00 1.407742211652744935e+01 4.086703336342988990e+01
-7.668627528755246558e+00 1.427571366861658397e+01 3.940480210149555518e+01
-7.949309201250992274e+00 1.347017734816791723e+01 3.901261872874149361e+01
-7.312026619617315149e+00 1.445978248184797899e+01 3.972831015133198918e+01
-5.246804560431891140e+00 1.412039304797814232e+01 4.136177573012670194e+01
-3.527130625324572222e+00 1.415072484766433369e+01 4.231234195533046005e+01
-1.964808009635782948e+00 1.351126609180832006e+01 4.234273930819496456e+01
1.805238259244602128e+00 1.165070186776095262e+01 4.243856911571172219e+01
-8.025270051251368386e+00 1.409165618494732541e+01 3.908129244995298990e+01
-2.425375064085080190e+00 1.375243244250567010e+01 4.244466541542888649e+01
-1.410262584794718776e+00 1.354197433082776314e+01 4.258036520519942769e+01
1.046786367669808149e+00 1.253344568706038586e+01 4.227230226369238864e+01
-6.174207760653922961e+00 1.469496817400636424e+01 4.107978342173278463e+01
-6.721731799583051448e+00 1.455752804680925472e+01 4.048419061365678573e+01
-7.194589371471241002e+00 1.479754407633540048e+01 4.029279817619642756e+01
-5.138463368003972853e+00 1.445332812931328270e+01 4.160961253932947557e+01
-4.563904733350416798e+00 1.462080715308470324e+01 4.213974213593922258e+01
-2.829937482951113914e+00 1.400713712050668569e+01 4.252057188394690712e+01
-4.014357028213863643e+00 1.460940537618158253e+01 4.247258973302409402e+01
-3.190778500398987472e-01 1.316070703908115469e+01 4.240634817590832739e+01
8.919340022828827763e-01 1.296470490712075296e+01 4.258295190441351252e+01
1.649055935342941925e+00 1.117096541628242079e+01 4.248491640203794617e+01
2.280411014140278692e+00 1.236819825285120622e+01 4.269626278914755346e+01
-5.663389902624893502e+00 1.464361858583008491e+01 4.147378379837262941e+01
-8.101264092514286475e+00 1.471333192259030476e+01 3.914996930869961034e+01
-7.744589810612892755e+00 1.489739427426380658e+01 3.947349090885227696e+01
-3.096916744464192739e+00 1.433734654637279604e+01 4.267566061251304177e+01
-3.478930440348718012e+00 1.461809585668851952e+01 4.273398408814968974e+01
-5.022040126341480448e-01 1.356251712312901070e+01 4.283882680406843235e+01
-1.809512424100261585e+00 1.381194125279353280e+01 4.273705845125048342e+01
1.894176158333518156e-01 1.325326886687986594e+01 4.264785850511301390e+01
1.593034142930315866e+00 1.267672238768046356e+01 4.251817024800057254e+01
-6.684390217197974771e+00 1.474625474739075948e+01 4.068628961601241656e+01
-7.521945037562998593e+00 1.497664028845480111e+01 3.993487238273276319e+01
-8.546408450359070486e+00 1.440713078275391545e+01 3.864783294459817142e+01
-5.113969664992398911e+00 1.463221948158636820e+01 4.180657256087217633e+01
-2.619052334145558270e+00 1.432120095593379716e+01 4.288855797234912615e+01
2.088428626239090313e+00 1.136623759432009706e+01 4.264107877119851508e+01
2.386499146450230313e+00 1.185525002800502570e+01 4.265667163298358844e+01
-5.748645708148161226e+00 1.531313116060762347e+01 4.156821376005757429e+01
-6.514250607463331733e+00 1.539018304070423682e+01 4.097781760024264486e+01
-6.854482491763484120e+00 1.509379652250955317e+01 4.063524024573357707e+01
-4.862565784152370618e+00 1.499945086359080548e+01 4.208110504223575532e+01
-4.366632784868453854e+00 1.521946532299687682e+01 4.245709664107504722e+01
-2.943101234154601009e+00 1.462679269038812357e+01 4.299555865617698203e+01
-3.737547590835151201e+00 1.518193052191144687e+01 4.279909423479273300e+01
-1.193220923223591523e+00 1.387149276138474541e+01 4.302961709359706788e+01
7.433194330974433051e-01 1.335673323270609458e+01 4.288273973688112761e+01
2.267843237799466394e+00 1.096423956831096547e+01 4.282505444327508570e+01
2.191443928547786690e+00 1.281456829997047464e+01 4.276837684405816020e+01
-6.174246948372417165e+00 1.568639937291763431e+01 4.131919351537225538e+01
-7.065021228471264791e+00 1.528370668547331945e+01 4.045329055063904633e+01
-8.177269968992320059e+00 1.533504361552633277e+01 3.921863702493604364e+01
-7.849538483002501899e+00 1.515582472905965794e+01 3.957678248132711474e+01
-6.935431773047940673e+00 1.577052048598680933e+01 4.061057507268584743e+01
-5.348728785901875504e+00 1.503903099052054593e+01 4.179631978684171401e+01
-1.800300155526711077e+00 1.425328285848081222e+01 4.314311390869961116e+01
-3.226370393782661328e+00 1.497171577861404579e+01 4.297500988260665622e+01
3.876102121871312089e-01 1.355012008672124679e+01 4.303170129735362792e+01
2.967615249979547620e+00 1.205974807663597481e+01 4.287431034783555361e+01
-7.491711116952697758e+00 1.579639985229861665e+01 3.999488407303194748e+01
-8.578060256446576659e+00 1.511334667800579368e+01 3.877891484344941375e+01
-7.834664198147507364e+00 1.556560131499102795e+01 3.960778186457815053e+01
-2.408083236838562069e+00 1.463547649729930100e+01 4.325672172976843655e+01
-2.758922437149975870e+00 1.500815593179370921e+01 4.321290669639336812e+01
-5.342937474534922293e-01 1.396234267306341970e+01 4.328623129912402590e+01
1.862845500409278987e+00 1.300668346374034634e+01 4.287422091811701108e+01
1.296360795417812906e+00 1.346003752187729674e+01 4.311721601197409370e+01
2.617795801411577639e+00 1.151208902952135560e+01 4.285160373853937443e+01
-5.834224718202038140e+00 1.598266592149373544e+01 4.166008918691132834e+01
-6.319835426749891738e+00 1.612026712301912568e+01 4.121442867146675582e+01
-8.979048939195278578e+00 1.489156175069946286e+01 3.833900220009470416e+01
-7.148790451792970124e+00 1.602717914977849034e+01 4.038167498745254846e+01
-5.033825871048116518e+00 1.543489779439577525e+01 4.211917343904804056e+01
-4.089941794640516548e+00 1.579206887611667298e+01 4.278362380155574840e+01
-3.110232317670960089e+00 1.538124499033635573e+01 4.316904078671674228e+01
-2.265426856441861592e+00 1.522675957897643428e+01 4.346198999863872103e+01
-2.792241903296143413e+00 1.578612992325124864e+01 4.339623541178865196e+01
-9.505799547735078736e-01 1.433023635246305005e+01 4.345531651431753062e+01
5.859153840659592216e-01 1.384717183341986768e+01 4.341573369167134189e+01
2.790786722004884979e+00 1.295263081338539024e+01 4.301891087287020810e+01
-8.535325685523044825e+00 1.552700269798233990e+01 3.867431203310848531e+01
-7.919006857243048536e+00 1.582736341067504604e+01 3.945907713194328181e+01
-6.805857897544163926e+00 1.625797377784653719e+01 4.076890019534939569e+01
-5.277006900967537995e+00 1.590648466845052411e+01 4.205098146010536908e+01
-4.719474608800320325e+00 1.583026006397637708e+01 4.244156342211392996e+01
-1.841275782392995719e+00 1.468686552688806302e+01 4.346502043446163555e+01
-3.461252677981954129e+00 1.575392806473737650e+01 4.312521982642903851e+01
-1.274247829983863545e+00 1.473827610175856506e+01 4.367338635955309911e+01
1.250326739672010523e-01 1.405324861092062427e+01 4.354296560686654516e+01
3.429731924533709897e+00 1.186951091373083855e+01 4.308002253933986481e+01
2.132679923846098724e+00 1.333667658518797872e+01 4.323020042773143246e+01
3.308424893293213209e+00 1.244947541773179722e+01 4.308968830082409340e+01
-8.292550810435653119e+00 1.594826008439244447e+01 3.879250957909390962e+01
-7.660713515259296891e+00 1.631992912833550946e+01 3.969761778460068058e+01
-7.104246305971608777e+00 1.653546263253996429e+01 4.035288925052316245e+01
-2.123067839984823291e+00 1.581834216135882087e+01 4.366730654705878578e+01
-1.179386565028046618e+00 1.513248553424037190e+01 4.381013757534615394e+01
-2.103930271340043456e-01 1.457444337776213850e+01 4.385421341393317363e+01
1.849750806508799972e+00 1.356340832552063347e+01 4.335180286401727301e+01
3.601686324185864763e+00 1.223694271295865654e+01 4.309274754881310088e+01
-8.893443275164292672e+00 1.571897028405220631e+01 3.812996618208357091e+01
-7.952074081037015851e+00 1.627889879812139284e+01 3.923000182315244189e+01
-7.402443847156099821e+00 1.681267932527335063e+01 3.993788786588170581e+01
-6.503845183776411076e+00 1.665136378125962935e+01 4.104701939159832591e+01
-5.866956688251813823e+00 1.671007110488627490e+01 4.163100265467209482e+01
-5.519800742650605940e+00 1.657101215498261126e+01 4.195830344573276705e+01
-3.760705377011541284e+00 1.617603921711874548e+01 4.302907583640978118e+01
-4.539704073284196006e+00 1.642536915516993190e+01 4.263751023795753525e+01
-1.651070410945345790e+00 1.547532817533497074e+01 4.373873977720997885e+01
-2.555679506857046146e+00 1.621752132312378336e+01 4.355211269710146382e+01
-3.441356226241482297e+00 1.638484895377384376e+01 4.322134297087077215e+01
-7.077727319486978308e-01 1.478963827892664362e+01 4.388153615194121215e+01
1.323600518267068926e+00 1.398496879394593684e+01 4.372841356187549167e+01
3.391035584228703659e+00 1.309090282848656450e+01 4.326976557871935825e+01
-7.737697568683850058e+00 1.672900297277056225e+01 3.941359556407510922e+01
-6.695921787349255361e+00 1.678738263766146943e+01 4.080466027144501595e+01
-7.093868587678632487e+00 1.715663194440618255e+01 4.025112280904809836e+01
-4.060403976970833106e+00 1.659828974680306146e+01 4.293135943448057645e+01
7.841278648920012584e-01 1.414412686699815858e+01 4.379957921618137817e+01
2.868212241388804484e-01 1.435931268861090615e+01 4.382690094505395706e+01
2.402502368790147447e+00 1.366666232898936961e+01 4.358608490567461757e+01
3.649156071357592346e+00 1.283911752771653880e+01 4.330487926665406206e+01
-8.408117441577944717e+00 1.656167261012981484e+01 3.836525056434751235e+01
-4.962511608738813251e+00 1.649507272977664840e+01 4.234886723131332786e+01
-8.072928308007957909e+00 1.664533262078009201e+01 3.888937243698859447e+01
-7.196012957286496814e+00 1.733898288443949909e+01 4.002668909746386561e+01
-6.202093106409956036e+00 1.704456135600351629e+01 4.132523793016601132e+01
-2.988967135735133507e+00 1.661722033092927475e+01 4.343441163668552463e+01
-2.351206301281224764e+00 1.644874653420623289e+01 4.366209480194885373e+01
-1.478142414020627848e+00 1.589921874824945824e+01 4.384003508736072519e+01
-7.704060983568792320e-01 1.538481701095862419e+01 4.394712805983648707e+01
-1.442327153043908849e-01 1.486886265595758339e+01 4.400584680802370485e+01
1.863569903512976689e+00 1.382566335157327231e+01 4.365718158895958823e+01
2.931451201116453742e+00 1.352079280835800645e+01 4.356407471231008799e+01
-8.809233300420043378e+00 1.640880891704803091e+01 3.792386097910726050e+01
-8.124225394980793880e+00 1.698108129283106038e+01 3.862913413623024184e+01
-9.251890730208780056e+00 1.591108918126643346e+01 3.758519697684469918e+01
-7.479097432326034856e+00 1.731675442628325357e+01 3.954801965342731762e+01
-7.839905386808961651e+00 1.740117236163359138e+01 3.889369054203185527e+01
-6.586279462952644437e+00 1.731617452152076453e+01 4.084091354950614772e+01
-5.553112263892681533e+00 1.729873961186674336e+01 4.193077731310110323e+01
-4.360399659588264143e+00 1.702073066741365892e+01 4.283444176285036065e+01
-1.997488170366875648e+00 1.671267718787528977e+01 4.377547947291828478e+01
-3.421918034619940485e+00 1.701649406699501554e+01 4.331619232489076410e+01
-3.891543113180031543e+00 1.701861364350080308e+01 4.307507899455060851e+01
1.450045480804099451e+00 1.423121398897932011e+01 4.394954605173652595e+01
3.989987761846079728e+00 1.322887756263385661e+01 4.352002547799777687e+01
3.460486356795160923e+00 1.337489919825920026e+01 4.354205996651365496e+01
4.235030186036678579e+00 1.241393575556809203e+01 4.331085690805881683e+01
-8.578880745114133788e+00 1.679112561971317774e+01 3.787798465813393989e+01
-9.209869981900661529e+00 1.625612961940512236e+01 3.748476014905501330e+01
-6.785312178645171777e+00 1.750061527625340929e+01 4.056441219618992022e+01
-5.900260855362538415e+00 1.743804018596212657e+01 4.160388076697369542e+01
-5.205845174731837943e+00 1.715939122802278760e+01 4.225784337223196729e+01
-4.783069270587311017e+00 1.709005229266490034e+01 4.254615808592121340e+01
-1.415427065306388954e+00 1.634638553177607534e+01 4.389408932661323348e+01
-8.334152076044520907e-01 1.598007648040649720e+01 4.401270495340143896e+01
-2.279654978104456997e-01 1.566269523268687536e+01 4.409330739739800009e+01
8.840274049844883963e-01 1.458577702098754436e+01 4.402711806713823961e+01
4.195546024602218038e-01 1.494812505116851220e+01 4.413020513797900435e+01
2.592384216469214131e+00 1.403585169756046902e+01 4.391764362912774544e+01
2.966233487702035543e+00 1.373217816425584026e+01 4.372222270205668337e+01
4.190918141872380431e+00 1.282615277895967587e+01 4.343675653497680145e+01
-8.319005267155747063e+00 1.710455770076839954e+01 3.812327591745011546e+01
-8.749547566725158987e+00 1.702043538324397431e+01 3.739109962768381479e+01
-8.034993652926250007e+00 1.752382083509478505e+01 3.838771775511101225e+01
-6.989686342936455965e+00 1.786525138115777267e+01 4.011561760050314263e+01
-6.188821686918487330e+00 1.764139761874595891e+01 4.124040636577018404e+01
-2.579673584290187449e+00 1.707899842413311120e+01 4.365385999473696899e+01
-1.288362739369427690e+00 1.626641736760553414e+01 4.391998403954832497e+01
-3.898698844027153054e+00 1.742199095534759934e+01 4.317360502024046554e+01
3.775708250406281663e-01 1.534523933420593522e+01 4.417392890010771112e+01
2.116564632499772003e+00 1.431838276270857691e+01 4.409963137878420270e+01
-8.489346148370410461e+00 1.722659986656940490e+01 3.771717871185521886e+01
-9.610701497286370909e+00 1.610337927506071054e+01 3.703995788994735250e+01
-7.555841511170900304e+00 1.782094377270137642e+01 3.915825131416578841e+01
-6.476950682299758455e+00 1.784444275671741309e+01 4.087758862785560865e+01
-7.169619697316373497e+00 1.810620644581124594e+01 3.968149581160727024e+01
-4.662200000820749146e+00 1.745930945025160952e+01 4.272372938497756678e+01
-1.953464840455141571e+00 1.717344473435245789e+01 4.379834380199781663e+01
-3.186875007845489272e+00 1.747058435462306036e+01 4.352013921460012824e+01
-1.206669218813834377e+00 1.637787917964657680e+01 4.394204705842689407e+01
1.583228414344003632e+00 1.482013571994195367e+01 4.425294086833711305e+01
3.529956534999012074e+00 1.379769402855817617e+01 4.385833876055879443e+01
4.493734792820676560e+00 1.307507642482005750e+01 4.359554982839764392e+01
-9.350666312227023269e+00 1.679119267077419053e+01 3.673171692652587694e+01
-7.750987537919584724e+00 1.794344817364417466e+01 3.865216572805219641e+01
-5.948577764540257107e+00 1.794570694898881769e+01 4.157976605667666803e+01
-5.366537586877621280e+00 1.763050827173342228e+01 4.218859802396898573e+01
-5.713776586831616378e+00 1.776947860705940485e+01 4.186170902045783038e+01
-1.580010986381739091e+00 1.677566022324883122e+01 4.387139041342738466e+01
-3.608109235643221169e+00 1.743935513622871980e+01 4.335143364631821328e+01
-2.407630538383380148e-01 1.609771897255791373e+01 4.406822188096816006e+01
-2.246476083662319878e-01 1.645506443990847245e+01 4.404294611712492014e+01
-8.011058901199109572e-01 1.669461103771684662e+01 4.396217820778667118e+01
6.677945533196054662e-01 1.562185838607164357e+01 4.418914877866736646e+01
9.837019661005090843e-01 1.502744291304411206e+01 4.425463716383261215e+01
2.782380240201846267e+00 1.440546351958141358e+01 4.424954288972145378e+01
2.182662725967493778e+00 1.461285261096906929e+01 4.425124313950621513e+01
4.598910608681783252e+00 1.329848793124668660e+01 4.366344833456876273e+01
-8.230081691496863527e+00 1.764647156544825179e+01 3.788179697570112126e+01
-8.920174385247506166e+00 1.724968565606827653e+01 3.690444467587911959e+01
-8.603593470653038366e+00 1.748617028021303810e+01 3.731175923665870187e+01
-7.946082791205982154e+00 1.806591955594125665e+01 3.814625669989609946e+01
-7.290431148728869992e+00 1.826411562047874781e+01 3.929947968851436002e+01
-4.964598721498537870e+00 1.789833984689722968e+01 4.261366418714119675e+01
-4.375001812203741736e+00 1.782692851395377787e+01 4.303196345633233477e+01
-2.378032518073198265e+00 1.744607018322353298e+01 4.376296063089312582e+01
-1.377278355706641921e+00 1.693403014929757688e+01 4.388087721143021014e+01
-2.903596187032079445e+00 1.753537448070776961e+01 4.367306127074613187e+01
-3.794566205810290693e+00 1.786242203189036815e+01 4.338691105533477810e+01
-1.352981099827852418e-01 1.641793493216353994e+01 4.405546520266357646e+01
-5.358764997486163972e-01 1.677532552035385649e+01 4.396272440016939242e+01
3.520615757738568830e-01 1.621540553833273179e+01 4.412375251608645499e+01
3.408473072410700855e+00 1.424645724885004228e+01 4.420995109484238128e+01
1.543506862238111177e+00 1.512379660292835304e+01 4.427763488402549541e+01
2.102892396610418047e+00 1.522008247602938980e+01 4.430061241940974526e+01
4.324221857715978778e+00 1.357866119138373051e+01 4.382527936571398186e+01
-6.236922564015134007e+00 1.814871837257568998e+01 4.121685281996971639e+01
-9.090735743209959807e+00 1.747884052640365482e+01 3.641811558950190175e+01
-7.423269216435659956e+00 1.849070667668712886e+01 3.882457017872835081e+01
-6.783508741060649605e+00 1.839142029678717094e+01 4.020465483393876838e+01
-2.303023460875984085e+00 1.768826618447402055e+01 4.387444795046175017e+01
-1.423215607796491033e+00 1.733477920877762912e+01 4.379897791063154955e+01
-2.037913149299471094e+00 1.776893386024033106e+01 4.387471040863994887e+01
-3.227370437668029002e+00 1.799140687494682567e+01 4.369228055119375398e+01
-9.795490137274994735e-01 1.705506452641772697e+01 4.388126674057333787e+01
-9.197189332497526792e-02 1.649541803440047971e+01 4.404322340645470035e+01
1.506768736269540998e+00 1.576597756996629762e+01 4.422363895237845810e+01
2.084577382498829845e+00 1.554107525518427124e+01 4.427362380722634327e+01
2.722279159305069030e+00 1.486102557919166856e+01 4.428657037424730447e+01
4.094292185243165072e+00 1.386328227344137964e+01 4.399458387465858067e+01
-6.385770735269781007e+00 1.838964466121469954e+01 4.091261976023240265e+01
-8.774254351983351796e+00 1.771532783014897561e+01 3.682499950809681621e+01
-9.302179055113395378e+00 1.714854527990181410e+01 3.589845569700539585e+01
-9.493336630410816213e+00 1.667544334710239085e+01 3.601817145664669084e+01
-8.457659272500388070e+00 1.795190437112164972e+01 3.723256596396760898e+01
-7.716050314038056079e+00 1.867398388396193454e+01 3.806574282156709899e+01
-8.141187368582329498e+00 1.818839605120549408e+01 3.764037299091450706e+01
-6.771541993977402640e+00 1.877082044139283212e+01 3.989354616489778493e+01
-7.025097487947833841e+00 1.870722557796809227e+01 3.944068061310536422e+01
-5.527437657667099380e+00 1.810122076613862419e+01 4.212015226486178676e+01
-5.997162761738673353e+00 1.845291828686239199e+01 4.155619383290338220e+01
-2.802695539505727584e+00 1.771874196325993722e+01 4.372760434715917910e+01
-8.180872113426254089e-01 1.759957862656250427e+01 4.375335105967710803e+01
-1.226239871497541767e+00 1.790005371339955431e+01 4.387584834175292769e+01
9.290896174651055439e-01 1.599082124160283414e+01 4.417366699366488092e+01
3.217372664463759024e-01 1.686333243153791983e+01 4.394470491916405308e+01
-2.600424303811086912e-01 1.702051855371291467e+01 4.389625016602256125e+01
-8.416263554680881720e-01 1.717764954156169210e+01 4.384756127027764450e+01
1.878598576245381846e+00 1.613778782700010694e+01 4.413459698466725456e+01
3.428298682715705592e+00 1.446581540677819611e+01 4.425025631083862976e+01
4.658853854005077899e+00 1.392889898598800613e+01 4.413086617428546532e+01
3.176391006881646994e+00 1.513392085161968659e+01 4.430560455107003293e+01
2.661981786592284127e+00 1.531632383610095971e+01 4.432357496647549056e+01
-8.720081091314689559e+00 1.810989073905798463e+01 3.615296823414626459e+01
-8.497592124166798655e+00 1.814025490167931309e+01 3.672404388756842764e+01
-9.056206346190606382e+00 1.756483568984439003e+01 3.576232304787192362e+01
-9.514079671171172592e+00 1.681754507500581042e+01 3.537813185268973371e+01
-8.210248794190496469e+00 1.837278877574750879e+01 3.705693091303020026e+01
-6.539212433785523970e+00 1.866311911767283505e+01 4.057602864630110417e+01
-1.732876628003977348e+00 1.791789288891835596e+01 4.395902215341799035e+01
9.192817194819371540e-01 1.638194330998618042e+01 4.408193663905577608e+01
3.336810157895392370e-01 1.707438335408811270e+01 4.389779881013284069e+01
9.041093571602824008e-01 1.670598421698054281e+01 4.399239047926985080e+01
9.099091234019165420e-01 1.681161775206509645e+01 4.396890950926653119e+01
2.270282008206026880e+00 1.572710757115903490e+01 4.422907392992176767e+01
1.486752296597498191e+00 1.654856224420849387e+01 4.404009854801700641e+01
4.033952032911816588e+00 1.408760563944667865e+01 4.417039309187410367e+01
4.074036519309006010e+00 1.452615366380479678e+01 4.425096341221303220e+01
3.690792387082929782e+00 1.495151860714979009e+01 4.428763230411815499e+01
-6.294739933494558848e+00 1.893512132013383109e+01 4.094784200876761560e+01
-9.255239233749145811e+00 1.725166135887636187e+01 3.532565154684905195e+01
-7.870646896358630684e+00 1.889701118124872536e+01 3.735598714174251000e+01
-7.025127099619929538e+00 1.915519567499456244e+01 3.903681193324989351e+01
-7.290884242348958821e+00 1.915965015093802393e+01 3.849128005494634408e+01
-6.759567394328566792e+00 1.915074102149782220e+01 3.958200557105175221e+01
-6.578083170856518613e+00 1.894900570865317491e+01 4.027616825461558392e+01
-2.421934802970730771e-01 1.733698111729048108e+01 4.382554694345146373e+01
-2.652638000213727310e+00 1.820309041848801002e+01 4.394952775306180115e+01
-2.042562045230017720e+00 1.850100480061234265e+01 4.411617885532028538e+01
-1.634397884939323475e+00 1.820052878568260724e+01 4.399601846341116840e+01
-1.108395929080684628e+00 1.824776746368833003e+01 4.395434195634888397e+01
8.929442523613151383e-01 1.730396290470918785e+01 4.378834850186206751e+01
2.055038300064087053e+00 1.637671360073775872e+01 4.406064422271128223e+01
2.623012419802349449e+00 1.620495797342274003e+01 4.408117846487131430e+01
3.772208165113760892e+00 1.556526629021254315e+01 4.420302555067679151e+01
3.217030692571982264e+00 1.544077864570414782e+01 4.426330892717243159e+01
3.191163433607000055e+00 1.603314495966689179e+01 4.410171977301088475e+01
-8.279421745988104320e+00 1.855747205198790795e+01 3.647259203553657159e+01
-8.054885399075379482e+00 1.883741034328122765e+01 3.679000672908697567e+01
-6.565979112349214830e+00 1.932916055184873727e+01 3.996482491896630052e+01
-2.477395869402353457e-01 1.750104026610710761e+01 4.376498258308169653e+01
-3.398332201654191143e-01 1.772866944080700691e+01 4.379929854721564197e+01
-3.739566532779052821e-01 1.820382531327051723e+01 4.394767001075858559e+01
3.226038655915917097e-01 1.740250154041890696e+01 4.377664706659507488e+01
1.384197510206889858e-01 1.785776067950605395e+01 4.384500337524546865e+01
4.720093501371817268e+00 1.458652557024860918e+01 4.425166451283658375e+01
4.205140851958095283e+00 1.476913034864009511e+01 4.426966008133978647e+01
4.523494191665428765e+00 1.513843215080905225e+01 4.419719111510844556e+01
-6.599626049234450065e+00 1.961296887658352261e+01 3.930979624794949956e+01
-6.865295357863455905e+00 1.961728972606929133e+01 3.876457258220101920e+01
-8.821895524981220760e+00 1.796773326425113027e+01 3.550271875657768561e+01
-9.021683970084447779e+00 1.765083712805854077e+01 3.510651110189238722e+01
-9.356293850411566027e+00 1.711215852555313077e+01 3.465395331029968418e+01
-7.445405418707244039e+00 1.938304010906427521e+01 3.778111389222497252e+01
-6.490771124668697212e+00 1.963405885205785495e+01 3.969564221262288584e+01
-1.398713634706046038e+00 1.889595614761220332e+01 4.415297354115391215e+01
1.463281496084297695e+00 1.720542241740651335e+01 4.380000726208373862e+01
7.548268892126147600e-01 1.764540574845208809e+01 4.383929736823237988e+01
2.045658170206102522e+00 1.677855861445043573e+01 4.393108689256823851e+01
2.604019051108261706e+00 1.700833593028139390e+01 4.382217712729747916e+01
3.034551679708005878e+00 1.667885147421300829e+01 4.390228409257235143e+01
3.464984734908723052e+00 1.634942605538900295e+01 4.398237682818248828e+01
3.759267620937379650e+00 1.586134592468889082e+01 4.412225884276893595e+01
4.326971070435927658e+00 1.568966636392911873e+01 4.414278336053506990e+01
-7.041128799591954923e+00 1.974390293516566430e+01 3.823258565725378588e+01
-6.439798406745740778e+00 2.007487682008738972e+01 3.903780181071615374e+01
-8.561461332065203322e+00 1.840719042939745975e+01 3.540859790776477922e+01
-8.348649424537601504e+00 1.874229987940359621e+01 3.588782802804733052e+01
-8.774520422289224797e+00 1.807169490976833970e+01 3.492899339575780715e+01
-8.987162971621817320e+00 1.773686021837164972e+01 3.445055254447315463e+01
-8.250209931095662697e+00 1.877048339503910768e+01 3.530549991488502570e+01
-8.454746545013767545e+00 1.845767117232540500e+01 3.490364547281010488e+01
-7.599858915292206696e+00 1.960632953118484423e+01 3.707131680698460485e+01
-7.849386890631360636e+00 1.931839291614131682e+01 3.667686739297495535e+01
-8.099195770305074760e+00 1.903013847066500119e+01 3.628203556255483875e+01
-6.372351173243967715e+00 1.950765193715092494e+01 4.034780564495434874e+01
-8.863344472922646267e-01 1.854989144511861454e+01 4.405032666829963972e+01
1.371222618564094331e+00 1.743305352329018021e+01 4.383359126443851039e+01
3.896056492380072900e+00 1.601949579727901707e+01 4.406259226421769171e+01
2.033615014761449125e+00 1.710688608531836863e+01 4.381109123910443515e+01
3.260561049663691868e+00 1.684672876741394276e+01 4.381319284841777772e+01
