-1.547940298387937652e+01 8.025764754641953047e+00 2.391439705021209150e+01
-1.277809629684555048e+01 1.052694237017827739e+01 2.134519539867907412e+01
-1.508043121346711324e+01 8.966972196825146568e+00 2.346594705621416210e+01
-1.623264025509117303e+01 6.620064086149952232e+00 2.654664511516682879e+01
-1.607989901414862643e+01 7.063527203115345543e+00 2.527070714499950554e+01
-1.479509973650642962e+01 9.424911448548074944e+00 2.306804572944309939e+01
-1.584646512691901599e+01 4.349982360691989847e+00 2.924661196143343034e+01
-1.629861531412284847e+01 6.034980493540441415e+00 2.760803916640436384e+01
-1.545776406784066737e+01 4.317735115787775690e+00 2.991282077629240277e+01
-1.459128204901424120e+01 4.220955190480189856e+00 3.125549517824311252e+01
-1.380015087090358072e+01 3.563670035381891310e+00 3.214842708281346972e+01
-1.294671814181815606e+01 1.662566285793092513e+00 3.274670640262435484e+01
-1.321695733089269531e+01 2.318923116257495920e+00 3.255594408973481535e+01
-9.527285233168777623e+00 1.216652414013223371e+01 2.068148788242610081e+01
-1.223526918874017255e+01 1.136698855775356876e+01 2.143135284313114397e+01
-1.167989050218603175e+01 1.167997038143357180e+01 2.125399182820956767e+01
-1.589011066741977984e+01 7.598951840542014224e+00 2.493188512074973318e+01
-1.570032138206389760e+01 8.134387116879093327e+00 2.459309067701912710e+01
-1.506906081730186209e+01 4.285487175071573951e+00 3.057959730605214688e+01
-1.629529375175780714e+01 6.458345397547854638e+00 2.709152332418550202e+01
-1.613893719261995230e+01 7.262532645560780153e+00 2.614482834339639794e+01
-1.426370215643782657e+01 1.003668957069241685e+01 2.259149785754152973e+01
-1.607105552214224531e+01 4.919410033367777046e+00 2.903517444209832732e+01
-1.568235769791365186e+01 4.886053358100230781e+00 2.970191655860546476e+01
-1.629571848334563811e+01 5.488622106726039007e+00 2.882352553706839871e+01
-1.348695072147103247e+01 2.973330200017108016e+00 3.236535522656249952e+01
-1.411350219967298791e+01 4.156421461796923289e+00 3.193139154808150337e+01
-1.017932444086051369e+01 1.223359891753248796e+01 2.089475880068288305e+01
-9.026530199295191181e+00 1.242498905109260399e+01 2.070597999814129153e+01
-1.279064438707174212e+01 1.105415127627199467e+01 2.160839541173130129e+01
-1.130134496311578651e+01 1.183802216426803788e+01 2.114663235047745005e+01
-1.551029392491051340e+01 8.670502838201008089e+00 2.425391117009479203e+01
-1.394164926646127789e+01 1.032225225318677175e+01 2.226030554532750116e+01
-1.584385405176736583e+01 8.217241521422836925e+00 2.535112366113012428e+01
-1.301318009148464760e+01 2.830834362098646917e+00 3.304469270886490051e+01
-1.274291981562406306e+01 2.176005527079008406e+00 3.323557356578225352e+01
-1.490490695091358830e+01 4.819074242780076567e+00 3.103830811927462818e+01
-1.247245570173865836e+01 1.520680097164559763e+00 3.342665117328434832e+01
-1.479995839628531407e+01 1.009593164974609181e+01 2.340139420593943953e+01
-1.590719134964001213e+01 5.455510114948102895e+00 2.949036849395209714e+01
-1.442708613226411885e+01 4.754303764295923607e+00 3.171419218422554920e+01
-1.330110328350923687e+01 3.494419431315620272e+00 3.284027276871216117e+01
-1.355481233950722064e+01 1.093721913875328156e+01 2.221943390464307555e+01
-1.603364275396920746e+01 7.681854890676968139e+00 2.568974043250810624e+01
-1.503651623751355615e+01 9.621207553988684325e+00 2.368502507701979809e+01
-1.527338414056496063e+01 9.145885799832930374e+00 2.396934830914094405e+01
-1.529360630093766815e+01 4.852581846960505985e+00 3.036692570291326021e+01
-1.361427695831040730e+01 4.085618880541906250e+00 3.262354700855006939e+01
-1.392770413357148485e+01 4.682905470442029205e+00 3.240634001487993743e+01
-1.626989886946820008e+01 6.936785355081338977e+00 2.819496678952277691e+01
-1.226855037384709313e+01 2.033090393733512968e+00 3.391572053338997961e+01
-1.619797638456117994e+01 7.461538118097184480e+00 2.701953937246990733e+01
-1.627615440242005818e+01 7.059470022955300905e+00 2.748941518727475852e+01
-1.628279835203099424e+01 6.212903197038572856e+00 2.850921803132601084e+01
-9.620666852321347662e+00 1.266548338640927973e+01 2.091719612684005014e+01
-1.280320975009410134e+01 1.158185422883859950e+01 2.186832140463057073e+01
-1.206278706579007931e+01 1.199876567708736097e+01 2.163175825844050237e+01
-1.074546912326751880e+01 1.259171952326934019e+01 2.133580907616409661e+01
-1.324763099000625743e+01 1.130332204852791378e+01 2.212457511493266082e+01
-1.560652699317674852e+01 8.887185736900772071e+00 2.492824552698764862e+01
-1.546859048917656665e+01 9.289131455474706200e+00 2.468872055220222705e+01
-1.606527090167049110e+01 8.129818705258923472e+00 2.664675366677286306e+01
-1.282708758410561778e+01 3.352377673709438621e+00 3.352007475919266710e+01
-1.512945011138240226e+01 5.388889711935914484e+00 3.082466891170082945e+01
-1.551824893977835451e+01 5.422249959000612130e+00 3.015664094755307545e+01
-1.253912302350902053e+01 2.688220288201113917e+00 3.372444090135555683e+01
-1.199819625987069571e+01 1.377620302809770880e+00 3.410659158081591613e+01
-1.437475222648188300e+01 1.075099020442059583e+01 2.309458904887144115e+01
-1.610545017291068959e+01 6.026858811058836807e+00 2.929477814682174142e+01
-1.130571227258720413e+01 1.231484926509545375e+01 2.141675516137459923e+01
-1.598738541656754819e+01 8.300118182924952848e+00 2.610942854266451718e+01
-1.584503137353417479e+01 8.701911859703482577e+00 2.585591512380859669e+01
-1.520217375633732892e+01 9.823546133298616923e+00 2.436896825475114525e+01
-1.342860746599034449e+01 4.611776718589984725e+00 3.309818474010558020e+01
-1.311505275320849151e+01 4.014817019760095640e+00 3.331570380741561621e+01
-1.474079522123833463e+01 5.355429202403041877e+00 3.149690310156249851e+01
-1.424096722965768258e+01 5.282754375149019133e+00 3.218962502745235810e+01
-1.609378786400660388e+01 6.675795975577468511e+00 2.901361505449387934e+01
-1.206464375900849539e+01 2.545451283010828458e+00 3.440479429890437046e+01
-1.179452355834418853e+01 1.890275437242302514e+00 3.459571050662042069e+01
-1.394557934206555316e+01 1.086407373038154844e+01 2.252455638693235684e+01
-1.493575621566069778e+01 1.035798940870883733e+01 2.404968155983993583e+01
-1.571659001414088408e+01 5.994208946926606885e+00 2.996152563671640934e+01
-1.532777761358438440e+01 5.961053870573345570e+00 3.062641621817050108e+01
-1.281576406139573798e+01 1.210893060094938711e+01 2.212772510541001836e+01
-1.394951383612061413e+01 1.140622736505879509e+01 2.278492706996197725e+01
-1.570267882682291294e+01 9.103707449551288633e+00 2.560248212864119566e+01
-1.374190461150870135e+01 5.210080413980362479e+00 3.288128782293961194e+01
-1.264124171335648406e+01 3.871694906317131757e+00 3.399488362155921806e+01
-1.493899455618377736e+01 5.927690662912850961e+00 3.129882539213679138e+01
-1.453866063123803265e+01 5.896913598266242396e+00 3.197632368296838479e+01
-1.625701666746705598e+01 7.660543096707571387e+00 2.788068961962831338e+01
-1.605880750511805033e+01 7.205194333470496204e+00 2.888354386204257551e+01
-1.607632858452223346e+01 7.656097188303429668e+00 2.858816954272956323e+01
-1.473674171115345821e+01 1.069221495895198792e+01 2.384656064347768023e+01
-1.591493919445810157e+01 6.565690729427382522e+00 2.976616975135561916e+01
-1.590528542134141965e+01 7.108699520736311506e+00 2.953066713143707034e+01
-1.357559689782440415e+01 1.181633307556491275e+01 2.265271721926140813e+01
-1.244568830109398938e+01 1.231764958602254367e+01 2.200951052406295716e+01
-1.180930073310271666e+01 1.271160606885633015e+01 2.190070254683974227e+01
-1.131008081076912397e+01 1.279128471266899858e+01 2.168613936719821211e+01
-1.594112750883288676e+01 8.918342208185784159e+00 2.653002242790001119e+01
-1.542688072549092482e+01 9.907804400287636426e+00 2.512405977896352383e+01
-1.559202381319997421e+01 9.923113755051836904e+00 2.591860056220138731e+01
-1.579877710586861816e+01 9.320126747072269069e+00 2.627689592812316732e+01
-1.507159219870253608e+01 1.062020218178833808e+01 2.469630324274633537e+01
-1.613629643491088927e+01 8.285919098479221034e+00 2.756966362847610696e+01
-1.292933709767967088e+01 4.540634847693575615e+00 3.379027708182462675e+01
-1.324293701300345738e+01 5.137935373846805653e+00 3.357282184662773261e+01
-1.274362544945024567e+01 5.066433494294134476e+00 3.426483466102607167e+01
-1.235310155343312033e+01 3.209412838019521708e+00 3.419952590643603685e+01
-1.589564027088819387e+01 7.651650170408875518e+00 2.929509691323882947e+01
-1.609092428351347337e+01 8.185698350991438943e+00 2.836298013755757808e+01
-1.552611531070835582e+01 6.532653715363838209e+00 3.043165844168668599e+01
-1.159086224711154678e+01 2.402870066838475260e+00 3.508825850228486587e+01
-1.151210540472388111e+01 1.197979027521420159e+00 3.482455871888198118e+01
-1.320210820089346626e+01 1.222611917607182619e+01 2.252023897892048510e+01
-1.571116547164614552e+01 1.007242264877285187e+01 2.662823305179181332e+01
-1.601558040635469027e+01 8.911247689630686253e+00 2.725839832205753410e+01
-1.403918674396488697e+01 5.824634860714130724e+00 3.266856862791114935e+01
-1.304083161982616623e+01 5.679836879252507131e+00 3.405224291438099016e+01
-1.245539288106345488e+01 4.396760118001907358e+00 3.446969439643096678e+01
-1.216707715158329428e+01 3.729415409505818513e+00 3.467490752179770652e+01
-1.513728848189242626e+01 6.499541668110568438e+00 3.110066180949695180e+01
-1.593641967550613714e+01 8.143586364888429685e+00 2.898016884424489348e+01
-1.572447108863086029e+01 7.104353729771565540e+00 3.023686418852341262e+01
-1.533560853005495161e+01 7.071050240246604446e+00 3.090248213424801449e+01
-1.187886740343812875e+01 3.066645641036512604e+00 3.488165572460874841e+01
-1.441781465010206276e+01 1.118362540533090232e+01 2.361470027355430545e+01
-1.386693277560552318e+01 1.198276335205407683e+01 2.321135583178049799e+01
-1.538517807794742964e+01 1.052631318322454668e+01 2.555992238260069271e+01
-1.589486870986653777e+01 9.536540260827521820e+00 2.694694426057458259e+01
-1.354003915311922768e+01 5.752458667101201684e+00 3.336042046305319531e+01
-1.221235639562090647e+01 4.931162797910882745e+00 3.492157420557919778e+01
-1.473695966661057355e+01 6.468550438391348578e+00 3.177806604423237857e+01
-1.433663981368962403e+01 6.437551772576988185e+00 3.245546926006618094e+01
-1.571491110110661182e+01 7.647200059943123129e+00 3.000134265273247891e+01
-1.592483108009884774e+01 8.710814348644076333e+00 2.884526219729952956e+01
-1.594249806845193795e+01 8.913531547514329745e+00 2.809186659374861961e+01
-1.553408944450500151e+01 7.642746954351008704e+00 3.070657480243991344e+01
-1.130850864381647725e+01 1.710828576999952277e+00 3.531576629785688226e+01
-1.467348679315354509e+01 1.128882906849197809e+01 2.428947893284098569e+01
-1.409888620560470329e+01 1.167509873488543626e+01 2.338263565977295855e+01
-1.282833185573163526e+01 1.263638919776860625e+01 2.238698276882620419e+01
-1.232458899817941855e+01 1.300606369172014354e+01 2.233321991171711929e+01
-1.552746614221229393e+01 1.060831283338508690e+01 2.630941921022155583e+01
-1.581928954051015168e+01 9.592728721062012909e+00 2.766276219090855903e+01
-1.251552220082533928e+01 5.599410125854267228e+00 3.471890743943234270e+01
-1.192418397625381488e+01 4.261423490996260277e+00 3.512826981425386208e+01
-1.493518554069258464e+01 7.040310587266552567e+00 3.158007735625390566e+01
-1.163615936659327410e+01 3.597111100399178252e+00 3.533489210771016076e+01
-1.134824412969666874e+01 2.933346432074888988e+00 3.554119113792739171e+01
-1.383740409094724022e+01 6.365878886410510695e+00 3.314751252486095012e+01
-1.575859834172932317e+01 8.421164056331138070e+00 2.958679452267685406e+01
-1.116976484410556125e+01 2.263267167700064864e+00 3.564214601633335633e+01
-1.309213288870840231e+01 1.299497152492233987e+01 2.308888790538983926e+01
-1.378424859822764148e+01 1.256006610035532844e+01 2.363824905069830251e+01
-1.424828525847661886e+01 1.194421516451616228e+01 2.398046462208226970e+01
-1.520752822807161131e+01 1.088266491525373247e+01 2.534313815243388035e+01
-1.490885946744779211e+01 1.138427053780513987e+01 2.503799916646498147e+01
-1.575925025733120677e+01 1.005391062307798933e+01 2.742064002130775791e+01
-1.555247070454760383e+01 1.065714692044616996e+01 2.706216274172858505e+01
-1.534345124889354572e+01 1.114514418080448088e+01 2.598993934733683275e+01
-1.333817005454369919e+01 6.294121930657726516e+00 3.383955557857417062e+01
-1.281870296352480665e+01 6.308573509570289950e+00 3.452591611733161869e+01
-1.453480187231236798e+01 7.009353414727643283e+00 3.225756980010544339e+01
-1.139332148122439747e+01 4.126499367929224782e+00 3.578816148625012517e+01
-1.110524659545998105e+01 3.464363414521241413e+00 3.599483480826263815e+01
-1.581703969888147654e+01 9.220542308922377472e+00 2.869948009777719378e+01
-1.574371158806057913e+01 9.648921658055991557e+00 2.837852283679110954e+01
-1.555357960398857031e+01 8.349117437559971933e+00 3.040970107134565481e+01
-1.513342149718464569e+01 7.611817930879455574e+00 3.138208767119654041e+01
-1.182156422657337380e+01 1.337530222386123668e+01 2.228540015218928971e+01
-1.461018531701255618e+01 1.188587485338977423e+01 2.473268746695922005e+01
-1.198454192973976973e+01 5.462822738899589581e+00 3.537660516015607470e+01
-1.168129427192723391e+01 4.795944648975050129e+00 3.558168962094690357e+01
-1.413427633916651693e+01 6.978806946380291976e+00 3.293542283285884054e+01
-1.092673864081908874e+01 2.794163534348413691e+00 3.609573833760810402e+01
-1.575873548477613539e+01 9.235908138216000651e+00 2.932754018391949558e+01
-1.557305491344745541e+01 9.055190284317314209e+00 3.011060392790004059e+01
-1.537767321114981911e+01 8.169722258276175708e+00 3.119797027398245959e+01
-1.228769242763512182e+01 1.338108196357728374e+01 2.266723648451044681e+01
-1.273999630759508150e+01 1.306565380018026268e+01 2.273165814326780421e+01
-1.507802233931486668e+01 1.159080146718145699e+01 2.571868397461382116e+01
-1.569858671728626121e+01 1.007053769399755438e+01 2.805064236417097590e+01
-1.562363350212049262e+01 1.057124665111851058e+01 2.789429573485594815e+01
-1.363538777448610340e+01 6.907233171600461574e+00 3.362695424429531244e+01
-1.228766467069240065e+01 6.133001206464175681e+00 3.517248705849877410e+01
-1.321545616834406367e+01 6.842809320072611001e+00 3.415970006530552183e+01
-1.473297045177411491e+01 7.580894969405349570e+00 3.205967422302309444e+01
-1.086263470959639399e+01 3.993465002830986155e+00 3.644774836173898791e+01
-1.115049068389540921e+01 4.660790623849636383e+00 3.624141698171595749e+01
-1.433269456789805751e+01 7.549976847405796221e+00 3.273698044505442795e+01
-1.537864169967256700e+01 8.986903567914596991e+00 3.094236400825507616e+01
-1.497713671046801309e+01 8.138755075563164354e+00 3.187129283608354413e+01
-1.265179794965116145e+01 1.349431438820259110e+01 2.307570698477069016e+01
-1.481262359164503728e+01 1.203640354858210415e+01 2.544734027732858550e+01
-1.558936541469236836e+01 1.037361292608790642e+01 2.865323206818735002e+01
-1.566813469265001402e+01 9.705118252018749558e+00 2.909421528943700963e+01
-1.559252602056807113e+01 9.761340393676128713e+00 2.981013628490007861e+01
-1.247998192865032507e+01 6.730359526871371401e+00 3.509292448604423953e+01
-1.285329884645947018e+01 6.878463897083229028e+00 3.464560725906925143e+01
-1.057876615788213037e+01 3.289638074881135132e+00 3.668727381609965477e+01
-1.145355000652083532e+01 5.326489063352613407e+00 3.603666490669900213e+01
-1.522129063217805189e+01 8.696458328765475088e+00 3.168810521515629119e+01
-1.548791759956257685e+01 1.108893951658729371e+01 2.836826457558633052e+01
-1.543219016867841376e+01 1.099195913248026635e+01 2.916564898830671027e+01
-1.542146092800195767e+01 9.758477064675671997e+00 3.052434321961026953e+01
-1.551237716695217372e+01 1.037652029992088210e+01 2.948813397455171170e+01
-1.393223004458794989e+01 7.519033907220039836e+00 3.341461972070515429e+01
-1.309273701070799056e+01 7.391165266627774955e+00 3.447984604415513132e+01
-1.351246332097068681e+01 7.455108523287944600e+00 3.394725164149305385e+01
-1.267229585963135285e+01 7.327088290516907243e+00 3.501336070719614213e+01
-1.033640545521541299e+01 3.819672940140452777e+00 3.713991917567379630e+01
-1.457677300325032732e+01 8.107889019787478446e+00 3.254543591893097698e+01
-1.521121536547864572e+01 9.264048264957628120e+00 3.155462626680091986e+01
-1.525043753872456875e+01 9.755615513019851193e+00 3.123837514384393543e+01
-1.544714436042270655e+01 1.027741015849271200e+01 3.028516292338845872e+01
-1.534407292620103469e+01 1.099438496237911878e+01 3.000150583207175714e+01
-1.417622575637749449e+01 8.076782850176684292e+00 3.322312018647376419e+01
-1.175672793851674491e+01 5.996883334990751990e+00 3.583167418893884104e+01
-1.205983988255176698e+01 6.665900391981165463e+00 3.562667719414232437e+01
-1.062014978852005953e+01 4.525753608245900672e+00 3.690041160463819381e+01
-1.092269481791117691e+01 5.189736672035179410e+00 3.669632783129314646e+01
-1.482084362476122408e+01 8.665637362335493421e+00 3.236204936804617205e+01
-1.506485928741895641e+01 9.223257410571868320e+00 3.217752012690159091e+01
-1.370743586818971060e+01 8.040265296992350486e+00 3.387675178811341681e+01
-1.225214820017272288e+01 7.263029404369828690e+00 3.554651523099536803e+01
-1.328759421613313130e+01 7.976640344912486746e+00 3.440956919817354276e+01
-1.291397100071226944e+01 7.829859811770105260e+00 3.485503675145007207e+01
-1.152886317655095993e+01 6.530366668767753069e+00 3.628687814258034194e+01
-1.122579961477216237e+01 5.860693277353749231e+00 3.649167854400810995e+01
-1.014430625791859875e+01 4.384985723537760727e+00 3.736315597699441327e+01
-1.507933102144085069e+01 9.752753071032993049e+00 3.195275415275439457e+01
-1.529978613046371549e+01 1.023766214594467527e+01 3.090989880987620353e+01
-1.442040511230612765e+01 8.634806079287290714e+00 3.303556124422868123e+01
-1.395140736212922938e+01 8.598331714006025805e+00 3.368537934358783303e+01
-1.255249158278520483e+01 7.864649913189283303e+00 3.534234005885610230e+01
-1.183179851294083740e+01 7.198913386046544183e+00 3.608206611600631675e+01
-1.513822837694612033e+01 1.050971206692670279e+01 3.151439758326783291e+01
-1.530175386113000613e+01 1.079346043503786312e+01 3.075995827136913618e+01
-1.348243504911065749e+01 8.561853940015762277e+00 3.433929244647122658e+01
-1.295140600879469517e+01 8.388657790385209978e+00 3.498368234713070990e+01
-1.213229119697994385e+01 7.800758837627475906e+00 3.587559667397264462e+01
-1.466449788061604842e+01 9.192539199760469515e+00 3.285176887735694606e+01
-1.419560278023988609e+01 9.155842639620598078e+00 3.350203902839490411e+01
-1.490845176498189772e+01 9.749893701537414969e+00 3.266618402705190505e+01
-1.029865025273910994e+01 5.039516550292236552e+00 3.725002196722375203e+01
-1.059967720987155460e+01 5.807292268426952120e+00 3.705779694878287955e+01
-9.667990377017366299e+00 4.244077166607701734e+00 3.782638457484871708e+01
-1.133182242866291212e+01 7.077703358873559836e+00 3.652559956370859595e+01
-1.102901599930947896e+01 6.408926034088292312e+00 3.673032564640225672e+01
-1.372661243108978013e+01 9.119269012307810840e+00 3.415215245640570885e+01
-1.243267803739741062e+01 8.402024923248681887e+00 3.567131662387861013e+01
-1.443978710769735763e+01 9.713256878432970254e+00 3.331653960910335854e+01
-1.464834096487703974e+01 1.025670374308045218e+01 3.310889274511046665e+01
-9.822364486818218055e+00 4.899014799775678775e+00 3.771322342278210016e+01
-1.494264981154375604e+01 1.044168059960975548e+01 3.234748126538269020e+01
-1.151751433935529434e+01 7.685533366161075186e+00 3.643321059127802641e+01
-1.325780971911799710e+01 9.082483561430487740e+00 3.480109190864880730e+01
-1.273285363737618958e+01 9.002647052188253340e+00 3.546717065800621072e+01
-1.181691797105204600e+01 8.377057365696437330e+00 3.624111385379657690e+01
-1.397077598786705543e+01 9.676588156184733336e+00 3.396734997671929079e+01
-1.059030583690806360e+01 6.395655688171522968e+00 3.712959368449239150e+01
-9.976730252025317824e+00 5.557948265534636612e+00 3.759999945519974318e+01
-1.083222730958195612e+01 6.956568270439891677e+00 3.696885551689646832e+01
-1.350197639117197745e+01 9.639927308633657432e+00 3.461778092165825882e+01
-1.224144482715091442e+01 8.910768296614534734e+00 3.591288307872136443e+01
-1.417927007274583673e+01 1.022054903676481175e+01 3.376004890864868457e+01
-9.287347025226411645e+00 4.740761060974381991e+00 3.823355051892374235e+01
-1.015456046602623630e+01 6.197153987130337605e+00 3.750628491251388397e+01
-1.120339318441672205e+01 8.171717753934331085e+00 3.678629694901265879e+01
-1.101781809762947262e+01 7.564322137434766447e+00 3.687618247250297543e+01
-1.033237813525252413e+01 6.835352635778581210e+00 3.741239092636379837e+01
-1.303309423895940711e+01 9.603255714823131228e+00 3.526809994207682308e+01
-1.377053967616166830e+01 1.025983285816196400e+01 3.433841380329803883e+01
-9.382149938585815363e+00 5.382026423598714970e+00 3.817822746298590886e+01
-9.655297569268332936e+00 6.076098834261431492e+00 3.794935032054915069e+01
-1.254149304025959744e+01 9.511316863777857122e+00 3.571179674328585918e+01
-1.138099450945108693e+01 8.749685094029652888e+00 3.669333446501480722e+01
-1.058091150212711717e+01 7.368136750901382648e+00 3.725224553287200990e+01
-1.057924127363967060e+01 7.926995475857388840e+00 3.732556083500272592e+01
-1.331124408228351008e+01 1.032892055374158424e+01 3.499221683809996364e+01
-1.181010884722521048e+01 8.918399901457245704e+00 3.631516568321644911e+01
-9.060959636322671429e+00 5.900419439995265414e+00 3.852735092962846153e+01
-1.088961991476939417e+01 8.657232892785414080e+00 3.713898966837456328e+01
-1.014347881812637198e+01 7.352177223157158714e+00 3.765190349689838456e+01
-9.954574864116992217e+00 7.868716929535883864e+00 3.789136086552437632e+01
-1.026487916411771373e+01 8.506061291491207044e+00 3.769133824317236048e+01
-1.205020321752079049e+01 9.419424937966550004e+00 3.615476474588014355e+01
-1.402785136560757095e+01 1.069272695145284047e+01 3.404482938499996436e+01
-1.155858283966811939e+01 9.327457272108157227e+00 3.660036850751985327e+01
-1.230791367755676902e+01 9.980349409266118244e+00 3.612975748151206545e+01
-9.833112305740074888e+00 6.714257921010950092e+00 3.785545733561939130e+01
-8.787581437154944553e+00 5.206107252718154221e+00 3.875649362629593497e+01
-9.334092111875278874e+00 6.593202825515351861e+00 3.829835011843294268e+01
-1.279925994678242418e+01 1.007239171769927033e+01 3.568597908057913060e+01
-1.106732106953295158e+01 9.235544898431598426e+00 3.704597837712382358e+01
-1.358926198690237541e+01 1.105420000969867544e+01 3.471437530151393958e+01
-1.186582379020294553e+01 9.813828418506721718e+00 3.649508394813649659e+01
-8.862809485994606717e+00 6.449715707211435500e+00 3.871868706279310146e+01
-1.293885834122548673e+01 1.059061773479930579e+01 3.557366944669565356e+01
-9.644345812898606596e+00 7.231232969984803916e+00 3.809488000050092893e+01
-9.458537223933781490e+00 8.291794106655302699e+00 3.834750185332951844e+01
-1.057531372262022451e+01 9.143480133833080004e+00 3.749227959010151778e+01
-1.317593742893567033e+01 1.105448924429376945e+01 3.531063865883682240e+01
-1.144779214597679129e+01 9.819657443832982224e+00 3.690631622957547364e+01
-1.193908779425319899e+01 1.033890266398340252e+01 3.663512153739861787e+01
-8.513733626041938507e+00 4.511466937245690367e+00 3.898596448963251504e+01
-9.334404647158059731e+00 7.703738661421186684e+00 3.839882283198025448e+01
-1.007934931831365155e+01 9.011650588026423492e+00 3.789484947231595413e+01
-1.256561485578840021e+01 1.054115811003215164e+01 3.610317145158396812e+01
-9.024185595034191820e+00 7.066142748740019464e+00 3.860238001737681657e+01
-8.294386918673787079e+00 5.666619768821336223e+00 3.921092363803338543e+01
-8.148345051554699126e+00 5.010823189853160109e+00 3.932642974064890495e+01
-8.391319359961766366e+00 6.306183632668314942e+00 3.913917290414804739e+01
-9.582661340082886170e+00 8.879631111286631295e+00 3.829801246643096135e+01
-1.277417540509698846e+01 1.108507942103558364e+01 3.589531489150544274e+01
-1.095631775100146754e+01 9.727949862263340464e+00 3.734992936838818878e+01
-1.133701288984799582e+01 1.031178548712082943e+01 3.721349089310771063e+01
-8.552788195986929409e+00 6.922696701315256718e+00 3.902291930224555472e+01
-1.017985437179136810e+01 9.702959032796256267e+00 3.792507592567227448e+01
-8.900453852110473463e+00 8.143401177605895214e+00 3.880431873979977553e+01
-1.342513673930678131e+01 1.170398967057903228e+01 3.506109557468312232e+01
-1.171757079005259783e+01 1.089530258294462328e+01 3.707563519251399953e+01
-1.233192262602251965e+01 1.101003725490065754e+01 3.652025248354421905e+01
-1.084979096397637832e+01 1.043874063655207252e+01 3.760998211194570473e+01
-8.714244798524276803e+00 7.538768584263441319e+00 3.890644439094617724e+01
-9.086651905045769695e+00 8.747795686716308694e+00 3.870210078290551792e+01
-1.298271820225994055e+01 1.162895161751157858e+01 3.568673868391683612e+01
-1.209824020893785423e+01 1.147891979504329996e+01 3.693720150885087605e+01
-1.142046774466158254e+01 1.131408806520718358e+01 3.740292003441125246e+01
-7.763337341728422381e+00 5.504846872789412870e+00 3.968440052823886077e+01
-7.919352210762114375e+00 6.162524810649028240e+00 3.956003107084315218e+01
-7.900368501685628431e+00 6.655595749910356851e+00 3.960151393715314327e+01
-9.324525812594970375e+00 9.558429500836716386e+00 3.863330130518145467e+01
-1.032224726682296456e+01 1.045548775381962692e+01 3.800884905888948140e+01
-1.074326780067283593e+01 1.114938312654455643e+01 3.786824139824611990e+01
-8.124384330724407022e+00 7.359552538725483650e+00 3.943280812290655746e+01
-9.784657103059636540e+00 1.026198294257516430e+01 3.836215262012306226e+01
-8.404224783992235714e+00 8.011260557227936729e+00 3.921058941701543432e+01
-1.254070287473437872e+01 1.155397554968803853e+01 3.631173551530897470e+01
-7.446988969784095858e+00 6.018769375794602361e+00 3.998118230937042483e+01
-8.589940743041839966e+00 8.615778138755555204e+00 3.910877604231401250e+01
-1.006614394332206253e+01 1.098468639412749859e+01 3.833350062746464459e+01
-1.321323177815780514e-01 8.008623046875001705e+00 1.919238712135602754e+01
2.773868822125645228e-01 8.452968509853088008e+00 1.934516769860921315e+01
7.033703008077362151e-01 7.970603906249999149e+00 1.927701853788877884e+01
-9.616409421257367252e-02 7.488670275017607736e+00 1.911385717575488741e+01
8.171268166383459652e-01 8.556934311571408713e+00 1.944817112360625799e+01
-5.583989329507110799e-01 8.491325363317812958e+00 1.926059195444535277e+01
-9.676364483315377241e-01 8.046642189400758483e+00 1.910775600078316216e+01
-1.491816106311841528e-01 8.936009466665685963e+00 1.941308393436261071e+01
-7.295484882211598077e-01 7.224192256899027775e+00 1.900317154081431781e+01
9.310071291081509770e-01 9.144075686156659444e+00 1.961925103851231356e+01
-1.406646424392920869e+00 8.693657865966986975e+00 1.921397065317958663e+01
-8.424407167558112253e-01 8.955149779623484463e+00 1.933990984422782589e+01
2.345195803486280206e-01 9.574987416609390678e+00 1.963718359117636680e+01
-5.758084370058840218e-01 9.419127952552921457e+00 1.948273606266982583e+01
1.044780343989780702e+00 9.730847493517966740e+00 1.979162856573984186e+01
-1.304806173625549182e+00 9.336334121918209661e+00 1.938024183983592863e+01
-2.675630580290122018e-01 9.937022633928632942e+00 1.966473008860642580e+01
-2.033815730760682339e+00 9.253538426637447856e+00 1.927771611625092874e+01
-1.002578269620397311e+00 9.902413550258582831e+00 1.955333027044709482e+01
2.959817404507928962e-01 1.033993268900858808e+01 1.985128980789662378e+01
-1.731255836741854237e+00 9.819276226629659376e+00 1.945078828401957693e+01
-5.663474196810607264e-01 1.036246329620885298e+01 1.973755432080188044e+01
1.158475692338979846e+00 1.031739453125000061e+01 1.996505614851779598e+01
-1.428719481280633641e+00 1.038499453124999938e+01 1.962381847121309519e+01
1.669833080422071347e+00 9.891840565798066365e+00 1.996653653470260537e+01
-2.268081645185569872e+00 1.001920957451302030e+01 1.948598947990643282e+01
-1.784687964311566233e-01 1.086040038730299706e+01 1.996634743308760562e+01
-1.155689137319557247e+00 1.082901033400498925e+01 1.981755632578972026e+01
7.849206246923344787e-01 1.077847584248481461e+01 2.007358175614831808e+01
-2.693419613556598424e+00 9.161322196362176484e+00 1.922581027724317337e+01
-2.801057390690687043e+00 9.749210505877012878e+00 1.938730558076607124e+01
1.838348233721042613e+00 1.045443402581277859e+01 2.020390309421242137e+01
4.112111067320937119e-01 1.123975866722832251e+01 2.018215359702169920e+01
-1.775817977932020453e+00 1.093757832633555971e+01 1.980558577888758265e+01
1.306365501775968330e+00 1.084605871462268745e+01 2.019400490502238910e+01
2.434764650411005427e+00 1.004584766539111662e+01 2.023520022351869230e+01
-3.334172529934814833e+00 9.232021487192467291e+00 1.921951871962130909e+01
-2.714189861823166794e+00 1.022536059907668360e+01 1.952612925929500065e+01
-2.165916661477632399e+00 1.051111768649372635e+01 1.962995734241458834e+01
-8.821377213714215459e-01 1.127392061374128041e+01 2.001168446429267078e+01
-3.682170994503894068e+00 9.787267846617046629e+00 1.936175630315349494e+01
-3.292636273680673575e+00 1.021365295690422492e+01 1.949893016054648598e+01
-2.414031081440027870e-01 1.132608669319018624e+01 2.012028919808513905e+01
2.517957325665660662e+00 1.059149420907812633e+01 2.044277422279795431e+01
1.454270556956681171e+00 1.137512119988103265e+01 2.042312575199304447e+01
-1.366242339216598767e+00 1.160464919874618950e+01 2.009659849065647919e+01
1.986207041199361090e+00 1.098317907920234937e+01 2.043292898660227053e+01
3.199493261882883299e+00 1.019993115871616851e+01 2.050391058046722037e+01
-2.903110764601430915e+00 1.063999339311676628e+01 1.963609265306292073e+01
-2.513301425147929091e+00 1.106558292991191195e+01 1.981188138049335734e+01
3.728230498387391512e-02 1.170131871679382307e+01 2.029079019336287715e+01
-6.090154090404333864e-01 1.171818526196898169e+01 2.020553089195080076e+01
-2.123514882476755794e+00 1.149111294264101701e+01 1.998766583337967617e+01
3.197310937500000172e+00 1.072857578125000089e+01 2.068167572430553847e+01
-4.030035895187012329e+00 1.034223206124898908e+01 1.950507463052841928e+01
6.329845670507879829e-01 1.203305623015747727e+01 2.052567735080968347e+01
2.665460228458060854e+00 1.112029944378201129e+01 2.067184521699859445e+01
-3.640311433478478076e+00 1.076858197527368333e+01 1.964222474296779453e+01
-4.484126545490001448e+00 9.885676905631807898e+00 1.936779633865658923e+01
2.134045809484652167e+00 1.151192365452125443e+01 2.066199093534890707e+01
1.601983605648448883e+00 1.190388324141404297e+01 2.065211666940075474e+01
-1.776861718968786752e+00 1.199482859889405084e+01 2.021064352630609307e+01
3.829736722908184010e+00 1.028747257168298113e+01 2.075725277954695613e+01
-3.250368477606124795e+00 1.119429634969911547e+01 1.981801482585773400e+01
-2.860445515329341770e+00 1.161967657363965678e+01 1.999370700222079122e+01
-3.360862779597276750e-01 1.216219374773191220e+01 2.039926555023890486e+01
-1.162161196366014115e+00 1.230679432463047185e+01 2.038330254611490844e+01
-2.470546044063026692e+00 1.204497113605431302e+01 2.016939703651106441e+01
3.138980219760657775e+00 1.120860466760548313e+01 2.087631915126569027e+01
3.762194810978195747e+00 1.097746141702990741e+01 2.102700325327892728e+01
-4.377825357794145056e+00 1.089703021505770764e+01 1.964835659893947906e+01
-4.831924741547606317e+00 1.044051768856077267e+01 1.951127171799865323e+01
1.388430663438678714e+00 1.243601011099758047e+01 2.085117154046692889e+01
9.648016068768183739e-02 1.260822970334537274e+01 2.068261205286076532e+01
-1.989337055787294917e+00 1.245170313339391832e+01 2.036731897995448293e+01
3.080633193621812538e+00 1.168855149615164990e+01 2.107091133008819384e+01
-3.987278304174972643e+00 1.132330829092383162e+01 1.982434831750020976e+01
2.056798786903531795e+00 1.215256326339404680e+01 2.092180910055649790e+01
7.583490947109492453e-01 1.259290279319009365e+01 2.080179672973537564e+01
-4.627976795730616821e+00 1.147653882127117697e+01 1.988874194270199425e+01
-3.597628478637858951e+00 1.174855969498277020e+01 1.999993523650957172e+01
2.560990425099281875e+00 1.198455878197227520e+01 2.102229291914993681e+01
-5.810981048386117953e-01 1.264595195967387120e+01 2.059058431136330469e+01
-3.208078499408223649e+00 1.217365065569172522e+01 2.017548177786479613e+01
-2.817922492178604799e+00 1.259934935671888212e+01 2.035130871745911918e+01
3.613324874018814192e+00 1.161327232817310495e+01 2.125562649837095819e+01
-5.094780603422869092e+00 1.109880982782331849e+01 1.975431173122803230e+01
1.174769059671093796e+00 1.296838340774937492e+01 2.105031535911232510e+01
-1.489237202928047843e+00 1.285941581882793194e+01 2.059727000692835830e+01
5.291592013640656900e-01 1.305445918787379611e+01 2.096608116510849484e+01
-2.441942093692442306e+00 1.297361014745811580e+01 2.055475543994359455e+01
4.327171640010411657e+00 1.122646841674831109e+01 2.137249554301127930e+01
-5.645873469831772518e+00 1.062071506368775786e+01 1.961441505544694408e+01
2.510690521722194202e+00 1.240086639056539930e+01 2.119109276648090656e+01
1.842843111652216148e+00 1.268443927603109067e+01 2.112058565652985820e+01
3.022257773809140069e+00 1.216888669072428364e+01 2.126565370846694947e+01
-3.083026093865597894e-01 1.325056254557874347e+01 2.092373993296589063e+01
-5.344308308429377874e+00 1.167763045329622429e+01 1.999442958356308964e+01
-8.260863529854235443e-01 1.312966698567628576e+01 2.078188568150090987e+01
-4.042866030981585368e+00 1.211443627641811460e+01 2.015208076381749436e+01
-3.672220346304448935e+00 1.280431736721729585e+01 2.043728516125313277e+01
-3.031576599644729253e+00 1.311841630075641696e+01 2.058344675089040976e+01
4.249081046636034031e+00 1.186697753104145825e+01 2.163235420375382390e+01
-4.877667438346944273e+00 1.205494880466021534e+01 2.012867362080008604e+01
-5.810965160365979543e+00 1.130024019572319816e+01 1.986012837121781871e+01
2.297088859623002577e+00 1.293287021623118171e+01 2.139000021673372132e+01
2.964187404843904527e+00 1.264916210937500018e+01 2.146036819638792181e+01
9.613103388382737702e-01 1.350023437500000156e+01 2.124926181507651535e+01
1.629705777548310808e+00 1.321639811929100539e+01 2.131967128186377636e+01
-1.434561179009040011e+00 1.330258317511624355e+01 2.079965634223403015e+01
-2.066622533664676631e+00 1.334718626970990663e+01 2.075785830792773723e+01
4.890090649387600408e+00 1.147571096714569094e+01 2.171831287787846065e+01
-6.317527181156669336e+00 1.097474072470461515e+01 1.977135987732613742e+01
3.605940871888756671e+00 1.225798908170633617e+01 2.154639228911636906e+01
2.024835210040958899e-01 1.369895170948574759e+01 2.122092714630712607e+01
-3.796228021631993688e+00 1.330151815700720164e+01 2.066028982130542246e+01
-5.594197312534532784e+00 1.225636494217292771e+01 2.023451693342847335e+01
-6.060841304513735039e+00 1.187884174439182772e+01 2.010020150569993547e+01
-1.070793074858080729e+00 1.361282906796616743e+01 2.097296817447880812e+01
-1.691379250814097679e+00 1.372137214460229160e+01 2.096093529739484396e+01
-4.393291506072338315e+00 1.253621129553957303e+01 2.032726787640304877e+01
-2.468170617670177425e+00 1.367893778208453170e+01 2.088813002537165531e+01
4.189822976366282425e+00 1.245514282846857590e+01 2.191202135397736228e+01
4.833167231495349547e+00 1.206405130467762987e+01 2.199802510183684134e+01
-6.527690426700869075e+00 1.150172660474829023e+01 1.996600224116987476e+01
3.526716738064059165e+00 1.304235681101391542e+01 2.191923824155810507e+01
2.859868217016568348e+00 1.317757413073251094e+01 2.172701333267489332e+01
2.109343293329602798e+00 1.349682782742621434e+01 2.164792595736558667e+01
1.358078120766000874e+00 1.381607981043088529e+01 2.156882560025496431e+01
-5.563307176551045563e-01 1.389764301874563479e+01 2.119259552349960529e+01
-3.244995827586846904e+00 1.363683963901818252e+01 2.081532437236042554e+01
-4.525142934285397267e+00 1.300863369765683331e+01 2.052311881574033237e+01
5.342546992552266616e+00 1.176559456494468670e+01 2.210350184244451199e+01
-5.127568820610910016e+00 1.263382131464165425e+01 2.036879983430132057e+01
-7.033573447269693801e+00 1.117584703401426793e+01 1.987701329383599003e+01
8.045842448881793674e-01 1.399398564971591519e+01 2.151512678802800238e+01
-1.315743555402058007e+00 1.409647500000000164e+01 2.116424189015904034e+01
-3.885194884496820489e+00 1.379019145507460209e+01 2.087971446244453944e+01
-4.359317184884817564e+00 1.350385082934865011e+01 2.074733748185785842e+01
-2.779485659476020665e+00 1.405941760401782581e+01 2.104776474133292652e+01
-6.310722522161549719e+00 1.245744155362689121e+01 2.034025243047254605e+01
-6.777025610425549296e+00 1.208007476600998054e+01 2.020598826406623161e+01
4.203152511703062366e+00 1.290460689421931129e+01 2.215212540281262577e+01
1.754502219004654640e+00 1.413177614439226559e+01 2.188823808014103633e+01
-2.023059995830123886e-02 1.426596073739835369e+01 2.151792153367534866e+01
-2.101414512905111831e+00 1.428844130150983105e+01 2.120273591924787127e+01
-3.458669169220077944e+00 1.415582409566314404e+01 2.104747301309843976e+01
4.773699004496873677e+00 1.265229640252569965e+01 2.227764728448801534e+01
5.796183428988977759e+00 1.205687472128566817e+01 2.248886165461801667e+01
-5.844064465467208258e+00 1.283505029656775065e+01 2.047458118937486304e+01
-7.243171777623926388e+00 1.170279083442166268e+01 2.007167126731512141e+01
-6.824095038293386928e+00 1.064919447351871540e+01 1.968194783166299189e+01
2.755498018137228833e+00 1.370627001633056175e+01 2.199379953296957524e+01
-9.030249995645402983e-01 1.444163385083122897e+01 2.145165923703799038e+01
-4.951510252928147615e+00 1.357792815524418195e+01 2.077645606725704397e+01
-2.887655107613728234e+00 1.448203434559807867e+01 2.124125630217305272e+01
-5.377435050446876197e+00 1.321258858034549810e+01 2.060888479228851011e+01
-7.720752009689861417e+00 1.132018336722277496e+01 1.998924332475955978e+01
-7.511236370921078098e+00 1.079337820899942635e+01 1.979545322780912642e+01
1.201220353682957098e+00 1.430984203874461258e+01 2.183466162359036744e+01
-1.471195069943832312e+00 1.458650755706720936e+01 2.146768289967107179e+01
-4.098832139296678889e+00 1.430925914579720093e+01 2.111193103647317315e+01
-4.525399169663783638e+00 1.394340834688565600e+01 2.094410240789482103e+01
5.512681934585849319e+00 1.249951193010402584e+01 2.257590239238176366e+01
-5.971142311594443086e+00 1.340131582165121138e+01 2.075553231387595687e+01
-6.437788403072480570e+00 1.302371807334613507e+01 2.062121584072387037e+01
-6.904260990893566152e+00 1.264609694146463603e+01 2.048686939709095967e+01
-7.370389553787424219e+00 1.226835757873252142e+01 2.035240603947607951e+01
4.090662368507462787e+00 1.343539032278232881e+01 2.237791909105196453e+01
3.368708543471843342e+00 1.383511665071115360e+01 2.231926440322642691e+01
2.651109005065501734e+00 1.423504747738540921e+01 2.226062535711423607e+01
6.478053013251920955e-01 1.448790517873334416e+01 2.178108216181441037e+01
-4.904472669259258844e-01 1.478672318286375109e+01 2.173901829458096557e+01
-3.672421537258323099e+00 1.467495722480424902e+01 2.127970328159308622e+01
5.324660832064978422e+00 1.296953117301516123e+01 2.272525359183034510e+01
2.150824761967339960e+00 1.444755629146294673e+01 2.220773508828911247e+01
-7.837487351637880906e+00 1.194353694125443610e+01 2.028311618169854569e+01
4.714266097419649526e+00 1.324014516642931660e+01 2.255706480170186623e+01
9.878867280919742533e-02 1.469726981077876893e+01 2.179994202207446463e+01
-2.324694616581048923e+00 1.485244074502813660e+01 2.154611367382407039e+01
-5.496523210225450207e+00 1.373093169189934848e+01 2.087294342246492462e+01
-1.058554661989822065e+00 1.493169455265607759e+01 2.175511055202099442e+01
-8.395191376629442814e+00 1.156851670094707352e+01 2.021795144268678612e+01
-8.198378311803642404e+00 1.093747872887236916e+01 1.991038305810725362e+01
1.229083332875038792e+00 1.474438276738531606e+01 2.211852414564665992e+01
4.909406234163763427e-01 1.498209659821382012e+01 2.204718389488884611e+01
-5.070562974850025384e+00 1.409659354150261024e+01 2.104066817440817871e+01
-3.238297724233188735e+00 1.502105529540152595e+01 2.155418765540654391e+01
-4.399720967140368089e+00 1.487949978677064600e+01 2.140857218309910337e+01
2.546823719328826119e+00 1.476328085937499957e+01 2.252717561855218520e+01
-6.564866419894846317e+00 1.358999365853901686e+01 2.090217501447054005e+01
-7.031517358793049510e+00 1.321247447547058762e+01 2.076790575991102727e+01
-7.497797379241819549e+00 1.283470975434864947e+01 2.063347471176165726e+01
-8.130264568680361847e+00 1.249434338962800517e+01 2.058536131324738250e+01
-8.432398203095857525e+00 1.218445052022397235e+01 2.049471436331941021e+01
4.654772891405626112e+00 1.382853875676791588e+01 2.283673333552748019e+01
3.950825628943229972e+00 1.413988012667967809e+01 2.273363650584591156e+01
1.810092363136754923e+00 1.500085978494005978e+01 2.245596439109319320e+01
-7.789515567170189614e-02 1.513184636312808884e+01 2.202640541218860903e+01
-1.626690965356483165e+00 1.507737791965667817e+01 2.177120197218019015e+01
-5.007713501814078150e+00 1.456464419823127621e+01 2.127290455708993022e+01
5.344476280612909136e+00 1.343225702430660284e+01 2.297763944888535548e+01
3.245589726746929582e+00 1.445175974990620205e+01 2.263035063049403561e+01
-6.090515342346240146e+00 1.391983997788819849e+01 2.101971345304202643e+01
-3.781325389923630098e+00 1.513277308330718363e+01 2.159942517245847426e+01
6.022683172037496036e+00 1.303719126945841467e+01 2.311849546439406922e+01
-1.024925125316340946e+00 1.537387950065069120e+01 2.205291081202087611e+01
-8.933162569354660576e+00 1.192609114535345860e+01 2.047050332882630030e+01
1.071912949834447515e+00 1.523876085447535544e+01 2.238465547887118134e+01
3.340100112887307571e-01 1.547649179687499910e+01 2.231339477192347687e+01
-2.193970733615099089e+00 1.528166267171326886e+01 2.184108310305451539e+01
-5.615727054416602471e+00 1.424972546083909108e+01 2.113723170514959548e+01
-2.804426039852018437e+00 1.536692051140521009e+01 2.182853262447156695e+01
-5.127189314872496517e+00 1.508397796738023899e+01 2.153746625026863981e+01
5.895952969919427744e+00 1.349876234589740065e+01 2.335451720034787471e+01
2.892275795041114428e+00 1.513986363992177253e+01 2.296500210181929447e+01
3.892623078072032339e+00 1.454316032780258183e+01 2.300101705084158255e+01
3.625446559809445191e+00 1.497263372987321439e+01 2.318941120725765259e+01
2.378368225668659353e+00 1.520115120690003430e+01 2.280549442287370709e+01
-4.232497327968276490e-01 1.567038085675307357e+01 2.233461908981522726e+01
-7.158901399594989279e+00 1.377872463878387954e+01 2.104888624454677881e+01
-7.625245812470994089e+00 1.340119099800090474e+01 2.091458660988945439e+01
-8.364887303919175565e+00 1.301663660774966580e+01 2.086458049806505244e+01
-9.026530199295191181e+00 1.242498905109260399e+01 2.070597999814129153e+01
5.467520359828660581e+00 1.373271036401680334e+01 2.325584019984244932e+01
4.509089654936603075e+00 1.431711529186046761e+01 2.312536086865690166e+01
1.729957580979678777e+00 1.536687572571945282e+01 2.270956354158740709e+01
-1.781903613296521582e+00 1.556788055990452690e+01 2.207415677974195134e+01
-3.371329920877761399e+00 1.542301028937989571e+01 2.183252313973941483e+01
-4.566061353744640172e+00 1.540526067545715527e+01 2.177489409311010249e+01
-6.209942814157967561e+00 1.443858941482931080e+01 2.128400712458232391e+01
-6.684507323711020632e+00 1.410869961026828534e+01 2.116647684595576351e+01
5.034458688924748238e+00 1.420313927095694950e+01 2.331914395892595238e+01
-5.735023743375886163e+00 1.476887367595626621e+01 2.140170079201976350e+01
-3.890201780808149490e+00 1.559042636051610664e+01 2.191903321215020384e+01
4.363487091416638819e+00 1.480540332478390120e+01 2.341381404622299200e+01
2.209804539407485002e+00 1.563896125597953102e+01 2.308377374120761871e+01
-1.180141345341007009e+00 1.586431989651105745e+01 2.235582989729126169e+01
-8.219374079623303686e+00 1.364216508445606557e+01 2.112623079505676316e+01
1.443230221977578998e+00 1.574244125965308072e+01 2.289940807746489426e+01
6.764143949445642345e-01 1.584592032540236239e+01 2.271503985388829605e+01
1.157474662844641677e-01 1.596413995101731587e+01 2.266582064628407167e+01
-2.370730559882670008e+00 1.571260874658872808e+01 2.210278731892858772e+01
-3.216346322313701211e+00 1.583241037101495685e+01 2.213446755291157331e+01
-5.417826493344396255e+00 1.559276496820375435e+01 2.188931198041338888e+01
5.768926298623100912e+00 1.396032682770801259e+01 2.359052871540458440e+01
3.237690099305860159e+00 1.551640225418936936e+01 2.340277628112018249e+01
-1.937081579674903464e+00 1.605822101370625532e+01 2.237703700360605907e+01
-7.752628021928452462e+00 1.396731915227351095e+01 2.119551377778298829e+01
-9.153611512604513223e+00 1.299108734430336121e+01 2.098720972285446607e+01
4.872892230417152248e+00 1.463239029396828883e+01 2.355498491108173909e+01
-5.854395635671500564e+00 1.528829583395643610e+01 2.166630983587169013e+01
-4.410189100037072762e+00 1.579864392199170098e+01 2.205474418285157512e+01
4.217904391920312079e+00 1.529356712633298798e+01 2.370219030601602483e+01
-6.861273040970916615e-01 1.613249824454206660e+01 2.265922757786275454e+01
-7.278537096076316715e+00 1.429727445272472863e+01 2.131311837626519790e+01
-6.804160540273559654e+00 1.462740464253638351e+01 2.143077544782731891e+01
-6.328752358143401757e+00 1.495822918363938037e+01 2.154867729894599648e+01
-9.620666852321347662e+00 1.266548338640927973e+01 2.091719612684005014e+01
-8.686538303454032217e+00 1.331663292550169864e+01 2.105679926857039419e+01
5.414521897774045023e+00 1.457949376524558893e+01 2.380203440958286976e+01
-3.999093893562244872e+00 1.604809923631801283e+01 2.223865469462764821e+01
-4.981277718174964342e+00 1.589717521463956196e+01 2.211230882200428738e+01
2.041022080099208935e+00 1.607709244152678707e+01 2.336225599153436860e+01
-1.587455412483271378e+00 1.639916203548507312e+01 2.271317321180412563e+01
-8.914223955502661667e+00 1.369682624450711828e+01 2.135914461928983243e+01
-9.614861667745845608e+00 1.320833964181596443e+01 2.125468118630942271e+01
1.018418179339143137e+00 1.621492611290265629e+01 2.311622527982822461e+01
4.497978468663855756e-01 1.627588617608616417e+01 2.301671276033888347e+01
-2.660537142861706172e+00 1.620754341789951525e+01 2.243747441204969206e+01
-3.384158030927515881e+00 1.635676790736141939e+01 2.249792493106829028e+01
-5.887508817192472321e+00 1.569353449200101380e+01 2.199814493588355191e+01
3.583620298368034973e+00 1.589345949484065557e+01 2.384115380415554242e+01
5.005934129609927119e+00 1.512367773918485270e+01 2.399315050619490108e+01
2.812504461242354203e+00 1.598527557639753027e+01 2.360170722530558152e+01
-1.022840514153851715e-01 1.645123319884509883e+01 2.301784419979051322e+01
-8.367179433292093904e+00 1.425725127380340851e+01 2.155220042510844181e+01
-7.742027511997877198e+00 1.444914173611853414e+01 2.151664883046279186e+01
-6.472693682178083385e+00 1.549115840298168933e+01 2.193793652426022689e+01
