3.734206364871044848e+00 -2.398522920841794637e+00 2.038713512345961476e+01
7.826922104259760593e-02 -1.061733789481664303e+01 2.378786998104126837e+01
-1.535914501649577879e+00 -1.136415053209212545e+01 2.506437512848726712e+01
1.017854819750467321e+00 -9.662288283163755764e+00 2.295079127996293877e+01
1.542843282206540989e+00 -9.364899023044001680e+00 2.278793872534478737e+01
1.974977146101574155e+00 -9.000770874732477722e+00 2.263681410921278925e+01
3.936640221685711705e+00 -4.133650863999088543e+00 2.076693271398079688e+01
-3.573505384591150413e+00 -1.037357490526079573e+01 2.887828383292741208e+01
-1.835270009341046116e+00 -1.157866300313583707e+01 2.614475043844204194e+01
-2.240639606120942595e+00 -1.146387175582919760e+01 2.679358423181752613e+01
-1.073283325602399918e+00 -1.130813013835119918e+01 2.486641874085621851e+01
3.964738040150058929e+00 -1.731557236624886587e+00 2.045896623864998176e+01
3.197579872768946174e+00 -6.737476500231658783e+00 2.141699968950288735e+01
1.874674208241621509e-01 -1.083394693682663856e+01 2.437899580041224112e+01
6.035069666530540333e-01 -1.031973650858116187e+01 2.362484747168595334e+01
1.129130368883684010e+00 -1.002191681192781658e+01 2.346170481488313797e+01
2.387073048303277822e+00 -8.573121362199444206e+00 2.242073152507949274e+01
3.823775931631783642e+00 -5.656137431323536191e+00 2.109147255877283200e+01
3.510680634446394333e+00 -6.196805567591193942e+00 2.125423756578108936e+01
4.317731263337694969e+00 -4.607445440177974305e+00 2.105168322093873812e+01
2.896476591442069815e+00 -7.228344654349147191e+00 2.156133759710357012e+01
2.799169105824771631e+00 -8.145473952938973028e+00 2.220465077594983683e+01
-3.221680395904904071e+00 -1.084775421273263696e+01 2.808875885061627287e+01
-3.079402694813710983e+00 -1.072638458004750817e+01 2.871055265625868103e+01
-3.595942129982630853e+00 -1.013483224382446934e+01 2.955528298290555256e+01
-1.145397170773140738e+00 -1.144380773800481599e+01 2.557541495793005382e+01
4.155126212926995244e+00 -3.587285019173940270e+00 2.068896485986698863e+01
4.397728151928366636e+00 -2.397057904466692424e+00 2.062886219295069168e+01
3.825210599962786784e+00 -1.144773331533991634e+00 2.039743316422035591e+01
6.486677459782426158e-01 -1.064741053572941354e+01 2.416081853831482817e+01
2.966007211053877102e-01 -1.105042819354901695e+01 2.496976366563012562e+01
1.653893847352619462e+00 -9.724584049766908933e+00 2.329882744033860575e+01
4.147970559429803750e+00 -5.164135085130759251e+00 2.111362142564367872e+01
3.211481500012493662e+00 -7.717859841904956220e+00 2.198870136136621056e+01
-2.870154925403055834e+00 -1.116043088903849778e+01 2.747216599621833311e+01
-2.344269425647837579e+00 -1.141939532756926390e+01 2.738754060131028822e+01
-5.433379019026709500e-01 -1.136671951201774888e+01 2.529544226258401451e+01
4.534239821670354331e+00 -3.106571090017337333e+00 2.069152641884015864e+01
7.061493987557702079e-01 -1.084520914080001042e+01 2.467847721043446185e+01
1.197528892968252379e+00 -1.032351342021511087e+01 2.397036044587495951e+01
2.178728451871200456e+00 -9.427209429895766490e+00 2.313592493590828170e+01
2.590746746213892227e+00 -8.999575353099437791e+00 2.291982307076729697e+01
4.451352438327953465e+00 -5.605307988052633306e+00 2.135603370458016315e+01
4.138414575388613237e+00 -6.145936728069139043e+00 2.151884523696152129e+01
3.825364633878021170e+00 -6.686494195782127115e+00 2.168156270708142941e+01
4.765950275149173798e+00 -3.836990327809470802e+00 2.099510346647385717e+01
3.512309590446760499e+00 -7.227052915271212186e+00 2.184427576938349347e+01
-2.672963042543914369e+00 -1.092265892556789630e+01 2.860473905137658690e+01
-2.937287759792881925e+00 -1.060515444506609661e+01 2.933162782378837008e+01
-2.624386687673868401e+00 -1.109601798966979658e+01 2.817662701135778391e+01
-1.051833149665439393e+00 -1.154701900896594680e+01 2.614724359567362910e+01
-1.700192184341278168e+00 -1.158326237695892758e+01 2.688059559987755520e+01
4.334435624055466896e+00 -1.139058417752101038e+00 2.058288053875011769e+01
4.724108173212593798e+00 -1.611075185247041963e+00 2.073358362476041705e+01
-1.370132601354406496e-02 -1.142527498842880185e+01 2.572419628182592533e+01
1.219141210181852397e+00 -1.067748761765227705e+01 2.453380664896278418e+01
4.698483294440262803e+00 -5.080821667634868533e+00 2.133617568114295793e+01
3.002962758926032372e+00 -8.571736294391538280e+00 2.270361744612836929e+01
-3.124491728616483943e+00 -1.024884628244389972e+01 3.006431909690596882e+01
-1.276332731713651025e+00 -1.163142299140564262e+01 2.663421055351124878e+01
-2.683969487746659111e-01 -1.151537548859857552e+01 2.614972895388765650e+01
-2.027011785974458746e+00 -1.134432051960955867e+01 2.826448032803761734e+01
-1.887155655054565617e+00 -1.150592847335933477e+01 2.786991049665382647e+01
1.669839637927055254e+00 -1.000706587152419758e+01 2.374773230973100624e+01
4.058934367649100206e-01 -1.126722654985719174e+01 2.556138682482808022e+01
1.097850330408458142e+00 -1.098740109395813214e+01 2.523414764017640977e+01
2.442767619267864010e+00 -9.701212978098324058e+00 2.371346920023396265e+01
4.909934035374938333e+00 -4.540014545675714608e+00 2.125719717417937460e+01
4.766357514834342446e+00 -6.094892242343880717e+00 2.178344909969892385e+01
4.453051942185672907e+00 -6.635737413577134980e+00 2.194620722174416727e+01
4.908430729600435249e+00 -2.628731843122631862e+00 2.081916482804308544e+01
3.415089383749593033e+00 -8.143988268961427579e+00 2.248745682562362802e+01
3.826957876128513458e+00 -7.716508260721005819e+00 2.227143157784914607e+01
-1.565117884097720680e+00 -1.158786194567514549e+01 2.761642275834524440e+01
-1.777358891212410086e+00 -1.129498153534595417e+01 2.873622136231856672e+01
5.115248319201368687e+00 -2.082945721313134158e+00 2.088423704949019566e+01
5.215160463447449324e+00 -3.066548224363667696e+00 2.093850912829994115e+01
1.909298576903639244e+00 -1.025787158835222534e+01 2.427510667209198303e+01
2.758777871050221542e+00 -9.410900462234319974e+00 2.342385247141972826e+01
3.212436038065296096e+00 -8.940388417987144010e+00 2.318625669743023821e+01
4.139790173874260404e+00 -7.176495957901737555e+00 2.210893416438734249e+01
5.079423587501268322e+00 -5.554438402559460641e+00 2.162080451484268906e+01
3.624607503383686424e+00 -8.512593763339696196e+00 2.297007482152352864e+01
-2.124700083531233297e+00 -1.099750192260958492e+01 2.912021702706287485e+01
-2.795206204323517962e+00 -1.048395263063646254e+01 2.995255154805139952e+01
-3.359510704966758521e+00 -9.992165650238845842e+00 3.053789177380846454e+01
-5.869588911877400284e-01 -1.160060890666172462e+01 2.661716518768913531e+01
-1.176075134606697992e+00 -1.163346263815735426e+01 2.728449329361966846e+01
5.150378452445497635e-01 -1.148373173973173422e+01 2.615219967492799213e+01
-2.238954492675539143e+00 -1.073096654430649188e+01 2.988256127753590974e+01
-1.430047624762551539e+00 -1.159246125804729033e+01 2.835223534747298402e+01
4.661073393263207798e+00 -7.457487614058289083e-01 2.064920912410629228e+01
1.260981646957213043e+00 -1.131226001757053190e+01 2.612029943156919742e+01
1.789804204964796863e+00 -1.070757512353545948e+01 2.490690705940844651e+01
4.077534039482285877e+00 -8.041937071515111057e+00 2.273194893275718798e+01
5.283348224540667104e+00 -4.921503745202639557e+00 2.151182879471240383e+01
5.487457220312348838e+00 -4.289589730080717978e+00 2.140301398897021912e+01
5.691417755130250278e+00 -3.658095978215503585e+00 2.129425946127421554e+01
-7.174000845603961674e-01 -1.168418306309280297e+01 2.712363513489743028e+01
5.507676316007011685e+00 -1.374699109880991088e+00 2.094595474285823045e+01
5.505284731666400866e+00 -2.554747698139191225e+00 2.103486489512479451e+01
5.151839402449366112e+00 -8.928605983703225002e-01 2.080443256604668889e+01
2.707046530205169166e+00 -9.975466045491518940e+00 2.429152809226876641e+01
2.960762873003971229e+00 -9.665904292083249416e+00 2.393767661084235954e+01
2.312955967160405191e+00 -1.036816426520342560e+01 2.467758958406468750e+01
1.898474880712789581e+00 -1.092415634177980266e+01 2.549765249188230243e+01
4.490314067800190045e+00 -7.693781000563609140e+00 2.260866516480034605e+01
3.339772311119583836e+00 -9.394563299749307816e+00 2.371224040609094885e+01
5.359927043286392134e+00 -5.969019726941465542e+00 2.202111947918454149e+01
5.721483269548912176e+00 -4.996940233032343137e+00 2.177277201456896449e+01
5.046632567203331199e+00 -6.509488239489026995e+00 2.218364127835850752e+01
4.803550452978694096e+00 -7.153388288579164644e+00 2.244615669747695463e+01
5.894886351459021512e+00 -3.026527620967161880e+00 2.118548185549323648e+01
-2.653206544776371523e+00 -1.036282049620945322e+01 3.057311140178189035e+01
-1.192470121523755200e+00 -1.149994913207184943e+01 2.893051642517069055e+01
-1.576459916132041172e+00 -1.107234106549566555e+01 2.963554185730708568e+01
-4.556416362382904872e-02 -1.162878973439275754e+01 2.694282716808319122e+01
-8.912292038881675094e-01 -1.165753453645262105e+01 2.774728264586078907e+01
6.262722485844646192e-01 -1.157339626474036720e+01 2.676201499676391293e+01
5.656223680004963228e+00 -2.008290044256255680e+00 2.103784638330008860e+01
4.989526117010242956e+00 -3.524638233508480822e-01 2.071553547813568485e+01
4.328473796934789952e+00 -8.367839097234883283e+00 2.319312503076048060e+01
3.893577223287067124e+00 -8.903338156248835844e+00 2.350626332462109147e+01
5.649482779824520406e+00 -5.549577088304039840e+00 2.192517244842915147e+01
-8.833794936761436567e-01 -1.161559738552196919e+01 2.878019577725815381e+01
-1.664517175117740111e+00 -1.088665497837432206e+01 3.015469079756052295e+01
-6.336293337150699090e-01 -1.167578749221896040e+01 2.843226006588324140e+01
-1.929071949145782616e+00 -1.064903345381128652e+01 3.060445942685807097e+01
5.705590308347557205e+00 -4.308374182911293149e-01 2.093253869638628473e+01
1.050648270342533941e+00 -1.152210089025584416e+01 2.658570013012914757e+01
2.007144526192153666e+00 -1.114073781758397885e+01 2.608838459621456707e+01
3.370823545236461882e+00 -9.797974618694533788e+00 2.436902569297971510e+01
2.971239891506081143e+00 -1.024963417237012031e+01 2.486939329093296536e+01
2.359345039080503525e+00 -1.073760377061537952e+01 2.527925999168290616e+01
3.920409169676300820e+00 -9.378238395421458762e+00 2.400044533413761272e+01
5.640178508691098713e+00 -6.383239126102099981e+00 2.242107463585556815e+01
6.019847440560195828e+00 -3.991848854443485362e+00 2.158585241961817047e+01
6.026524268292466679e+00 -2.396973574734479140e+00 2.117643465154914750e+01
6.234360819663863573e+00 -3.444096184863249199e+00 2.151188577276803926e+01
-3.233452294354206558e+00 -9.874876745757539709e+00 3.118125725920037539e+01
-9.547583656486242631e-01 -1.140738179277957265e+01 2.950901751018406216e+01
-1.584359859660434133e-01 -1.173694686473468352e+01 2.761304124969696261e+01
7.374988338108697805e-01 -1.166306062452316361e+01 2.737178756526076739e+01
-1.027871150340469608e+00 -1.114722846168623782e+01 3.015091761022457817e+01
-1.204331138494448394e+00 -1.093548689180894584e+01 3.063554023501615120e+01
6.158139248735287730e+00 -1.767627102893181590e+00 2.116738282719675723e+01
1.796656502841407432e+00 -1.135060083467003089e+01 2.655374592783725518e+01
4.579422645254901170e+00 -8.693752767865921882e+00 2.365430610975995052e+01
4.866651905059287131e+00 -8.182431698479925686e+00 2.330019181760588154e+01
6.171571852447415019e+00 -4.517702168586634315e+00 2.184884868928900303e+01
5.869292116828613182e+00 -5.935484249621383768e+00 2.227554019831776344e+01
6.087151661895956245e+00 -5.104605056597391943e+00 2.200612024960769730e+01
5.492968300232556444e+00 -7.049170713888053719e+00 2.274769005478595574e+01
6.491979357431486797e+00 -3.007634970681159814e+00 2.148463845623308188e+01
5.154050025009971669e+00 -7.671040618283713641e+00 2.294609036754969722e+01
-2.515484918741726528e+00 -1.020577976602868375e+01 3.137621739551648403e+01
-2.084266167931295932e+00 -1.046120124636434667e+01 3.106695034332219763e+01
-7.171228090114062370e-01 -1.131484242118178152e+01 3.008712358971581580e+01
-3.366506650969567915e-01 -1.163873557304406248e+01 2.920809474367813152e+01
6.289754129631642598e+00 -1.138350371596521748e+00 2.115832518509742499e+01
5.408263556219473855e+00 1.024938223102431073e-01 2.085411945998309236e+01
1.586166535064302607e+00 -1.156046446352385537e+01 2.701909985756334009e+01
2.753818636490758642e+00 -1.096909693149140352e+01 2.605643937852335412e+01
4.309844827471438045e+00 -9.058341430127709870e+00 2.388141501254496291e+01
6.220096963682854252e+00 -5.544717529538754519e+00 2.222942460968283029e+01
5.920408075505512180e+00 -6.797450206379615167e+00 2.282101055636819353e+01
6.292169859856574732e+00 -6.143201703857072538e+00 2.262794537421365959e+01
6.573703990892724391e+00 -3.861463055720128601e+00 2.183812687784687157e+01
6.782378963199689359e+00 -2.185359961203789059e+00 2.153258702079106257e+01
1.631848496226713519e-01 -1.175915570285381939e+01 2.851225407718559168e+01
-1.515754491861613928e+00 -1.055950829887521714e+01 3.156039196639003208e+01
-1.983036851548226620e+00 -1.031510854986738224e+01 3.177302608042713317e+01
6.421374427945621299e+00 -5.091227936461073522e-01 2.114926189896351616e+01
6.041123512550633734e+00 7.434136176897743198e-02 2.104672585021633324e+01
4.008239137353089010e-01 -1.178973977662387362e+01 2.810263646771206325e+01
2.423171966382225317e+00 -1.122675722707918133e+01 2.658395229127575021e+01
3.630746619433138367e+00 -1.016068769542073547e+01 2.508504008254211115e+01
4.065780295640648134e+00 -9.761328875146741524e+00 2.468682331016021081e+01
3.235297983659047194e+00 -1.052366620400592723e+01 2.544695571666110467e+01
2.929661021835709089e+00 -1.076767366660121539e+01 2.565210365876423282e+01
6.566438640971354879e+00 -4.911647071654083874e+00 2.219680230713430547e+01
6.643652097212846108e+00 -1.541820322842124336e+00 2.138536301694380626e+01
-2.849601298830858109e+00 -9.912126580770358686e+00 3.177048937417548657e+01
1.485253204576830077e+00 -1.167580966475064308e+01 2.771720776245391349e+01
8.487937145777456616e-01 -1.175278736452107609e+01 2.798192785835239960e+01
-4.790797599760116543e-01 -1.122214382222547613e+01 3.066569450733110003e+01
-1.344359153704077769e-01 -1.144201052045062106e+01 3.015090324676707567e+01
2.101833073925538087e-01 -1.166187835084461355e+01 2.963587262229622254e+01
5.851552674584235003e-01 -1.175220745769321340e+01 2.911400606184792039e+01
-8.829799546681146305e-01 -1.086148974640512321e+01 3.139306832135632064e+01
6.682793746454239070e+00 2.263793805067615128e-01 2.130796351339803607e+01
2.190714699623584227e+00 -1.141475565864313602e+01 2.697417620991741671e+01
4.500479639066694126e+00 -9.361927671403238449e+00 2.428835790309602416e+01
5.467475457401157257e+00 -8.078411414280207481e+00 2.352241690297189791e+01
5.817217369689144491e+00 -7.648319172374665520e+00 2.328323111027676973e+01
4.830427581638356394e+00 -9.019740819432644940e+00 2.411557904719124323e+01
6.200499873560916697e+00 -7.211559531402128798e+00 2.322083591797816382e+01
6.581237192516999457e+00 -6.661579982098678521e+00 2.309529658147070208e+01
6.912860858494292771e+00 -4.278583257040453169e+00 2.216416756085502016e+01
7.088760805112154451e+00 -2.988757738071186054e+00 2.178359841065728730e+01
7.165499321811598321e+00 -1.484914171320321108e+00 2.164192771639280366e+01
-3.252175236071527475e+00 -9.635876201446027522e+00 3.197618618387800993e+01
1.651834769273077486e+00 -1.181040653392919282e+01 2.863219575067705591e+01
9.601015652947486601e-01 -1.184253634169540703e+01 2.859213885974380887e+01
2.121710460232822282e+00 -1.159883140485668029e+01 2.745248790551588414e+01
-2.377886382483445082e+00 -1.004887980702117467e+01 3.217880007639463713e+01
6.793265249966928820e+00 -9.967965862100827135e-01 2.139548597983433353e+01
5.660861135772352171e+00 6.578939870057565198e-01 2.094417110937018123e+01
3.006269705516842361e+00 -1.109246085438042684e+01 2.655826776328310501e+01
3.499362901681870142e+00 -1.079771198586556480e+01 2.602452902197285667e+01
5.180164495624828724e+00 -8.589768485261322084e+00 2.387651634048814842e+01
4.685730216584066632e+00 -9.708720900650883223e+00 2.493871411099046043e+01
7.359861540069977615e+00 -3.604574792195160970e+00 2.214728814865114970e+01
6.790231958792016798e+00 -5.539856545805204036e+00 2.253378233798146013e+01
7.252362774326583050e+00 -4.696116190211704122e+00 2.249052368198893959e+01
7.391451215698210397e+00 -2.512136156453966596e+00 2.187920453294082179e+01
7.538296677301052462e+00 -1.973770274471165154e+00 2.188873612334452901e+01
7.570428399284084842e-01 -1.168502188219225246e+01 3.006325746286585598e+01
-1.574135554287785288e+00 -1.034608020800053474e+01 3.227703645836266588e+01
-9.469412649337920485e-01 -1.065786745521870493e+01 3.205517841014901137e+01
6.993953657654394362e+00 -5.768632440359534597e-01 2.146644127650039025e+01
2.846321892468735459e+00 -1.134143192517627341e+01 2.716478370442949242e+01
4.290249039174226731e+00 -1.007174096722903300e+01 2.530067564822117276e+01
3.894606586636938594e+00 -1.043491035281487100e+01 2.566278636051904272e+01
5.081326693052376164e+00 -9.345595624818459513e+00 2.457664754256420636e+01
6.961582820496155399e+00 -6.111602558234272564e+00 2.296974266761574057e+01
-2.746170761941565175e+00 -9.763992387851414989e+00 3.247875820813641212e+01
1.182785630508246255e+00 -1.181474268750837098e+01 2.917364357433777755e+01
2.132166189030724635e+00 -1.169497847414154279e+01 2.806777273953797902e+01
-2.553414948459490907e-01 -1.109967945238407161e+01 3.146110151784583309e+01
2.977561077443472426e-01 -1.139189157276636877e+01 3.074971139101655027e+01
7.457033697155917906e+00 6.952263084452110775e-02 2.173566137307665969e+01
7.567380827702513635e+00 -6.447496311254511392e-01 2.178407820845796650e+01
2.657163680217527801e+00 -1.163719522588328381e+01 2.788577108709552732e+01
3.556624413219859893e+00 -1.102672090494213464e+01 2.670645259379704584e+01
6.130867033601809624e+00 -8.055599754514144450e+00 2.385960083860150505e+01
5.431379512288588174e+00 -8.915363002864808095e+00 2.433750716302197148e+01
6.843194294446574233e+00 -7.101914821608757755e+00 2.350108709672270990e+01
6.481035055443548742e+00 -7.625584397489253874e+00 2.362056569507196002e+01
7.360524099787870256e+00 -5.534994998285815093e+00 2.283816845397089423e+01
7.591494501421125918e+00 -5.113189275905583919e+00 2.281651126886969649e+01
7.629097786529604797e+00 -4.013737536121067428e+00 2.243459085674513886e+01
7.685594688731378632e+00 -2.969885280810439010e+00 2.208257431969007101e+01
7.839511941325722155e+00 -1.343102763702378910e+00 2.199520502846530334e+01
7.910742590340123392e+00 -2.462163939508924315e+00 2.213530695175156637e+01
-3.258265928863961491e+00 -9.494305642976678783e+00 3.249026133844316178e+01
1.524098482716016223e+00 -1.187374458865567739e+01 2.903556374857345546e+01
1.405568287609047617e+00 -1.178693607118624165e+01 2.975496199010004617e+01
4.286233844895569189e-02 -1.126626581732930887e+01 3.110634217159139325e+01
-1.632516062671281576e+00 -1.013265094016006707e+01 3.299879337765648302e+01
6.097555895624647171e+00 1.266616268944685819e+00 2.116121955350153883e+01
6.944272390985281262e+00 9.614809319098605034e-01 2.146669133525888995e+01
5.023509529215512082e+00 -9.959595119845053190e+00 2.550391730182960970e+01
4.607904684654776872e+00 -1.034078273883744892e+01 2.588381450028594344e+01
5.780893284527595100e+00 -8.485783917042306612e+00 2.409872475304997508e+01
5.458551302556973184e+00 -9.560134109957502346e+00 2.510555993130905250e+01
7.205515553352563884e+00 -6.578147489979297546e+00 2.338157124940817866e+01
2.344088771315818498e+00 -1.177825074478004019e+01 2.867226431180121438e+01
3.175091224412505575e+00 -1.146770388079828251e+01 2.772108110899451106e+01
3.613854859877791093e+00 -1.125587963748523279e+01 2.738875428827345715e+01
1.074370988309606423e+00 -1.156159309168435811e+01 3.083589333124638543e+01
5.647642625832908214e-01 -1.131038471034966619e+01 3.154887884259287389e+01
-2.240359303350473397e+00 -9.892060310212871244e+00 3.297972632540863458e+01
-1.024468462666499491e+00 -1.037332085639670254e+01 3.301763596636229892e+01
-3.158429436034413534e-02 -1.097720524880384119e+01 3.225842827394391321e+01
4.192296609819940123e+00 -1.072197144065610708e+01 2.626371254605945538e+01
4.039927778289121640e+00 -1.089137816123713165e+01 2.655521731431447208e+01
5.770578661794656838e+00 -9.301692860078615510e+00 2.490868167990700144e+01
6.120139247600421939e+00 -8.871794288314099219e+00 2.466967336351533646e+01
7.110313957368025406e+00 -7.661386788297055439e+00 2.401378068552103784e+01
7.567731060770411133e+00 -6.054555411784390273e+00 2.326208137109891183e+01
8.106877982132557392e+00 -4.241545012090692346e+00 2.276258189604391902e+01
8.018710103079381923e+00 -4.885782654348243881e+00 2.295248435415623334e+01
8.195238028735094105e+00 -3.595922525570411477e+00 2.257224568100846085e+01
8.055899391303286805e+00 -1.828048615893520301e+00 2.215669842345156582e+01
-2.829089053196935044e+00 -9.592454098841228571e+00 3.295299798369009636e+01
1.304080351726588871e+00 -1.170817346977597495e+01 3.049118779210970587e+01
3.192474794959497153e+00 -1.167555901632311333e+01 2.831895379700546300e+01
3.670866978208342513e+00 -1.148491093400963692e+01 2.807058156167940766e+01
2.088940500115300747e+00 -1.190500135578908925e+01 2.947948463807938424e+01
2.686990901379702201e+00 -1.184063148460714920e+01 2.925230976296107244e+01
-3.776077033751917833e-01 -1.075631662605686323e+01 3.255509713165729124e+01
8.337198568085449679e+00 -1.621849525237998579e-01 2.222089943047053495e+01
8.140729755161276060e+00 -7.127142933123461477e-01 2.210166691447436804e+01
7.582661222838183335e+00 1.079251477636848255e+00 2.182379105737523517e+01
6.470470837942711384e+00 -8.441731251292676319e+00 2.443059117213773135e+01
5.836746982387960969e+00 -9.774842651608757649e+00 2.563486461020656648e+01
6.820179472098916840e+00 -8.011667498350641736e+00 2.419150305842874360e+01
7.733893399433055649e+00 -7.043346142682629818e+00 2.398816476194174996e+01
7.930527362823072579e+00 -5.530135489821219608e+00 2.314239082937637093e+01
8.283508590725599419e+00 -2.950983318121654264e+00 2.238208627621049729e+01
8.426950628415523781e+00 -2.227297301251985218e+00 2.239443589986614569e+01
1.628368958190762994e+00 -1.175912674408236036e+01 3.033775231999204181e+01
3.036260027949821971e+00 -1.174609193134269880e+01 2.871230670241398286e+01
4.330006618590749312e+00 -1.126164344253091976e+01 2.775371215549110460e+01
4.054585258058656549e+00 -1.109923733582848016e+01 2.715600237806565076e+01
-1.660630700187283093e+00 -1.000420920955890836e+01 3.347413146468297640e+01
-4.167629721629362294e-01 -1.061385588463105201e+01 3.303332841446031409e+01
7.959626387422507499e+00 4.590293737583492906e-01 2.202218680216810043e+01
5.435064702373706425e+00 -1.022298200835491855e+01 2.612652141127184180e+01
4.886222153603139162e+00 -1.064609263101899295e+01 2.650331340307350203e+01
6.460005042766116645e+00 -9.257805555838420020e+00 2.524059088506625059e+01
6.809730286412640332e+00 -8.827839776872620448e+00 2.500159621946294308e+01
7.801179235934190714e+00 -6.418191165123874775e+00 2.363055756326543744e+01
8.144052258395246824e+00 -5.977817345347765432e+00 2.355255827294527649e+01
8.645162663089376309e+00 -4.044588587168695071e+00 2.298999428941783663e+01
8.570407499649247640e+00 -1.503683113316692133e+00 2.240677711498537761e+01
1.851105340959683820e+00 -1.173132466376851113e+01 3.092191836166320940e+01
4.227853636885212651e+00 -1.148040632752436530e+01 2.832815822033116149e+01
2.654091804105012109e+00 -1.193627849375210204e+01 2.992336500930239040e+01
1.468742832534534637e+00 -1.154290148849607256e+01 3.145650832114171891e+01
1.920159352648564410e-01 -1.085481624237861276e+01 3.304844401127568432e+01
6.391903990824957527e-01 -1.110464795995366138e+01 3.252063647938553004e+01
-3.845161464212898395e-01 -1.047083561730504186e+01 3.366077506298096012e+01
-1.081171955603418500e+00 -1.011630606632248508e+01 3.396012635115198464e+01
8.713810402954820233e+00 -7.808238194437437940e-01 2.241910439684848910e+01
4.580877915568986936e+00 -1.098517665319381109e+01 2.708658755604115598e+01
7.159504997751048982e+00 -8.397874714379218730e+00 2.476259518629618839e+01
8.733349680389133951e+00 -3.399183996414047115e+00 2.279962726964561881e+01
7.739572391708408716e+00 -7.697181469902766970e+00 2.440690728538610088e+01
8.647739431580429681e+00 -5.268166514840066483e+00 2.344560273614714774e+01
3.728143315573057226e+00 -1.171395029797800191e+01 2.875229420542106951e+01
3.311286610625109539e+00 -1.183753534767543769e+01 2.947363249991494527e+01
2.252702391672462667e+00 -1.183380183181349743e+01 3.042217953912633632e+01
1.086360973221437876e+00 -1.135447795809736782e+01 3.199109823625870774e+01
6.213920958582136223e+00 -9.989414137657570691e+00 2.616379948118929732e+01
6.681585336488372384e+00 -9.601656347049670970e+00 2.586821528846889962e+01
8.357484062490701859e+00 -6.425308427770329622e+00 2.396253201850707981e+01
8.217926308398242341e+00 -7.320979722408569756e+00 2.444946140331527573e+01
8.425878346503282046e+00 -5.744817503305823969e+00 2.355137433960237203e+01
8.915596060051928617e+00 -4.557890187498673917e+00 2.333151846169007726e+01
8.925627744012107456e+00 -2.916849923089575469e+00 2.281147845162943000e+01
3.218771544473925772e+00 -1.196753898431500751e+01 3.036833546536046313e+01
4.894354078727864987e+00 -1.137305746334716439e+01 2.834575465383360182e+01
4.484510559391366336e+00 -1.162549747435669367e+01 2.886679159882698542e+01
3.470142928386864001e-01 -1.072067211638535866e+01 3.383954199872987090e+01
5.972726156647830464e+00 -1.029000397165971137e+01 2.650792838512128924e+01
7.149298411780906193e+00 -9.213900614780776266e+00 2.557262579435929339e+01
7.498641964925838010e+00 -8.783851178230273504e+00 2.533331236534510111e+01
8.570934685736682823e+00 -6.872837120021624280e+00 2.437252106852471556e+01
9.183448693504248084e+00 -3.847642864752681913e+00 2.321740231792639975e+01
9.303395392314785184e+00 -3.344814942893335363e+00 2.317487605818972440e+01
2.051280916985207980e+00 -1.167017223726747055e+01 3.152113773644402883e+01
2.683166695147514158e+00 -1.183085898347180986e+01 3.103428119881002090e+01
4.306870891800639534e+00 -1.175242903191765187e+01 2.922364585797994252e+01
3.883291235721218371e+00 -1.179295901841832261e+01 2.937763267693854985e+01
4.038453720016878634e+00 -1.187196978109667000e+01 3.000373872085194549e+01
5.123548215964080832e+00 -1.107894496261646289e+01 2.761768374844956142e+01
1.608003500047112011e+00 -1.139857507866456920e+01 3.243144946716243737e+01
6.969041426547127882e-01 -1.090900485571437883e+01 3.348898484998003511e+01
8.071897474382310200e-01 -1.101288420985867411e+01 3.311357773391633685e+01
-5.015917894296431090e-01 -1.022842748324741891e+01 3.444737558105783393e+01
5.580804674681892230e+00 -1.057029169338508900e+01 2.674264728209251629e+01
5.260331359291886777e+00 -1.082328054550782781e+01 2.712280125486480742e+01
6.894867874672056196e+00 -9.852398335973383325e+00 2.635553423288626007e+01
8.369052367696815153e+00 -7.732988205709139251e+00 2.480016228006035917e+01
9.567709130936639994e+00 -2.882767533694650108e+00 2.324084516070539053e+01
2.418514872428373597e+00 -1.175297184364461778e+01 3.137931645489014443e+01
5.238309517721482678e+00 -1.153708051924825106e+01 2.898118991785163345e+01
3.782729340055219769e+00 -1.199877184542765285e+01 3.081387795686850595e+01
-2.925682777852129518e-02 -1.047165409531268665e+01 3.423295349864829262e+01
1.422297705305900051e+00 -1.117093585050296056e+01 3.317870874272660586e+01
-1.207522658838653840e+00 -9.880018426420965838e+00 3.467999644624547528e+01
6.591264184092810119e+00 -1.020400454332217066e+01 2.669274292212642763e+01
6.273903949376304467e+00 -1.049450546256307071e+01 2.698190015428328792e+01
7.548305354109070109e+00 -9.586033986798133455e+00 2.634322850951281225e+01
7.933844174873961208e+00 -8.258419730568631323e+00 2.506675161782060357e+01
8.899419706910281391e+00 -6.435402831377582622e+00 2.426195562449689191e+01
8.784566205883805878e+00 -7.320751616803786277e+00 2.478283968037360196e+01
8.921207475046326607e+00 -5.959489164780732651e+00 2.396033687461734374e+01
9.364827384970654478e+00 -5.006252500594110089e+00 2.374875128405263780e+01
9.633036833149448697e+00 -4.295594258011441013e+00 2.363469776091704588e+01
3.515596445389506552e+00 -1.193046066980702768e+01 3.114671122866295505e+01
2.985493654289042009e+00 -1.177460262885246145e+01 3.183636720151805122e+01
2.251381431865034255e+00 -1.160904150301889715e+01 3.211999939135341009e+01
5.664475119710720818e+00 -1.117270755738507582e+01 2.814860130582118458e+01
4.883568320353683490e+00 -1.179093371594219875e+01 2.969536300513424720e+01
4.193723059751644833e+00 -1.195102700037887367e+01 3.063184688698279246e+01
4.827449129371232495e+00 -1.189022112284308363e+01 3.040014355497508092e+01
1.201861114743820291e+00 -1.096320113686837061e+01 3.392979175190571794e+01
5.020102765035682202e-01 -1.058652890274233904e+01 3.463115284927965831e+01
-6.705425698107058130e-01 -9.913233949890576824e+00 3.540749526917313261e+01
5.969187167041951625e+00 -1.083360704300097233e+01 2.756530538094412464e+01
7.837968611982754297e+00 -9.170039898585184091e+00 2.590430380739757865e+01
8.224894882407655317e+00 -8.702749529728365019e+00 2.566720387092525613e+01
9.468790893277397203e+00 -5.494852673839155877e+00 2.405835414284490525e+01
9.231151663422275888e+00 -6.745316865631846959e+00 2.464523785954276036e+01
9.735180291703606770e+00 -3.572920179995147105e+00 2.352568777346355944e+01
2.129653270485094119e+00 -1.144267258124299858e+01 3.286979332816338939e+01
5.535772028171752623e+00 -1.135757868365248591e+01 2.861361679333235486e+01
7.784887311207687455e-02 -1.034052209325771798e+01 3.493485697438320159e+01
7.258486736076600998e+00 -1.000225907077265397e+01 2.678237270600000386e+01
8.998251156483151547e+00 -7.768778836489238060e+00 2.519323610830272742e+01
8.611438208337480305e+00 -8.235925504353005522e+00 2.543031364690221707e+01
9.416317661804177064e+00 -6.174067241114315152e+00 2.436911690510749651e+01
2.451458719320457558e+00 -1.154791707875936879e+01 3.271393685908672921e+01
5.624833527836226921e+00 -1.164435677643211697e+01 2.959199228898664913e+01
4.348809088313455362e+00 -1.202997835536106486e+01 3.125903851579621318e+01
-6.723311876470329518e-03 -1.018293429190271482e+01 3.541479059589353540e+01
2.036808526463471658e+00 -1.132883463119234335e+01 3.324378075537077137e+01
1.111183650412271184e+00 -1.077938445635691878e+01 3.460827488003261010e+01
6.968612975566894185e+00 -1.041857120300486095e+01 2.722158128068732097e+01
6.894703517156313133e+00 -1.073243816630527725e+01 2.788450226269086585e+01
1.008302460753268726e+01 -4.743945603359693841e+00 2.405235840663467783e+01
9.703233919332598489e+00 -7.186235105430714754e+00 2.519058965488391166e+01
1.012538542350758242e+01 -4.112020329294238330e+00 2.392503330205154555e+01
3.102300183165255909e+00 -1.164152291710568576e+01 3.280076723318529730e+01
3.553019941902780143e+00 -1.179625432496555604e+01 3.229363080817704201e+01
3.950218058988591352e+00 -1.191311637622575503e+01 3.177645559360805194e+01
5.460273672012853297e+00 -1.182941509549045023e+01 3.016840336229061847e+01
5.992507788176187233e+00 -1.144866343944539366e+01 2.909570296746615625e+01
6.205442086347573216e+00 -1.126643570071396105e+01 2.867914319502954257e+01
5.259936530321681403e+00 -1.191907465261193799e+01 3.075505408804048102e+01
6.568384664469369971e-01 -1.045252993221729021e+01 3.542208235305796649e+01
1.872091555640713834e+00 -1.117314677467988560e+01 3.380736798078928729e+01
1.707371328716100090e+00 -1.101745701099365782e+01 3.437118456247330300e+01
8.267099172994301526e+00 -9.405883477631057588e+00 2.648342095027800980e+01
7.977072168446577294e+00 -9.821838809028323070e+00 2.692205147940930487e+01
7.481465296847495061e+00 -1.053774535828020831e+01 2.774981299647231126e+01
8.422578837523067463e+00 -9.153765635809921974e+00 2.623838504366744218e+01
1.019139129414209144e+01 -5.364109479026880400e+00 2.443102820620503479e+01
2.651539116372533922e+00 -1.148679072541876955e+01 3.330887966735313199e+01
6.342309508686052588e+00 -1.098397812122338202e+01 2.812431268649649141e+01
5.059716441639658058e+00 -1.200873391809109236e+01 3.134164037453256313e+01
-1.458806334657786891e-02 -9.968488729263397019e+00 3.620277596316019952e+01
7.596830520939988896e-01 -1.028305939684397430e+01 3.621131960581922016e+01
8.857690167980853957e+00 -8.628275084951525287e+00 2.597176396801362586e+01
7.357706005674722327e+00 -1.080731163973485209e+01 2.828826939772945792e+01
7.615392170421431572e+00 -1.034208707730267740e+01 2.747120860696028188e+01
9.292779572577375191e+00 -8.102755923886626022e+00 2.570506350550521901e+01
9.835108909172777913e+00 -5.834162132826191893e+00 2.445188300124388547e+01
9.912261471231676779e+00 -6.389006337805620994e+00 2.477858267786851343e+01
1.059815720126883321e+01 -4.622662384577066241e+00 2.443101976084249927e+01
4.120694782894574359e+00 -1.181791213098646232e+01 3.274772605994335350e+01
6.223150869191238499e+00 -1.163278853875674201e+01 2.989622848790924792e+01
4.573486016114687303e+00 -1.198779191958826118e+01 3.186072540903860428e+01
4.871438056127123772e+00 -1.202985637040140610e+01 3.164658145734425077e+01
6.820836181225123696e+00 -1.104612838725428503e+01 2.854686872229923722e+01
1.502574243023308442e+00 -1.082587849396714219e+01 3.493056595110972751e+01
2.263344752104276658e+00 -1.121742135016038944e+01 3.413726768933301514e+01
7.994066740840507279e+00 -1.065685955779221672e+01 2.827770891417907961e+01
8.261421427306762766e+00 -1.026569334407427014e+01 2.772052287770213397e+01
8.478544855448932438e+00 -9.953556211707004664e+00 2.739113352486766573e+01
9.550233524572492527e+00 -7.852096770654581448e+00 2.561764081005552995e+01
1.052580098319125668e+01 -5.026796270671423983e+00 2.450911687167606345e+01
1.040801592069861137e+01 -6.603863110845169082e+00 2.518788945071738894e+01
1.091935094947266016e+01 -3.614584449908733177e+00 2.442948943678729279e+01
1.080604464482461147e+01 -4.169565566639796828e+00 2.448085183737811477e+01
3.302557307093579197e+00 -1.158039735099514367e+01 3.339588236244667030e+01
6.037636925683181666e+00 -1.186793379556446482e+01 3.064215290595186758e+01
6.746870628925687896e+00 -1.136023703386335626e+01 2.921021580348854840e+01
5.770166230596599277e+00 -1.198748773738494755e+01 3.142424805167588175e+01
1.297777766264773147e+00 -1.063430077019757647e+01 3.549003151526079591e+01
1.149494237193634083e+00 -1.050462492781285029e+01 3.586165278629423625e+01
8.695668697913115253e+00 -9.641419173274364596e+00 2.706172426569191813e+01
9.006946888428196019e+00 -9.137498834481410981e+00 2.657231909117110291e+01
1.029968428823286075e+01 -5.983866831693566368e+00 2.480940833926250022e+01
1.011233340765297228e+01 -7.477720318061942706e+00 2.568678512498451028e+01
3.953951718938229831e+00 -1.167405980106426533e+01 3.348293723441111069e+01
2.841726920064152395e+00 -1.138453070434012915e+01 3.410372975198640688e+01
3.186502297383624782e+00 -1.151448511429739341e+01 3.376563815931834966e+01
6.858137593437716006e+00 -1.150625607812937190e+01 2.980440361581409547e+01
5.392817152460652963e+00 -1.202973413072945874e+01 3.203412785447341093e+01
4.801199454300768110e+00 -1.194558872192289378e+01 3.246202250498968311e+01
4.160324133833734894e-01 -1.001118259170016067e+01 3.670096138636302641e+01
2.212289040219974190e+00 -1.107164928067973619e+01 3.481211986182201201e+01
9.587502928756236997e+00 -8.436955177699822173e+00 2.621719315759273172e+01
7.718248418459570104e+00 -1.096535467615472115e+01 2.882526286100878465e+01
1.096878745911986641e+01 -5.309783053863855073e+00 2.496608730183651303e+01
1.067443423100474931e+01 -7.103345312861844896e+00 2.575590479918181686e+01
1.113159333250870375e+01 -6.239944571616995006e+00 2.553417182086191062e+01
1.141176734319833486e+01 -5.592765882196861327e+00 2.542304477596486478e+01
1.111345986426100119e+01 -4.501366233091222746e+00 2.480980672772987816e+01
1.127386893406480972e+01 -3.997376735795495240e+00 2.480890108657320781e+01
6.969524206843757064e+00 -1.165243053134851614e+01 3.039924100819453301e+01
7.308642524054307366e+00 -1.141974378237022059e+01 2.967417740725666064e+01
1.939096550808125485e+00 -1.081617805476263428e+01 3.555802490527569404e+01
-2.245912369773214734e-02 -9.754044755644374121e+00 3.699081470938497773e+01
1.642371986948400808e+00 -1.055674361779819392e+01 3.630142948335549846e+01
8.625599227809427338e-01 -1.011352686009381685e+01 3.700090086296275160e+01
3.031889692926922120e+00 -1.128228444143663722e+01 3.489878410625794913e+01
8.805177866599416703e+00 -1.043979579771294830e+01 2.836818064343038870e+01
8.907423723268149018e+00 -1.018930338804262803e+01 2.796980415643635709e+01
9.124812410703659893e+00 -9.877270351999092313e+00 2.764073209583050783e+01
1.089076445300145224e+01 -6.767375130635210567e+00 2.564424568429135931e+01
1.129000906144787564e+01 -3.411838145046907300e+00 2.479898579914031487e+01
4.688391590360418526e+00 -1.183957116680305433e+01 3.320245617275235617e+01
3.721922316989154211e+00 -1.154220314324902041e+01 3.422287882061694830e+01
7.442433406864927825e+00 -1.127384833592562075e+01 2.937291738501789595e+01
6.614919394316774337e+00 -1.190644476436517074e+01 3.111576808413347450e+01
1.439430147263990101e+00 -1.031362150120954624e+01 3.697766011363995631e+01
9.358105648628159301e+00 -9.499250606468763181e+00 2.727354178957256892e+01
9.882037334997875178e+00 -8.770942476752514594e+00 2.672895161918766860e+01
8.506825243416470173e+00 -1.077600908952235947e+01 2.880569800287697646e+01
1.010236370544660645e+01 -7.935437179815523656e+00 2.604215379851536483e+01
1.020643786083121540e+01 -8.364301421840606210e+00 2.652937104153260961e+01
1.094089319409906302e+01 -7.602908033822829204e+00 2.632394866201472539e+01
1.174174539404887518e+01 -5.127678977668267635e+00 2.553423570913309959e+01
1.174114202368168769e+01 -3.597723840415913976e+00 2.526821394563741308e+01
5.028360690706928260e+00 -1.190339115973778483e+01 3.305907734507597695e+01
4.604810079229605613e+00 -1.176764917018901002e+01 3.356992198794200277e+01
7.080961533056506774e+00 -1.179867192004095955e+01 3.099429072203927760e+01
5.914278145055673619e+00 -1.202961215624557667e+01 3.242166999731541921e+01
4.715706685126613840e-01 -9.849093066431489518e+00 3.739051564042696896e+01
2.717532948174974372e+00 -1.112587678869637031e+01 3.525337669600602197e+01
9.591402532411541060e+00 -9.121229661592076710e+00 2.690629384905889054e+01
8.138406476904611608e+00 -1.118741022208349811e+01 2.953571166037964701e+01
1.065490717842752311e+01 -8.018840956322831559e+00 2.646697945329725243e+01
1.137332402028451739e+01 -6.930823982348421453e+00 2.610041794117703873e+01
1.185518983282771366e+01 -5.876032198179174770e+00 2.588045182374452935e+01
1.162841675711483269e+01 -4.380209335073683263e+00 2.518834017095014488e+01
5.255347065672911100e+00 -1.186120260913594748e+01 3.365686756322187279e+01
7.870433970957129155e+00 -1.147925193936475630e+01 3.013826820014273977e+01
6.481057688063748046e+00 -1.196623561883367337e+01 3.150687815223086474e+01
7.695599811566474990e+00 -1.170020208759076752e+01 3.088990263838351780e+01
6.458389371597420769e+00 -1.199786285955093135e+01 3.215804930582013554e+01
2.265001089347523422e+00 -1.077804219400551489e+01 3.616973499186944707e+01
9.653683257289782382e-01 -9.944097557917359609e+00 3.779003489417009831e+01
3.817501387298243287e-01 -9.704277540742275221e+00 3.779433974746507374e+01
2.580715059074262907e+00 -1.099814090984869530e+01 3.562604650429747721e+01
1.017657970959746905e+01 -9.104940346601955170e+00 2.724067099849101581e+01
9.553549464098699318e+00 -1.011289849723427459e+01 2.821911096887316361e+01
9.865026120001219923e+00 -9.608980715419491503e+00 2.773000737311254937e+01
4.756376411609401167e+00 -1.171556165288494533e+01 3.416841462436390486e+01
3.739687451650397509e+00 -1.137497424186706851e+01 3.518704120438473382e+01
5.765966635628357650e+00 -1.194536497185345425e+01 3.317531174948748429e+01
7.192441824471639933e+00 -1.194497068783225302e+01 3.158955691806064081e+01
-2.020024405123994060e-01 -9.464402864097356982e+00 3.779864531001758365e+01
3.222067014496476922e+00 -1.118002826757001245e+01 3.569403846129938529e+01
1.201088858049208774e+01 -4.309833560249843210e+00 2.560531500362675317e+01
9.019341288857759764e+00 -1.089510258859744418e+01 2.933362228032087415e+01
9.546465855635810627e+00 -1.041320560094814951e+01 2.876632892155961940e+01
9.059209606822093974e+00 -1.062495895752070396e+01 2.886138789302819774e+01
1.069202780227095495e+01 -8.603443393976657916e+00 2.706613191461496370e+01
1.120720819972426341e+01 -8.102206609387454961e+00 2.689161057744798100e+01
1.238385910565282266e+01 -4.867497111145073774e+00 2.608287361721375675e+01
1.201677175537574449e+01 -6.337120174980349852e+00 2.625858695238293450e+01
4.257301480790290249e+00 -1.156992002028410305e+01 3.468013700628642226e+01
8.432327299034637846e+00 -1.153877050882739397e+01 3.060236936796287566e+01
6.435859771434005339e+00 -1.202949004766098540e+01 3.280921308333766007e+01
2.849775578862975500e+00 -1.086167948911741377e+01 3.659513123569443849e+01
1.213834920940330875e+01 -3.816796910500848572e+00 2.571775116742954737e+01
1.216117796722444666e+01 -3.265531572398062909e+00 2.571175488676191989e+01
1.200600051249027800e+01 -4.623762904223133852e+00 2.563544565998665448e+01
8.835701162343166715e+00 -1.110081043505300613e+01 2.969881641668606420e+01
1.185688460225211394e+01 -7.094611957159956184e+00 2.655752994621744989e+01
1.249792757336682669e+01 -5.615588190282779557e+00 2.642965542305349658e+01
1.227399426881911992e+01 -6.072210764249152071e+00 2.634918094267433375e+01
5.941280503317003081e+00 -1.190319116174385528e+01 3.373421444040567962e+01
5.457871193063429160e+00 -1.179183675331124448e+01 3.445472531654220205e+01
4.792724096546704615e+00 -1.159763870905529259e+01 3.513747399820545070e+01
3.882033557766514598e+00 -1.129823412716923592e+01 3.578342235243471237e+01
7.923947411284060216e+00 -1.188811014888203133e+01 3.169105892473417896e+01
8.461369685671552787e+00 -1.132649747530112982e+01 3.007230309474753938e+01
8.278232360767542986e+00 -1.171213611546902023e+01 3.118484366977297739e+01
6.915114125053743344e+00 -1.199775063713462586e+01 3.249720287872423086e+01
1.058201989692888922e+01 -9.359899867946927188e+00 2.783102777203860967e+01
1.016634888464889208e+01 -1.003214312033933808e+01 2.848339936894321056e+01
9.997278857705168775e+00 -1.021676433855924060e+01 2.866366404015472824e+01
1.177362076962167947e+01 -7.679940940068385125e+00 2.695272844603186257e+01
1.071003589333926875e+01 -9.125744234810792221e+00 2.761909892193729732e+01
1.239361088050481285e+01 -4.239422000119460243e+00 2.602255861627061861e+01
5.814163449277025997e+00 -1.187177466766190292e+01 3.410486853339617852e+01
7.698523376602271817e+00 -1.196478432328222574e+01 3.198812084251646937e+01
3.724802502427711381e+00 -1.119972303233790711e+01 3.613828744669258697e+01
3.353237824630235675e+00 -1.104179745251366818e+01 3.648344772476523445e+01
8.994357258262404287e+00 -1.159830352024689759e+01 3.106656136588825134e+01
1.246891040861549627e+01 -3.717610489964762621e+00 2.607594828435581746e+01
1.098806074508408948e+01 -9.615237106208351037e+00 2.842215533232723601e+01
9.539382913823553523e+00 -1.071358502526584289e+01 2.931389008972957555e+01
8.997333342559509006e+00 -1.130456024562411521e+01 3.031251326376457911e+01
9.532293066129055248e+00 -1.101429691774140096e+01 2.986175157972908778e+01
1.157515168514071924e+01 -8.464159387164627901e+00 2.751271754472470832e+01
1.217813889604839517e+01 -6.797607642979334841e+00 2.663619009958221184e+01
1.276192989380234266e+01 -5.111371878811930003e+00 2.653054959877895058e+01
6.957508322923530386e+00 -1.202936789212710345e+01 3.319528922498648882e+01
7.394553848728586232e+00 -1.196601074987998992e+01 3.218518278689175105e+01
4.541834265666770953e+00 -1.141641090797494051e+01 3.587278532137128195e+01
1.277661350616256541e+01 -4.168971291224780273e+00 2.644010406097856247e+01
1.044169626763630099e+01 -1.032078859678959404e+01 2.910894523461437444e+01
9.971231578853718247e+00 -1.048407194088729355e+01 2.913951559410760694e+01
1.078042267593851911e+01 -9.951219233039608980e+00 2.874823357064125418e+01
1.170762699337193880e+01 -8.171893761552233570e+00 2.730762480299945238e+01
1.233949684315014750e+01 -7.258078942418176638e+00 2.701373822776391975e+01
1.269257257013083517e+01 -6.268284089301688233e+00 2.681764900335128488e+01
1.295851460855223181e+01 -4.762486644556759963e+00 2.670946322980513443e+01
7.596653379302586551e+00 -1.198704856777632877e+01 3.278074019327457478e+01
5.327687200195379447e+00 -1.162533373511189794e+01 3.559444608785094744e+01
6.628614469430258005e+00 -1.194516884967092274e+01 3.381156357682202440e+01
6.372707565749871961e+00 -1.188234210103854949e+01 3.455269811883562880e+01
5.660396030770122877e+00 -1.172245648491977832e+01 3.525299870345146047e+01
8.655472977519750089e+00 -1.183124914808129624e+01 3.179256153268880780e+01
8.204604910231616088e+00 -1.198459785583848003e+01 3.238668097896604081e+01
1.273267385650022021e+01 -2.863867687738793855e+00 2.634667535461779408e+01
1.124388323367210774e+01 -9.146563495732522142e+00 2.799779596804967952e+01
1.139380042596433640e+01 -9.870387081591264433e+00 2.901278035196887117e+01
1.026904109371002249e+01 -1.064917444696890847e+01 2.961310173327745687e+01
1.314020295375249425e+01 -5.355380723605033921e+00 2.697846151111281543e+01
1.305520396347355039e+01 -3.751786925057821520e+00 2.674217575171313399e+01
9.387551779999581569e+00 -1.177434583337625718e+01 3.189413949724784914e+01
9.727965838343877181e+00 -1.124868056438532449e+01 3.057312508268969964e+01
1.289393865739762468e+01 -3.308214970938613941e+00 2.654442691534470811e+01
1.088573398580663643e+01 -1.042472519397966479e+01 2.955395505701143577e+01
1.027887157106629168e+01 -1.088716357532706702e+01 3.005552425990076060e+01
1.262896538597967400e+01 -7.632290064552724296e+00 2.752747245455767811e+01
1.317371705841513219e+01 -4.268775408492436085e+00 2.690326858646082542e+01
7.479191595441745832e+00 -1.202924582618001459e+01 3.358070596099864247e+01
8.710626838366364311e+00 -1.200440907938394908e+01 3.278519516756074381e+01
9.557165389680868373e+00 -1.165791869073530229e+01 3.153138549886867992e+01
1.177737412238415970e+01 -9.167369578625370607e+00 2.837623203194805299e+01
1.194305982380430109e+01 -8.826079094953524162e+00 2.813368316686469583e+01
1.185262084840012520e+01 -9.529179967998334888e+00 2.888380454672996223e+01
1.002567206796408428e+01 -1.106694382965463852e+01 3.028618534875792889e+01
1.220771919806175809e+01 -8.241535534266187568e+00 2.772335858304371925e+01
1.333490931738702656e+01 -6.008471143393358638e+00 2.736666472019976837e+01
1.331462977831841243e+01 -4.730721837169236110e+00 2.711215831737698423e+01
1.293452657131001615e+01 -6.959030243360813550e+00 2.738395875702151372e+01
1.311107782092379992e+01 -6.464324156051308279e+00 2.728602593644540164e+01
7.315139601004910119e+00 -1.198714640308816470e+01 3.388894176512314260e+01
7.798766283860343762e+00 -1.200808619876672978e+01 3.337378019850220312e+01
9.404112131307101663e+00 -1.187693227062992563e+01 3.247303025929470977e+01
9.923619914917024332e+00 -1.148303928613451141e+01 3.128432462597427133e+01
