1.164878285860733165e+01 1.916220121727771186e+01 3.668758481431768104e+01
1.311157496525410160e+01 1.741846967323958140e+01 3.614191405712094962e+01
1.396035254442288576e+01 1.619450167224732340e+01 3.552878831236640877e+01
1.328641020442376863e+01 8.793723846270426137e+00 3.009800171939969715e+01
1.411118802194294375e+01 9.522836553507126212e+00 3.125482637200994063e+01
1.458657498584215517e+01 1.247975667490267249e+01 3.305249490147392066e+01
1.466345837454439405e+01 1.303199768117877433e+01 3.353987038008737187e+01
1.417004833243559148e+01 1.583591826516997081e+01 3.526150966435658063e+01
1.061664737161075500e+01 2.007168959239753292e+01 3.647410416640737196e+01
1.384909456362553115e+01 1.651254901629749128e+01 3.593303013604835883e+01
1.374035102719573409e+01 8.937281757389628822e+00 3.059951773161327893e+01
1.268504336794064002e+01 8.189638390263636936e+00 2.930407374855677460e+01
1.211915534683123852e+01 7.941080530733836795e+00 2.865715133776108914e+01
1.454666534392129940e+01 1.127470268098056572e+01 3.243161167969871883e+01
1.470594600641986816e+01 1.065175701954907517e+01 3.235671579082917049e+01
1.444317408257905733e+01 1.020546697008730241e+01 3.189086357820980311e+01
1.460371446670298212e+01 1.174353302199194893e+01 3.268147832006067688e+01
1.501581068389618068e+01 1.370327884598319201e+01 3.443922353690270910e+01
1.468679655036078913e+01 1.476666758312613226e+01 3.479547874185656298e+01
1.453053809538018726e+01 1.534504317215116309e+01 3.534811876946564269e+01
1.289622480050532083e+01 1.783553985040459011e+01 3.652133548562532894e+01
1.186897510299257519e+01 1.891743694591786706e+01 3.719250801581010535e+01
1.268068850736148789e+01 1.825294125197919115e+01 3.690106705575337998e+01
1.407452719932572549e+01 8.972287661714098306e+00 3.099549385546849578e+01
1.168778051254975026e+01 7.926260259652067042e+00 2.821683533477441941e+01
1.491633092316534714e+01 1.121155815352638996e+01 3.281067544826417048e+01
1.488162505450156736e+01 1.268335952266152589e+01 3.355286215667631922e+01
1.495777108242566733e+01 1.326224640740357330e+01 3.405709688387999989e+01
1.504764341177522802e+01 1.427586608391408340e+01 3.488178584652781922e+01
1.141045077967149624e+01 1.928902520797183584e+01 3.739131846146424465e+01
1.061563321735833298e+01 2.000154760424781841e+01 3.711676791983982326e+01
1.226715540177072761e+01 1.856047649048115034e+01 3.733021843346742941e+01
1.363493299833188743e+01 1.698067348012312650e+01 3.641466149025566068e+01
1.437494880955986787e+01 1.592341871700798706e+01 3.590077307892867253e+01
1.323400393229578675e+01 7.984321853457601037e+00 2.979188614640645838e+01
1.243223843366931192e+01 7.547800784447923128e+00 2.884883094604898446e+01
1.442907736617031489e+01 9.731470784123732898e+00 3.168590444802307360e+01
1.443872586326686935e+01 9.210698918847286976e+00 3.148820759576963013e+01
1.095164872865853845e+01 1.968780040590915448e+01 3.734616763342079793e+01
1.268760115970484037e+01 1.813361039428955124e+01 3.753203896485186419e+01
1.327115590063620054e+01 1.746622360228218440e+01 3.660026224923542060e+01
1.415987618346499488e+01 1.644174416600993638e+01 3.648384021134263122e+01
1.517689649688991160e+01 1.288698425244520962e+01 3.405328024573750412e+01
1.363531514133287814e+01 8.202752902687468151e+00 3.026392255556376298e+01
1.403654127505673266e+01 8.421097594404850284e+00 3.073586172587378584e+01
1.283294677747570489e+01 7.765987811461604551e+00 2.932015172186918051e+01
1.475097037701069880e+01 9.946618129250621720e+00 3.212398182292560733e+01
1.440143537424173914e+01 8.659883434477508857e+00 3.122880932901479767e+01
1.495055259816577120e+01 1.190940662354661761e+01 3.322920023353685082e+01
1.522903225470596489e+01 1.067943789969725010e+01 3.293990379728228390e+01
1.540891737522054683e+01 1.378484664717689512e+01 3.496813219787451033e+01
1.547324846032790546e+01 1.309068793179585022e+01 3.455388985334334961e+01
1.498103879300964358e+01 1.473145254356844447e+01 3.545570504102050791e+01
1.310193090802596139e+01 1.782190677616615559e+01 3.695635632636648182e+01
1.185384804285604687e+01 1.886784190578759990e+01 3.775914455555808757e+01
1.457974672284267115e+01 1.601082272882849011e+01 3.653932399173394430e+01
1.102757898563960026e+01 1.955327651031623759e+01 3.797405707293673061e+01
1.535522133959331015e+01 1.210632696232522321e+01 3.386964260230655555e+01
1.537338077102648093e+01 1.126569804048800094e+01 3.344454812870392857e+01
1.528139299501172665e+01 1.418355022163160406e+01 3.530274256334477201e+01
1.482102510612131852e+01 1.525435279142669565e+01 3.590900273431349632e+01
1.061461609485185775e+01 1.993135573485092849e+01 3.776004665660055792e+01
1.227417773242839871e+01 1.844109583988300116e+01 3.796090535268908894e+01
1.352296878960473414e+01 1.739108387281081036e+01 3.701162748890828880e+01
1.394419410522741742e+01 1.696007156167859264e+01 3.706693046955442838e+01
1.144054100210269809e+01 1.917520610564057293e+01 3.818807407007992083e+01
1.325011927179163784e+01 7.185896498257432263e+00 2.965002774342849889e+01
1.355070438693457824e+01 7.657995090865971299e+00 3.006504905738649924e+01
1.513178181787214527e+01 1.005669334475292409e+01 3.258449809614567982e+01
1.476188587387941453e+01 9.409892861213940307e+00 3.192128625112651008e+01
1.476626387677913321e+01 8.898564045697520797e+00 3.172159489924479558e+01
1.560446639306341687e+01 1.376167519057535671e+01 3.540825352014675786e+01
1.577015918150671681e+01 1.329434353714778716e+01 3.505438257807377767e+01
1.474572856830948808e+01 1.560809460305538288e+01 3.629521572598633128e+01
1.310874260739678121e+01 1.770272280741490434e+01 3.758713695475415761e+01
1.269450820933178292e+01 1.801436503229466624e+01 3.816267124361655050e+01
1.436455762354809096e+01 1.652935247158342591e+01 3.712220796586620963e+01
1.180235577490264376e+01 1.877729407191415589e+01 3.853262869927429080e+01
1.061359907806263436e+01 1.986112535880735308e+01 3.840380244831364820e+01
1.550777835247784608e+01 1.253908459747045434e+01 3.430492931929632761e+01
1.391328232961500788e+01 7.815298339471443256e+00 3.048356233951633243e+01
1.276737330996979658e+01 7.003929585829859583e+00 2.909830591830296598e+01
1.480635883011617437e+01 8.452583681799215043e+00 3.165703373407314203e+01
1.555034430719004312e+01 1.067728119202434556e+01 3.336402692617041765e+01
1.581315209757383045e+01 1.145416642123131012e+01 3.412691475216285397e+01
1.006863191086155318e+01 2.027593541589399706e+01 3.813783198050734313e+01
1.228165875468652324e+01 1.830996981708203819e+01 3.865496944186072170e+01
1.478453702791648539e+01 1.609818397186121430e+01 3.717755586873660434e+01
1.394952253481816129e+01 1.686480216057174886e+01 3.757190009365502448e+01
1.353179674578345804e+01 1.723612781375405945e+01 3.783199874725858081e+01
1.102658924486084047e+01 1.948304779364669770e+01 3.861768523665218567e+01
1.579808644279812491e+01 1.206745799365528526e+01 3.443602755377435898e+01
1.578318099498229898e+01 1.268091884519059676e+01 3.474521970303032248e+01
1.430409359471807207e+01 7.879394089370755694e+00 3.091703261655245427e+01
1.505769414916541216e+01 9.577581913249728629e+00 3.231186740491538245e+01
1.379028363624881770e+01 7.210603240389524160e+00 3.023175701849246977e+01
1.554217326311573544e+01 1.014656978221761641e+01 3.306931056822564585e+01
1.543965065083537525e+01 1.422909040716136175e+01 3.576218797210496803e+01
1.527548099637220247e+01 1.469623974992665438e+01 3.611592925008219623e+01
1.511157179809338658e+01 1.516366544083334489e+01 3.646988378237085016e+01
1.021206887450419742e+01 2.024757184123457421e+01 3.747466058557247237e+01
1.270141525320755171e+01 1.789510887079451962e+01 3.879345823164820928e+01
1.494800911579787162e+01 1.563080452167857004e+01 3.682362758017430338e+01
1.311695131882888887e+01 1.755963381387664057e+01 3.834439782007837039e+01
1.138625809451519189e+01 1.913095295386849415e+01 3.871731957943137559e+01
1.471118080589119081e+01 7.970675731888020366e+00 3.142299296813416731e+01
1.549218042375721183e+01 9.375379820809525810e+00 3.270621439959742816e+01
1.366729178578947490e+01 6.605733288798013803e+00 2.997992877325201277e+01
1.512914559880073817e+01 9.136933122930424034e+00 3.221379480072115342e+01
1.510190692870035001e+01 8.619588692622995652e+00 3.205008520515497850e+01
1.582718199858408425e+01 1.084036437498825123e+01 3.381753327518698171e+01
1.584119920605742848e+01 1.022752158004883860e+01 3.350839753545466237e+01
1.587935364417449513e+01 1.387141100437034780e+01 3.599971921823257759e+01
1.609219458999166719e+01 1.275355022726549059e+01 3.516873669878962971e+01
9.819358272214458339e+00 2.049816753267097269e+01 3.772144270117505727e+01
1.010902678323635406e+01 2.016881400148182379e+01 3.885053921041708946e+01
1.437066464482927231e+01 1.643388311920102041e+01 3.762722532087860117e+01
1.395485002044207690e+01 1.676954572771714425e+01 3.807686324115255871e+01
1.353939474213888516e+01 1.710491145241705979e+01 3.852612468430201176e+01
1.186995659021321003e+01 1.858186937780188330e+01 3.927382115759478864e+01
1.061258228470729748e+01 1.979092977773531103e+01 3.904735723534091818e+01
1.416958938543611879e+01 7.364188213371649638e+00 3.067050074014293415e+01
1.508566845689909641e+01 8.079997946700078870e+00 3.189472839831131168e+01
1.604436660188154562e+01 1.340404713050355312e+01 3.564585151565115950e+01
1.608156866335929891e+01 1.222375823032237463e+01 3.487373856724965293e+01
9.605890020488489611e+00 2.054639121703824856e+01 3.865389206401961530e+01
1.228885520246981677e+01 1.817908382887796037e+01 3.934927881990556386e+01
1.488818531503161680e+01 1.597073489110460898e+01 3.775327008483527180e+01
1.520167442321444184e+01 1.562494074592158633e+01 3.722623374296823329e+01
1.312397691679674061e+01 1.744024189562693294e+01 3.897535502235732707e+01
1.145068478543730883e+01 1.898502171831501784e+01 3.919830249998581451e+01
1.103171370536966300e+01 1.938789464327917145e+01 3.912284155758117521e+01
1.457165533195250795e+01 7.337651342997701498e+00 3.109821691853111858e+01
1.425305319119182101e+01 6.701237158336178723e+00 3.062951479080250294e+01
1.585524389304387149e+01 9.613823012654551192e+00 3.319868565025128504e+01
1.627589972789589368e+01 1.156265591843412999e+01 3.476224824956823056e+01
1.628335447936271407e+01 1.077966523284435141e+01 3.435387127404050744e+01
1.573739313742838952e+01 1.445411363926242565e+01 3.654281428367953310e+01
1.561862954373590817e+01 1.481566194334785358e+01 3.682959406824560489e+01
9.505860426087977544e+00 2.067815463794736885e+01 3.810043349161356474e+01
9.583975381101899060e+00 2.026116234915276237e+01 3.919775472016920048e+01
1.008736370223040524e+01 1.988343995252699159e+01 3.939446025533306539e+01
1.270832732863929415e+01 1.777575532640360123e+01 3.942484568035457215e+01
1.448408618540863557e+01 1.629347849977606799e+01 3.826053570513550284e+01
1.407873348016856951e+01 1.661625898925498035e+01 3.876755095471977342e+01
1.542396758562760439e+01 8.818602348793996626e+00 3.248374822034279674e+01
1.540115729134473099e+01 8.291707015254690560e+00 3.232288336786568550e+01
1.612597155935522864e+01 1.035981734256657205e+01 3.393408681797093607e+01
1.616161116211308979e+01 9.808512400012427079e+00 3.368458808055370923e+01
1.578697470610577902e+01 9.056725061640095831e+00 3.297606803484787008e+01
1.638505427738576259e+01 1.292631189181888551e+01 3.584932348074899977e+01
1.641474245575584945e+01 1.221244199680571185e+01 3.528314605961774930e+01
1.561857677738046313e+01 1.515203172707246537e+01 3.727486296526434018e+01
1.530519259028793044e+01 1.549760369918505098e+01 3.780216890482875414e+01
1.370469689361038945e+01 1.690041626287754539e+01 3.944713771354026477e+01
1.170741048089760739e+01 1.846415516675574864e+01 3.960249386012133499e+01
1.076124203972053195e+01 1.921612659907346909e+01 3.963821358758811186e+01
1.117207762741037236e+01 1.890257910627543936e+01 3.960576156144363580e+01
1.511476643420025390e+01 7.381018679753168499e+00 3.175355752948377130e+01
1.536696928321742206e+01 7.816546407072481273e+00 3.216221539753044567e+01
1.631909578523564264e+01 1.351373113729975195e+01 3.623723846943690319e+01
1.616587316520575968e+01 1.403881014049813913e+01 3.668597952162028264e+01
9.080933395426312060e+00 2.063862573683447366e+01 3.900119840628225631e+01
1.039334734949812500e+01 1.950820562608195985e+01 3.965251228972615394e+01
9.562058701465202759e+00 1.997597697848346954e+01 3.974162098592115910e+01
1.221252558352446371e+01 1.792326551490214470e+01 3.976562545493966638e+01
1.499193593022049953e+01 1.584318077690210380e+01 3.832950529462274147e+01
1.459750639161495123e+01 1.615308008211940560e+01 3.889387332450698409e+01
1.320625958681039513e+01 1.733830748312522729e+01 3.943599125233756553e+01
1.420261669881550581e+01 1.646297834679990046e+01 3.945826395996652991e+01
1.131975145843020591e+01 1.849856305742142837e+01 3.997466976099501323e+01
1.171725107496534690e+01 1.807062213522317506e+01 4.010604428383997089e+01
1.483882106310984028e+01 6.796680749080291406e+00 3.127913967833029929e+01
1.571879019530314814e+01 8.500271748522921555e+00 3.275371565290796383e+01
1.565059791217768215e+01 7.943716008091791458e+00 3.253133051588962132e+01
1.612612347477384844e+01 9.041638765437999936e+00 3.337112440506098920e+01
1.646761030433561146e+01 1.000295236698823587e+01 3.416990649954165349e+01
1.667809394786044663e+01 1.097793532009452200e+01 3.495153992100421902e+01
1.603553783909969965e+01 1.467913766819244437e+01 3.732347567740525562e+01
1.574286515778247519e+01 1.499911837715515084e+01 3.796560411956114223e+01
9.058883959409349984e+00 2.035349020692453337e+01 3.954507034780954200e+01
9.868037483500719631e+00 1.960068372137720161e+01 3.999978166906176824e+01
1.267470093002607356e+01 1.748226238538441990e+01 3.994554747059347477e+01
1.317289432245780034e+01 1.704465169424460669e+01 3.995659321447547541e+01
1.080730581474756313e+01 1.879894565915533278e+01 4.013364227802554751e+01
1.122182533181621089e+01 1.821802728596109944e+01 4.044656713275190896e+01
1.605007141747692501e+01 8.612410298289780997e+00 3.317201625458795178e+01
1.464830051247925269e+01 6.093079485086872360e+00 3.093509874520126246e+01
1.558149807762882588e+01 7.386236466353681251e+00 3.230858851683521493e+01
1.650740245992562194e+01 9.258216553938801496e+00 3.396695001615704257e+01
1.677359253540642570e+01 1.019794809167312621e+01 3.465519819626233300e+01
1.673780739377567883e+01 1.167114599428508015e+01 3.539758035694367777e+01
1.672581265684142338e+01 1.244857469078218948e+01 3.605277487382603852e+01
9.483266784614365008e+00 1.972330355584023565e+01 4.017552795447634395e+01
1.017401543115464513e+01 1.922540457481531817e+01 4.025794129896538465e+01
1.217627776174003351e+01 1.760530215731415282e+01 4.032954743702597256e+01
1.509529020251570408e+01 1.571572639849351027e+01 3.890534353981238525e+01
1.541913272816446323e+01 1.535748657106364057e+01 3.843531757432474194e+01
1.404440765891547649e+01 1.627902426562150140e+01 3.997604549961405951e+01
1.352954593958098961e+01 1.656986445553691922e+01 4.022521814891383229e+01
1.519657882675978122e+01 6.730426088875868018e+00 3.168701465750957524e+01
1.706141020229502914e+01 1.112981363033662419e+01 3.551201469942028410e+01
1.678458940901648333e+01 1.204347656410882372e+01 3.580774971753882596e+01
1.667876071478723077e+01 1.309921860511698100e+01 3.652984752657972933e+01
1.659443032719324407e+01 1.362350664468424988e+01 3.682913264420143662e+01
1.645267598446698187e+01 1.420614005963872195e+01 3.737208537357196292e+01
9.036990133493379318e+00 2.006848214268554997e+01 4.008862402658228774e+01
9.625899614112089608e+00 1.938827991063334721e+01 4.052521149795814637e+01
1.470048975880077258e+01 1.602557731064595004e+01 3.946938399423905253e+01
1.264108681481409313e+01 1.718889699497637480e+01 4.046605736931582697e+01
1.159267923680449996e+01 1.772342666455236682e+01 4.082171422985980769e+01
1.039480808361849817e+01 1.878495419254907262e+01 4.059578909912001876e+01
1.072633546369277724e+01 1.836545297682155820e+01 4.078713640364638593e+01
1.551182317257679166e+01 6.828362945136057682e+00 3.208570945534147256e+01
1.510590917532963928e+01 6.255823148385721844e+00 3.146001586347366441e+01
1.617225012367551429e+01 8.129711741637754230e+00 3.319240977650532898e+01
1.639654059601548397e+01 8.470418494341572568e+00 3.354326420043926049e+01
1.610866085051310392e+01 7.547767530224955834e+00 3.296895052270291160e+01
1.688872821193848495e+01 9.474166219384571264e+00 3.456263041391074609e+01
1.707990397425673379e+01 1.039317234869757556e+01 3.514101211660033641e+01
1.586717697409609862e+01 1.484621451984877005e+01 3.865638550030735132e+01
1.620128371759393460e+01 1.447516415194396089e+01 3.824441546116953816e+01
8.533465511284397564e+00 2.044604437891714710e+01 3.989231250419295094e+01
8.919116434734284837e+00 1.966108980537230266e+01 4.077990006854349758e+01
1.388619687057792795e+01 1.609508606872409686e+01 4.049383446769736139e+01
1.306850628885874421e+01 1.673266830600708133e+01 4.060595631208218492e+01
8.511218336716039445e+00 2.016112086259665048e+01 4.043608799248082164e+01
1.111039782373156903e+01 1.796395927711361651e+01 4.099410390037595420e+01
9.954885802617372548e+00 1.894290553045881609e+01 4.086281048202244648e+01
1.602790998035616710e+01 6.862582753071915675e+00 3.269987756896739484e+01
1.712335781244284050e+01 1.216101963398617158e+01 3.652367541218845304e+01
1.720926174217488125e+01 1.163636403239460826e+01 3.622436590154956804e+01
1.738578381314421151e+01 1.058826020155392733e+01 3.562648397981388371e+01
1.703843458750102968e+01 1.268470743802700085e+01 3.682244775659363967e+01
1.653543550276847540e+01 1.410423206934761886e+01 3.783258967137824413e+01
1.553308939084855567e+01 1.521737642087231102e+01 3.906848816617177533e+01
1.519806558368496141e+01 1.558843353722324920e+01 3.948049027546563394e+01
1.432385303392467080e+01 1.592605765377810734e+01 4.015577296915037664e+01
1.476104753632176880e+01 1.575721101019251336e+01 3.981806328772739079e+01
1.214002979096916413e+01 1.728735791411685696e+01 4.089347155531635281e+01
1.344914145345228640e+01 1.626388316602671580e+01 4.083143249819705289e+01
1.023109684795286967e+01 1.851280615319323886e+01 4.112753363473788681e+01
9.327235881585266952e+00 1.916080451735302859e+01 4.112390153974970985e+01
1.544238518274833716e+01 6.271615130061546139e+00 3.186329953236548107e+01
1.495847690785624451e+01 5.529780802322661337e+00 3.115795794319826229e+01
1.685783772986086504e+01 8.808319375000705165e+00 3.429034623071222398e+01
1.708016465053108490e+01 9.902971819736437809e+00 3.497219722465158753e+01
1.729644402528338532e+01 1.111201018409254715e+01 3.592524367061222534e+01
1.695399945714590828e+01 1.320871958395765589e+01 3.712141916196306113e+01
1.686986055427858844e+01 1.373321406317582216e+01 3.742067898965954953e+01
1.467540921542559218e+01 1.546455103180361768e+01 4.052518667086209092e+01
1.260746421377150028e+01 1.689547591169495178e+01 4.098669644579337046e+01
1.115502535111098759e+01 1.763085723259783322e+01 4.148785664247180449e+01
1.068174409034281069e+01 1.797408392389058207e+01 4.148127573916397637e+01
1.640256976787584620e+01 1.432385890236575499e+01 3.886627064143242194e+01
9.735600887174497231e+00 1.866023787196970574e+01 4.146810819561985539e+01
1.577605379204959313e+01 6.421231229577498922e+00 3.229272261881596506e+01
1.537302381158167641e+01 5.714851898243801465e+00 3.164091638225828618e+01
1.666691552932017473e+01 7.899266897587784442e+00 3.371537195757711203e+01
1.648319032706223553e+01 7.095065174074558279e+00 3.329382674781398066e+01
1.681699417276633568e+01 8.293247915965876516e+00 3.405656667469002485e+01
1.736060742847919869e+01 1.004038525245522884e+01 3.540272318299228971e+01
1.749879033608797840e+01 1.230059885441080247e+01 3.718236580503037203e+01
1.755688822853100461e+01 1.189455485937358858e+01 3.693942698340764252e+01
1.566721838857250226e+01 1.511662979821942976e+01 3.948304452175234758e+01
1.663697820498101621e+01 1.404522773118173085e+01 3.835590614634431716e+01
1.537484319166929758e+01 1.516975048225346789e+01 4.003343332633532725e+01
1.301162522202893435e+01 1.643285843337851304e+01 4.116938742207489810e+01
1.399895741179612330e+01 1.583908805246551843e+01 4.082479907630529681e+01
8.479937333553003498e+00 1.945548875009404100e+01 4.119869107204888081e+01
1.162794058494209359e+01 1.728789768557831152e+01 4.149442837856424404e+01
1.020853366701509302e+01 1.831726078946408620e+01 4.147469197669974506e+01
1.082960247197746284e+01 1.728220550385426080e+01 4.189726288490980011e+01
1.046495558619972499e+01 1.774151688395911819e+01 4.175421835489661504e+01
1.573998108581415956e+01 5.922849818849015513e+00 3.212424243402373492e+01
1.730984626680050908e+01 8.945376534262729606e+00 3.495534997630733898e+01
1.733522791819736497e+01 9.492721541204810265e+00 3.517904767786723141e+01
1.759899610351862265e+01 1.124024630766731647e+01 3.647125871906689554e+01
1.768659074730923564e+01 1.071621021195387158e+01 3.617236446931684668e+01
1.721485805478123510e+01 1.320650191578974386e+01 3.749862011600108502e+01
1.210092619370596978e+01 1.694488897704019692e+01 4.150099676161393347e+01
1.362577286534960130e+01 1.584480681434828142e+01 4.138545763038688818e+01
8.605101393268137500e+00 1.905356899101492019e+01 4.156774386058351922e+01
1.709350517294267746e+01 1.356492177501077023e+01 3.811141579273773772e+01
1.613554231209311851e+01 1.464457549602330921e+01 3.948559687281013453e+01
9.170184348311297029e+00 1.885696118649073583e+01 4.151794136945127178e+01
1.010012943498754723e+01 1.820106117110350752e+01 4.161110449992939664e+01
9.454768993320108450e+00 1.816479109332793840e+01 4.189404866069392597e+01
9.175454625764672301e+00 1.866709945730678655e+01 4.168512789777292937e+01
8.614554100133011261e+00 1.867397739155552827e+01 4.190243780125916118e+01
8.614489138987183381e+00 1.787595080738455167e+01 4.240980892221731580e+01
1.119469695606741411e+01 1.682233723164394235e+01 4.204048405066198768e+01
1.169620862403725425e+01 1.681020850114159160e+01 4.179853748508108424e+01
9.911989752159252376e+00 1.775886123504785274e+01 4.196609156601674329e+01
1.027419270804537099e+01 1.696324508718093327e+01 4.232247830712898917e+01
1.082414776698571401e+01 1.661005145932199056e+01 4.232385368160553440e+01
1.647432075504458027e+01 6.338889858262790611e+00 3.309116737261151542e+01
1.610697666809252127e+01 6.130808907173806332e+00 3.260753400241306821e+01
1.728445166780264586e+01 8.398054415753179569e+00 3.473152845313956050e+01
1.766523320352106197e+01 1.000814323770513248e+01 3.576692392545756150e+01
1.755991024980242443e+01 1.267989346260213424e+01 3.757654108067880117e+01
1.792443486752351234e+01 1.143333379305393471e+01 3.710182469404408323e+01
1.511242732103116104e+01 1.505653828098072466e+01 4.065837704578952128e+01
1.415197549960009482e+01 1.546606999283459949e+01 4.132437783999420589e+01
1.257382652678976953e+01 1.660194418529646398e+01 4.150755935805531749e+01
1.224881129939536173e+01 1.625267041046626915e+01 4.191723727760116702e+01
1.296864834257309340e+01 1.616000687407814240e+01 4.159276926564577082e+01
1.309995763531347279e+01 1.622326239119425750e+01 4.144649110371370426e+01
1.685437456514170407e+01 1.386726330740790836e+01 3.885243384236272846e+01
8.040759355954932630e+00 1.924991856211302732e+01 4.161748085088839133e+01
8.054351762651883462e+00 1.868084941738846183e+01 4.211947768903259970e+01
9.174129581955389412e+00 1.766972752993574858e+01 4.231972660726216162e+01
7.493632021722001824e+00 1.868773121487157596e+01 4.233671768090589893e+01
8.054235199753746244e+00 1.808239773640790915e+01 4.249999169521984754e+01
9.723847287808329298e+00 1.731668802538484897e+01 4.232110178504136400e+01
1.037366174939910302e+01 1.622213985670947167e+01 4.256530910227441922e+01
1.560402224779537761e+01 5.164167539361206316e+00 3.184211423647085226e+01
1.696298206548864584e+01 7.874901445294429259e+00 3.411150328052472247e+01
1.693736290158577162e+01 7.327935271493084990e+00 3.388752110201256329e+01
9.699270636891142772e+00 1.657292147744696464e+01 4.259311510098473974e+01
1.790546267279601267e+01 1.215274621881903983e+01 3.765452905909362613e+01
1.577514707104174896e+01 1.479165414964047187e+01 3.998043401991866830e+01
1.467768151791176834e+01 1.508769153914868077e+01 4.126335124086769213e+01
1.287096570288680830e+01 1.574791132084332546e+01 4.192256389612348499e+01
1.336339729010558308e+01 1.571815078896376860e+01 4.167796543668062270e+01
1.660387644217088265e+01 1.417256991320570236e+01 3.948814272974941986e+01
7.274243162041067023e+00 1.910511015413047886e+01 4.205194696670182708e+01
7.494119181963596610e+00 1.828879482298997416e+01 4.259015175002278397e+01
8.580171880660849126e+00 1.771835497131507609e+01 4.247485919525086473e+01
1.155940913180311291e+01 1.636295792533420368e+01 4.218355583103399908e+01
1.137425131068745010e+01 1.625676774437461347e+01 4.232522671066687536e+01
9.024723579519818628e+00 1.672991036385413821e+01 4.271699523032845036e+01
9.436594522771912352e+00 1.712153913844750974e+01 4.245636662507621395e+01
1.684176979659752149e+01 6.547318695624191776e+00 3.357567108117613230e+01
1.725904814313440028e+01 7.850533411716170029e+00 3.450763435386797795e+01
1.769158656111325811e+01 9.126781298231593453e+00 3.548979060735175040e+01
1.755923502962837901e+01 8.608227940007880719e+00 3.514431997461940682e+01
9.961619285383086719e+00 1.602500094953297705e+01 4.272969095009254659e+01
9.687076312080840523e+00 1.576408267125317586e+01 4.290337607001729481e+01
9.150208850528956717e+00 1.605106077792120445e+01 4.294048495852648273e+01
1.375864251204255595e+01 1.527573835309979522e+01 4.176327078267595994e+01
1.803218560715090391e+01 1.010299247057031735e+01 3.640030595483133169e+01
1.798881548383063134e+01 1.084413102376054638e+01 3.671814677620550071e+01
1.739114041022680368e+01 1.309443128121709954e+01 3.811950782390977821e+01
1.555195149232308260e+01 1.475031038739777856e+01 4.058741796273730529e+01
1.242748423928374280e+01 1.557783596724806507e+01 4.227533051512574502e+01
1.731719752933711476e+01 1.339664694495147046e+01 3.880221325015722300e+01
1.707245790541238861e+01 1.370038741450251507e+01 3.949068968236108645e+01
8.628711961195961067e+00 1.741745847222512467e+01 4.256378476246685238e+01
7.985376853982963041e+00 1.776705039018963816e+01 4.263021036133694963e+01
6.933628072817135113e+00 1.849533048824097037e+01 4.268037221845067108e+01
6.933583021443409322e+00 1.869460768553787489e+01 4.255369741580367560e+01
1.088680661629337010e+01 1.610256546608923856e+01 4.249137513988281967e+01
1.608444106636400051e+01 5.402885067415152953e+00 3.246980304466518419e+01
1.676384491128113297e+01 5.976621470694354343e+00 3.339286402096923467e+01
1.651539904849414597e+01 5.547976638570219166e+00 3.302233321593342197e+01
1.757602880216667529e+01 8.092325654439484595e+00 3.498357383655555708e+01
1.022396775461477425e+01 1.547709038415661098e+01 4.286626552234119458e+01
1.079033821472257948e+01 1.561919919020089509e+01 4.268647298141105750e+01
1.192404051673226739e+01 1.590368362148439552e+01 4.232659894411531099e+01
9.605628192092350304e+00 1.536465522250113303e+01 4.300773057042761849e+01
8.612850797589189256e+00 1.633830371379662694e+01 4.297762698743817111e+01
8.506283036767378292e+00 1.688368943786948151e+01 4.279963873840888056e+01
1.343434262240569588e+01 1.492614951927538769e+01 4.217279617806826053e+01
1.415381629889450288e+01 1.483340416538272954e+01 4.184856297807111503e+01
1.825073935650108936e+01 1.162629716620130083e+01 3.773240924672101215e+01
1.829214645712066201e+01 1.097211339012285336e+01 3.726421485756927154e+01
1.770023633462412249e+01 1.270783472969232086e+01 3.850483108079788508e+01
1.615975506303822939e+01 1.434982877016966007e+01 4.010727740296850641e+01
1.520346550315713507e+01 1.470925375635729537e+01 4.120231404986358825e+01
1.293111591753937795e+01 1.525186087605480445e+01 4.222404436617602386e+01
8.083537114182210104e+00 1.716531664522934975e+01 4.280773889566432189e+01
7.391467840141367596e+00 1.781567518098861314e+01 4.278532914402105547e+01
7.544375274402648657e+00 1.736590469468316655e+01 4.289502387885898571e+01
6.798018962507602403e+00 1.786426384003804202e+01 4.294032690425849097e+01
7.055531597070161531e+00 1.717524113456478929e+01 4.310165298991916671e+01
1.723366009474247562e+01 7.303270721879116856e+00 3.428386176330579360e+01
1.720825507812499922e+01 6.755622154852515493e+00 3.405994830950151453e+01
1.762645998117247004e+01 7.536616068454142336e+00 3.485031483580012690e+01
1.786570122393346338e+01 8.427782049904930517e+00 3.545879452158924749e+01
1.135717749213966776e+01 1.576143256578655816e+01 4.250653723762982139e+01
1.072818357236813114e+01 1.519339215335448046e+01 4.280530628977957974e+01
8.986575066253049471e+00 1.525210269314710487e+01 4.314936137767112712e+01
8.090840193579881046e+00 1.573093198963531592e+01 4.321127944789479614e+01
1.794412599555121446e+01 9.428731253091838127e+00 3.590718144059707129e+01
1.797874549485447204e+01 1.216525934838940159e+01 3.813239208961395121e+01
1.832207292466509685e+01 1.040434757454279868e+01 3.701732322839360023e+01
8.367515509610436553e+00 1.513955702049620022e+01 4.329099682902517543e+01
7.853278396621685253e+00 1.536980322090005657e+01 4.335218613513179520e+01
1.572902626393803516e+01 1.433097411533296217e+01 4.114129999067566246e+01
1.618386899013532343e+01 1.405511042255575660e+01 4.072896912151811932e+01
1.487621320855073570e+01 1.455017420051028409e+01 4.156809020434526758e+01
1.225550460229211502e+01 1.537152048315590847e+01 4.237002383592574972e+01
1.174395323788399814e+01 1.514060040721265032e+01 4.255718188667360380e+01
1.754098968025122574e+01 1.322834363757564979e+01 3.949323085904288888e+01
1.663669728294753014e+01 1.377920640676208386e+01 4.031658550345733261e+01
1.708871528592673883e+01 1.350380271078462791e+01 3.990495021496560923e+01
7.537841050907159612e+00 1.691294607572406861e+01 4.305193099635083342e+01
8.075392973833286803e+00 1.662559950382745200e+01 4.301477585782742352e+01
6.573727245685734744e+00 1.743726139234271599e+01 4.315132229694219035e+01
1.123240090896102927e+01 1.490969122421283721e+01 4.274434668340209242e+01
1.173671541085653836e+01 1.462593457650018181e+01 4.268337490826482394e+01
1.258699071434361727e+01 1.483932453482661629e+01 4.241345225192384305e+01
1.152203936808411733e+01 1.416356124392259908e+01 4.279227220728854064e+01
1.094603846081386322e+01 1.429346963579862262e+01 4.288953247053022011e+01
1.058501198276723088e+01 1.488525712795700073e+01 4.287790155766364109e+01
8.955568058937938503e+00 1.485184807147574126e+01 4.321301913349442003e+01
8.654762114027883868e+00 1.468272665525263498e+01 4.334304097972533754e+01
7.814420160632941759e+00 1.632176548452035902e+01 4.313163068932097133e+01
7.320210115755512170e+00 1.607576037478290232e+01 4.330302500423439938e+01
6.952543625913372161e+00 1.701231264577771540e+01 4.312343500521669881e+01
6.957877738998641703e+00 1.670502159174579759e+01 4.323360358408262982e+01
6.825995475153116665e+00 1.582976762726299036e+01 4.347442138327883043e+01
7.339488672812378489e+00 1.559984976689294278e+01 4.341332192461198503e+01
9.543153856463836959e+00 1.456436724880188471e+01 4.313510381136133987e+01
1.013106835100971637e+01 1.427672432027445737e+01 4.305714565933180182e+01
8.941895603464207198e+00 1.422608112253141321e+01 4.339505406959590772e+01
9.228803351669641941e+00 1.376979537667094888e+01 4.344701565167493840e+01
9.921808911692094668e+00 1.374691712711533143e+01 4.326503647516128837e+01
8.698569644255034206e+00 1.398408275364047704e+01 4.350881142533987145e+01
9.787444333194148527e+00 1.355217978898607889e+01 4.341318201831669654e+01
1.393758589784610891e+01 1.460042677961529378e+01 4.212154435794187890e+01
1.822278572282905174e+01 8.849803733307064491e+00 3.604731324123173408e+01
1.859608715508674592e+01 1.110008269541089376e+01 3.781024738687364106e+01
1.837247834072218211e+01 9.873239035027889798e+00 3.682055838836528494e+01
7.770788831947871955e+00 1.504008454454121235e+01 4.344603375653932886e+01
8.168457069554497352e+00 1.419832114000156409e+01 4.357059535540983575e+01
1.454896240024315546e+01 1.439110056161610984e+01 4.193384973322469023e+01
1.444058894587542063e+01 1.427485871398353545e+01 4.207031493348730322e+01
1.775142248555840041e+01 1.280291059407913146e+01 3.915678202233629435e+01
1.674205157455039839e+01 1.346634420666857856e+01 4.108010419668159585e+01
1.224108024611537893e+01 1.434215021733071715e+01 4.262239634421423062e+01
1.291867255849994223e+01 1.430682379874105514e+01 4.245690522795611344e+01
7.174312965549532350e+00 1.494067119812355138e+01 4.360100064721006419e+01
7.638338775645189038e+00 1.441256261103693070e+01 4.363238198973815685e+01
6.378269571899250145e+00 1.649723708130893485e+01 4.341516701847578474e+01
6.367905862051267185e+00 1.711157003398937704e+01 4.319485678102941506e+01
5.782868758255507835e+00 1.721089590195535735e+01 4.326632659561257555e+01
6.312512660344361315e+00 1.605967957893491160e+01 4.353551980206317751e+01
5.799025585356788248e+00 1.628959416707859731e+01 4.359661848533352924e+01
6.318109961913568995e+00 1.532402816845669236e+01 4.370289569501321836e+01
1.130735624442649367e+01 1.370121635589954501e+01 4.290116881090467871e+01
1.071933876211574521e+01 1.398890926173304372e+01 4.297914010311181698e+01
1.195490244608130759e+01 1.372554622083289289e+01 4.276759430133365925e+01
8.652935063795068160e+00 1.381695571801447997e+01 4.355744204353267435e+01
9.553245727096184581e+00 1.325199783329210845e+01 4.370032873341158108e+01
8.915501844627234718e+00 1.336975461106134233e+01 4.383005239115703944e+01
1.061438850175738935e+01 1.372406583228631050e+01 4.308315877819994455e+01
1.345072660625701744e+01 1.436666980676128169e+01 4.230449686923414276e+01
1.831560258062222246e+01 9.412380943788491550e+00 3.648823164371101768e+01
1.838462243241050231e+01 1.152540315316419495e+01 3.814655892273682980e+01
1.862535449516196451e+01 1.053253577091002313e+01 3.756345383501477642e+01
1.796206851287294981e+01 1.237741776503103885e+01 3.882030231865327607e+01
1.533607591140814108e+01 1.413992324732597083e+01 4.158054567232292698e+01
1.623611393295094629e+01 1.389859975950751902e+01 4.111069946459893742e+01
1.494375400730186954e+01 1.394918432280223008e+01 4.201906692480824290e+01
1.729884302594632217e+01 1.313300438244651680e+01 4.055242657429117514e+01
1.274562390702891790e+01 1.405826336524161135e+01 4.256139573272455578e+01
1.260248823999888579e+01 1.374988320913938722e+01 4.263401343341313776e+01
8.077077055869841260e+00 1.386412715416233610e+01 4.366785235930471742e+01
7.500359734809324053e+00 1.391137771618176089e+01 4.377841432104465014e+01
7.108078860109167785e+00 1.462686196234697533e+01 4.369418714463211728e+01
6.058580628507493238e+00 1.580679571850536114e+01 4.364976524525707902e+01
6.577631223190429033e+00 1.484124012850304375e+01 4.375601562126318100e+01
6.923502595707184959e+00 1.395864821008396817e+01 4.388898882279164582e+01
6.750653733666944767e+00 1.439992624848135350e+01 4.382252853603377218e+01
5.996712335186526133e+00 1.507679092840391810e+01 4.380510872200906647e+01
1.034558245687207112e+01 1.333476028215259035e+01 4.337938423065691751e+01
1.190714644907232689e+01 1.340320544018627835e+01 4.285909019119858243e+01
1.146336481204039970e+01 1.289932847868563215e+01 4.331171892334502616e+01
1.090409769868847079e+01 1.311719187817754495e+01 4.334557035304608519e+01
1.325040712637503937e+01 1.377424230630473900e+01 4.250036529096112048e+01
1.817326653662031433e+01 1.195127361067482497e+01 3.848331678612552054e+01
1.865532960065237944e+01 9.964567879703142950e+00 3.731649192771821788e+01
1.847355133313324771e+01 1.163121926203999124e+01 3.871013642773937846e+01
1.613886813207582449e+01 1.378551463762431872e+01 4.133200047695348189e+01
1.574143794589320500e+01 1.375973193590031229e+01 4.163037241696083157e+01
1.381480450369144464e+01 1.383254680704469486e+01 4.233994599446241835e+01
1.778009023490353258e+01 1.287534115320714712e+01 3.999179971462204009e+01
1.789752850034664888e+01 1.275967297759908980e+01 3.954482719635691268e+01
5.283883488986995225e+00 1.612119201025611304e+01 4.371516098206287637e+01
6.362471861633740566e+00 1.413574438543234635e+01 4.393139467335384296e+01
5.944656615788479925e+00 1.478334915737840660e+01 4.385689343129207884e+01
1.202375811776738246e+01 1.280187357467357145e+01 4.316710003839780541e+01
1.250678698500304620e+01 1.310526765116047621e+01 4.281702213437538518e+01
1.018979462430033678e+01 1.313446694711037921e+01 4.357083503212385267e+01
1.082610563250810642e+01 1.301698196159595966e+01 4.344137939590444830e+01
9.492373835704063012e+00 1.323076351035885345e+01 4.378267985653782546e+01
8.251664032233756885e+00 1.356600689814126959e+01 4.384967066205208397e+01
1.868631258233571657e+01 9.396029993084034970e+00 3.706930233507129913e+01
1.887626706107970875e+01 1.056324328031625548e+01 3.792297608763574601e+01
1.883897335322609123e+01 1.102793376614032717e+01 3.845632894207432884e+01
1.836207740100125818e+01 1.193097830863817599e+01 3.907319004863525436e+01
1.437958776420167517e+01 1.389089484443483968e+01 4.217941826773379432e+01
1.373807545453267309e+01 1.347740507061547177e+01 4.247018119336073738e+01
1.470053091601792516e+01 1.337158908960342352e+01 4.226071067391065128e+01
1.422624570882743988e+01 1.318026385163667946e+01 4.243996438322776754e+01
1.724755413638064994e+01 1.303393203034226566e+01 4.104949566890116586e+01
7.587786190381782703e+00 1.376226853375308323e+01 4.386931295296795241e+01
5.415338865036899207e+00 1.531252860951598649e+01 4.385423880583559253e+01
4.833707696654022890e+00 1.554837310881338652e+01 4.390338937954787468e+01
5.311602944803987647e+00 1.472547623227116631e+01 4.395777199836671656e+01
5.801714346157035962e+00 1.431275765723718152e+01 4.397378437933231510e+01
1.064399640434506722e+01 1.295328660033676016e+01 4.368811398660303524e+01
1.006831979809319577e+01 1.309199344353886652e+01 4.373538547635195073e+01
1.347836883319821588e+01 1.314161100492848000e+01 4.261665124898966184e+01
1.310621285434835492e+01 1.280743313801925254e+01 4.277497008558494684e+01
9.436477548903107859e+00 1.323250231481725159e+01 4.388077338571469710e+01
8.286853688085132674e+00 1.341789121998528600e+01 4.385365317880715708e+01
9.117870003996053185e+00 1.315985273287780899e+01 4.396282123264049346e+01
8.438510447886621080e+00 1.326051550027354686e+01 4.395322196561149752e+01
4.841859296949019509e+00 1.262549509316468566e+01 4.335104227254756637e+01
4.208838666498572856e+00 1.244681391070787235e+01 4.312832985735801827e+01
4.702031432475038741e+00 1.193973490677632654e+01 4.340260623552009633e+01
5.088303618388411387e+00 1.237186107467059415e+01 4.348806015012221593e+01
5.474617084392816579e+00 1.280421638303191223e+01 4.357391905143134636e+01
4.974163651564051492e+00 1.296160931820747209e+01 4.349087819938210941e+01
4.473602001992059485e+00 1.311901946713708433e+01 4.340783619777995739e+01
4.169025379875791693e+00 1.286626195392518568e+01 4.324857047218344519e+01
4.580079083182067912e+00 1.334794361076021119e+01 4.347453241466088514e+01
5.187029686213904256e+00 1.341938575927186150e+01 4.362437831275040878e+01
5.937554338802756959e+00 1.318299015985363987e+01 4.374894739816684108e+01
6.101268991579818390e+00 1.289217371158422942e+01 4.370198184776324979e+01
5.961379775205727150e+00 1.266061770875506731e+01 4.370738220432737364e+01
6.728984485143519656e+00 1.298032547555710181e+01 4.383042432682910317e+01
6.400666848577551526e+00 1.356244595298014666e+01 4.392451291415767400e+01
6.448289270240245230e+00 1.251693980396641415e+01 4.384092978366108895e+01
1.825403306259964253e+01 1.229116646734291329e+01 3.959640028947247714e+01
1.542848723638163477e+01 1.358936247174371204e+01 4.199605440620299390e+01
1.775246084535001856e+01 1.260210455081426062e+01 4.101892291827104486e+01
1.654860775083568925e+01 1.324018301914446027e+01 4.152265827442388257e+01
7.658266717874837148e+00 1.346604483058264812e+01 4.387725963352258418e+01
4.677778590524090951e+00 1.466755832458198405e+01 4.405875994019881148e+01
5.240131583425678308e+00 1.449003445384158262e+01 4.401624094234444584e+01
6.352329859372631837e+00 1.396770249390927709e+01 4.390064844802784449e+01
7.029359748238807271e+00 1.351424290835216979e+01 4.390088640165871681e+01
5.780974141722555082e+00 1.397677804220356457e+01 4.391232225659459942e+01
5.813267125700997795e+00 1.370660921905773577e+01 4.392821964357926134e+01
1.258405737509528599e+01 1.270443747985823357e+01 4.302250068728093879e+01
1.195978642211544063e+01 1.275097442160391559e+01 4.326414822784879988e+01
1.122048442345897357e+01 1.281438227933576357e+01 4.364077772562531976e+01
1.047703481067294717e+01 1.295844375969315720e+01 4.398207305213691853e+01
1.370622413185963495e+01 1.250930316124242481e+01 4.273287882811661831e+01
1.314536867081682203e+01 1.260682890129421452e+01 4.287763386086952266e+01
1.436685981920334676e+01 1.243608517026022575e+01 4.260514264462474898e+01
7.759314219496855181e+00 1.336115018539260468e+01 4.394363953322514504e+01
7.982535637529149852e+00 1.315649720264317502e+01 4.408738537036462901e+01
8.606455489299335682e+00 1.310692864677926117e+01 4.406103162580262733e+01
9.956741221589155089e+00 1.309546246000674508e+01 4.393142156936325904e+01
4.970299684151541442e+00 1.172387299207215250e+01 4.348138778450341135e+01
5.793737074228916484e+00 1.349086928424463849e+01 4.377433514128414771e+01
5.225833905904649690e+00 1.385078093871226201e+01 4.393194756642333942e+01
5.625615261507338261e+00 1.194027383220484673e+01 4.364559503127397733e+01
4.638298226340266339e+00 1.399498349677738496e+01 4.393569816077602752e+01
6.927491853725988413e+00 1.342722949597586357e+01 4.397874846144616612e+01
6.935510557651311636e+00 1.237313885952217341e+01 4.397460214098049391e+01
7.355592800012496824e+00 1.306836489988210737e+01 4.395879610144550043e+01
6.280545535987195116e+00 1.215665164297706902e+01 4.380997071728018710e+01
1.903534925031834391e+01 9.535815279655199816e+00 3.762033407386150685e+01
1.872345224575444433e+01 1.145566509393378674e+01 3.912342000242225026e+01
1.911933660013038505e+01 1.049076251530432913e+01 3.856948720056706037e+01
1.591299281607715876e+01 1.322970434482052760e+01 4.197305135645487439e+01
1.519236461588033649e+01 1.339602449147313656e+01 4.212915206709184446e+01
1.471426663916735755e+01 1.288321231858144955e+01 4.240975566803092534e+01
1.801902544364785896e+01 1.252259937081650243e+01 4.049003624709371962e+01
4.465123917343371218e+00 1.522609534224893046e+01 4.400563494934708331e+01
5.209578284650905111e+00 1.398587290406296546e+01 4.392400678701321226e+01
6.935305419455590759e+00 1.348323664671720223e+01 4.393203259223412971e+01
1.207672638557388289e+01 1.271602661413177060e+01 4.325294409950374330e+01
1.195872534769048023e+01 1.273211675043284430e+01 4.337411159341184685e+01
1.109518563761943177e+01 1.281825855021721239e+01 4.386125698162009456e+01
1.269019590593210012e+01 1.253269033605470817e+01 4.319415479074550035e+01
1.418479806417416711e+01 1.227292300813381942e+01 4.280822177438939491e+01
1.330311536933593075e+01 1.234951514283930862e+01 4.313542136830145779e+01
8.586419020441478978e+00 1.301301042192000246e+01 4.419150552592807912e+01
8.190692695861034878e+00 1.259105847950920420e+01 4.415683411668418756e+01
8.817852925296582711e+00 1.270000279097145501e+01 4.424813129295913683e+01
8.883598719592272985e+00 1.242966648035771193e+01 4.435902018254530788e+01
8.616671789882177634e+00 1.307497484679179856e+01 4.411387915157145301e+01
9.230308638620641659e+00 1.305738644820494443e+01 4.403469147485561308e+01
7.080118861687427767e+00 1.346178137040058864e+01 4.393407085440014725e+01
9.797411722854343807e+00 1.305915653992844128e+01 4.397243970708576910e+01
9.943077883115291726e+00 1.303757050489761582e+01 4.397450372727431045e+01
9.853903785562497575e+00 1.300788735664417750e+01 4.400836775897271025e+01
7.459094524424244810e+00 1.276474023733551988e+01 4.403075387318508405e+01
7.454960804852561296e+00 1.329186546396724466e+01 4.403305767509111490e+01
7.563446822286486793e+00 1.248213836217326289e+01 4.406568418410080312e+01
1.908222366592694286e+01 1.095572393706340542e+01 3.910319763786764469e+01
1.915691611082203138e+01 1.002581880850222262e+01 3.803582235689977153e+01
1.861099288647620753e+01 1.182220473177545017e+01 3.964801831852538783e+01
1.809868571476427945e+01 1.246013899400565705e+01 3.999488927058882126e+01
1.695782499211813388e+01 1.269536044757720994e+01 4.171313979806122774e+01
1.639779865195462705e+01 1.286981718920406159e+01 4.195003270450688149e+01
1.179694985650980321e+01 1.267548129500796428e+01 4.359344483191185304e+01
1.171341937409703604e+01 1.267806039827690157e+01 4.374041274743148477e+01
1.245408440423388718e+01 1.256492072623648681e+01 4.343650354139823833e+01
1.466339087807141617e+01 1.203653830799416724e+01 4.288356929270296547e+01
1.391598384165820512e+01 1.216635211024258112e+01 4.307669224427391441e+01
1.294908276325005936e+01 1.239786446220930216e+01 4.349884911553835565e+01
8.714272287371441550e+00 1.298263030836093357e+01 4.421355246566005803e+01
8.322366345678039679e+00 1.205073469017514043e+01 4.437907675484681391e+01
7.629385379258033950e+00 1.221185810306102937e+01 4.417692369764724702e+01
9.251170083728256444e+00 1.299340394659956921e+01 4.414040311840209085e+01
9.445016782252674048e+00 1.280898702419256807e+01 4.433958095269024113e+01
1.002941131837225086e+01 1.277365504885433722e+01 4.431630389812323045e+01
9.885607689909708284e+00 1.291183952206302088e+01 4.416693841439086299e+01
9.943850305835221448e+00 1.300074915687873300e+01 4.400457191311502925e+01
6.519076867084855564e+00 1.195515537425900732e+01 4.395735599473123756e+01
7.003764282239218986e+00 1.158480813599323334e+01 4.415117366611779204e+01
7.662589284327157912e+00 1.181756148884042723e+01 4.426490597956740913e+01
6.102222790398959873e+00 1.153695436475557479e+01 4.394061003892466033e+01
5.000758444152172189e+00 1.131372411669192779e+01 4.362093124114377929e+01
6.344949594411541938e+00 1.135215232173243116e+01 4.403773688340221071e+01
1.841416139549362541e+01 1.203331845594522242e+01 4.018685075703316301e+01
1.544089935139637149e+01 1.284303351005922700e+01 4.223920584746082341e+01
1.688252877374532801e+01 1.250998312387649669e+01 4.192701261020361159e+01
1.781231597454868876e+01 1.215972229113043745e+01 4.144623264197590373e+01
1.237332222399568415e+01 1.253660069341526118e+01 4.354612053038147934e+01
1.165828315616759348e+01 1.267108874453729328e+01 4.394166637056994063e+01
1.106776086421539773e+01 1.281474360176270189e+01 4.396186427848525113e+01
1.051916090515814162e+01 1.283038501564914746e+01 4.419345363060854481e+01
1.502832172238561803e+01 1.236277443126867936e+01 4.247724989968737219e+01
1.520214636955021170e+01 1.258624263891969619e+01 4.237955517092740365e+01
1.349728110845651408e+01 1.224837857701802513e+01 4.336400386933973294e+01
8.936345648183287693e+00 1.216680688552708389e+01 4.443856490617405086e+01
1.002766361620759206e+01 1.274067495205838796e+01 4.437244884960869484e+01
5.685790720784596353e+00 1.111947611332699104e+01 4.392455943718861988e+01
1.896807577392954514e+01 1.135325404726372867e+01 3.969962760184916561e+01
1.931667731808457589e+01 1.036517320145822829e+01 3.900113263084165283e+01
1.937559631916026248e+01 9.960899869234800974e+00 3.861822201752549688e+01
1.943780678269042284e+01 9.488294396678970344e+00 3.814868444034994610e+01
