1.012167769861436994e+01 -9.231003845811970976e+00 4.686330886133153228e+01
9.772471402877972224e+00 -1.103028680026476493e+01 4.362741819569603763e+01
1.001363794784459849e+01 -1.043577482073613183e+01 4.483444930218563940e+01
1.421900538988975526e+01 -1.240575882170544908e+01 3.479661240923409338e+01
1.489313978196293853e+01 -1.166324647041943585e+01 3.248391304965143433e+01
1.112954031116783327e+01 -1.243695392071859018e+01 3.901339197979724105e+01
1.034331438548937321e+01 -1.215501711140545460e+01 4.022189899530493307e+01
1.063965930827411199e+01 -1.229839402194460973e+01 3.959823956367634423e+01
1.178592026367414292e+01 -1.256317110815018090e+01 3.734023490755558328e+01
1.217561762265144232e+01 -1.258701751960580850e+01 3.688605857018114875e+01
1.079538290702723913e+01 -5.626108013166462918e+00 4.831558131735969397e+01
1.344783437499999934e+01 -1.455257812499999970e+00 4.879899629687500351e+01
1.398938941053164697e+01 -7.238382056516248220e-01 4.913601062006597431e+01
1.283386599727582578e+01 -2.142151106315703935e+00 4.887472403383736008e+01
1.509376534374999856e+01 2.107327187499998811e-01 4.918641200000000424e+01
1.008327878850549553e+01 -7.489572765340692939e+00 4.781327858917798324e+01
1.011161341247803946e+01 -6.505758851333727222e+00 4.809443126652065104e+01
9.891292728474420315e+00 -8.914594150853901056e+00 4.707267529824227381e+01
9.633942099296167072e+00 -1.085812651630671866e+01 4.398784665353788625e+01
1.549895555960075200e+01 -1.097860177501175727e+01 3.162354575951402325e+01
1.562953703250206594e+01 -1.061127495025513667e+01 3.116946024173079621e+01
1.596338573702568908e+01 -1.020947882096468717e+01 3.088591477584987999e+01
1.424161499152504540e+01 -1.193804054175943108e+01 3.263804204160913969e+01
1.386534934642170569e+01 -1.228503390189131395e+01 3.356862978543066589e+01
1.017510330279243114e+01 -1.197654059327784459e+01 4.091050274338060433e+01
9.510152663376917559e+00 -1.163960148093480207e+01 4.190245659393660560e+01
9.522431457123309073e+00 -1.141115647590617144e+01 4.254457916369344872e+01
1.083106764110480746e+01 -1.251471595697438843e+01 3.812928695094529274e+01
1.223614438960305684e+01 -1.260879404508681212e+01 3.580668160486673202e+01
1.624947698444959343e+01 -9.737047703999362369e+00 3.059275652925863298e+01
1.146014841345807689e+01 -4.604423827491825882e+00 4.857109459600253132e+01
1.241324850948367953e+01 -2.660453752049352527e+00 4.885168710988283181e+01
1.444898809691456698e+01 8.160512900781446977e-02 4.945086246768597249e+01
1.011880581602553342e+01 -7.954200842423289508e+00 4.768073761352747653e+01
9.849998677609152153e+00 -9.934151680889218738e+00 4.570238929390381344e+01
9.091075014803635668e+00 -1.101237789215152141e+01 4.364968588977889397e+01
9.212574118813728674e+00 -1.014394205296457407e+01 4.534420183532668602e+01
9.151767480913681752e+00 -1.057811153138420046e+01 4.449696571482964202e+01
1.274121469845450250e+01 -1.259508132362220856e+01 3.512550135615762770e+01
1.353241712967590971e+01 -1.238740786537456451e+01 3.370674293654944620e+01
1.454410594290239089e+01 -1.159297088277704013e+01 3.193194660579544220e+01
1.173107917155489588e+01 -1.262253148713063311e+01 3.648788481984387744e+01
9.665889108236632055e+00 -1.180881168957118810e+01 4.149702953627524238e+01
1.035961292253649546e+01 -1.242939067362148542e+01 3.898184663345642065e+01
9.832124191691040238e+00 -1.224143975290601283e+01 3.978746278837491701e+01
1.085426370116735484e+01 -5.141061408720009496e+00 4.848003273222720111e+01
1.009287648971161389e+01 -6.024444262439779152e+00 4.823650295220259920e+01
1.142214262790570878e+01 -3.980851560178402249e+00 4.874756885062207346e+01
1.326229054506208627e+01 -7.793612496310009519e-01 4.937816700830453698e+01
1.272094364893025364e+01 -1.510696863567594805e+00 4.904113440246662492e+01
1.227452750652997793e+01 -2.125269291581155962e+00 4.900224268534376648e+01
9.913047670289691027e+00 -8.411025380062444157e+00 4.739536865072665961e+01
9.257286231332342297e+00 -9.669868214747602053e+00 4.612543562306069589e+01
9.301981886607162409e+00 -9.195206209938934450e+00 4.690681959465753437e+01
9.038490368001584230e+00 -1.126819006851610894e+01 4.292884653235681469e+01
1.296594261726958308e+01 -1.253789067728548545e+01 3.460170375144638655e+01
1.492017875284380501e+01 -1.121284183615270535e+01 3.148238491178152643e+01
1.511679117707948095e+01 -1.062885713727562376e+01 3.075091297106218136e+01
1.365674391876362215e+01 -1.218562057283530109e+01 3.297403710299476387e+01
1.338182103708799175e+01 -1.246067691194018856e+01 3.410944669230679693e+01
1.464750134496321543e+01 -1.137374230510778439e+01 3.155165424726428824e+01
9.638052180916023559e+00 -1.199210446101540484e+01 4.075608381045515927e+01
1.101343369891063162e+01 -1.258616453971086635e+01 3.707967416280916950e+01
1.138039063507088500e+01 -3.356212500305348456e+00 4.892434502895371651e+01
1.081519450248102387e+01 -4.517163063980397020e+00 4.865659294126150769e+01
1.182731547358256918e+01 -2.740939672041830200e+00 4.896328109571610554e+01
1.380397487499999976e+01 -4.756971875000004513e-02 4.971540971875000281e+01
9.348169449303115996e+00 -7.897589538857326730e+00 4.773561502058573325e+01
9.369641926879495486e+00 -7.160126059225711437e+00 4.794654482918809890e+01
9.325093770249312186e+00 -8.547904257844452403e+00 4.732238407071046282e+01
1.374075146686773152e+01 -1.196247486931128456e+01 3.221149203938220040e+01
8.933372108905134112e+00 -1.177981094834717979e+01 4.148788894373542746e+01
8.985915326584031249e+00 -1.152404016854126034e+01 4.220814633996411658e+01
9.586803326468640307e+00 -1.242182696475650516e+01 3.895029561929760575e+01
1.029761695671870037e+01 -1.254981871152266493e+01 3.767146686782319875e+01
1.226307106275908332e+01 -1.262642960269345060e+01 3.473298483429145023e+01
1.021214208383072730e+01 -5.054117899200690545e+00 4.856541266494404852e+01
9.391007079815809178e+00 -6.422175000000000189e+00 4.815754475000000667e+01
1.077591578791147242e+01 -3.893263003732222671e+00 4.883315373046732333e+01
1.199405005053487372e+01 -1.428475005716202784e+00 4.923867434564169088e+01
1.259946046821004906e+01 -7.971014976341973535e-01 4.961401337724202421e+01
8.488447462897489970e+00 -1.110728259987651612e+01 4.318761031464471500e+01
8.355298918616439252e+00 -1.065198486294802294e+01 4.417293653747064042e+01
8.647007731314365842e+00 -1.026145540415587121e+01 4.498751439673855401e+01
1.464359427266340852e+01 -1.102973267358960996e+01 3.095901679025883979e+01
1.269014282089187695e+01 -1.253682803919984501e+01 3.405561172412650706e+01
1.299062017717884387e+01 -1.239034693612893889e+01 3.324997325757129829e+01
1.389207177818952843e+01 -1.178989809775195496e+01 3.185839274879111827e+01
1.162500316152541835e+01 -1.263915928197520344e+01 3.585288959233575667e+01
9.480487184202415207e+00 -5.694601407319265896e+00 4.840419733539975056e+01
1.314083711336167326e+01 -6.511977182027406386e-02 4.995151218020943418e+01
8.608715020344149593e+00 -9.690577060178000579e+00 4.595199408897722293e+01
8.642036981088477177e+00 -9.335182687455843009e+00 4.653784179976945978e+01
8.413983444795301025e+00 -1.094429986138406008e+01 4.362756644337348888e+01
8.477727032248171923e+00 -1.133848804129822518e+01 4.254847272800386548e+01
8.575385078226439362e+00 -1.004569803175433584e+01 4.536619061145844256e+01
1.344824283996972092e+01 -1.208626896806913997e+01 3.237972075919358872e+01
1.409775227579351231e+01 -1.135157732029744082e+01 3.109726208611382603e+01
1.115946565067961060e+01 -1.264252193263287261e+01 3.601464526402088495e+01
1.097230125568177783e+01 -1.263068339386673600e+01 3.644040866512862920e+01
8.891468661766149140e+00 -1.199117727664131650e+01 4.063170533658367134e+01
9.320460248192627972e+00 -1.232789022644741195e+01 3.935291399687264402e+01
8.157084925474478609e+00 -1.149325389060789959e+01 4.201613334010150425e+01
9.764169158963730055e+00 -1.258492458729342189e+01 3.721364722197321129e+01
9.559149764376378755e+00 -1.248202677944677674e+01 3.829511210448234237e+01
1.151892987969896609e+01 -1.265580314277490537e+01 3.521790530068160052e+01
1.017375657048354576e+01 -4.429794031553199396e+00 4.874205053947780186e+01
1.134263225642923345e+01 -2.685989131876644898e+00 4.909502849630666788e+01
1.081515739343744897e+01 -3.242790398340592795e+00 4.902097000659941983e+01
1.130486005745674838e+01 -2.015512095793016822e+00 4.926577650628660621e+01
1.187229257263972038e+01 -7.146707161801377772e-01 4.981176518389828090e+01
1.247783325000000154e+01 -8.266628124999997329e-02 5.018756696874999790e+01
8.601331003093488192e+00 -7.711278476645867741e+00 4.777707621137101057e+01
8.629583936832853297e+00 -6.727210422281650892e+00 4.805833447978399420e+01
8.686004427591276666e+00 -9.049936468319915051e+00 4.691938359139377468e+01
7.885249485429674188e+00 -1.120229089378967124e+01 4.272510329999319367e+01
1.323972613248340657e+01 -1.198691947981662942e+01 3.178480381250000164e+01
1.284448913124909097e+01 -1.219009658016279829e+01 3.228949116122281993e+01
8.849550191680553013e+00 -1.220268550109702055e+01 3.977524787698168041e+01
8.219032083153070545e+00 -1.170670827928047686e+01 4.145031753125596197e+01
1.021199577642110157e+01 -3.779696660885819348e+00 4.892980963063319422e+01
9.569695277746843587e+00 -4.967159387161933282e+00 4.865080555055690326e+01
8.725161105583689292e+00 -6.245836194196395574e+00 4.822356811739220461e+01
8.720491432100692109e+00 -8.078697143415064730e+00 4.754055251463809384e+01
8.610765108629188092e+00 -8.567624786603033726e+00 4.721705495051663348e+01
7.983040832550423183e+00 -9.474020331537930772e+00 4.616939904422349628e+01
7.737588304556981100e+00 -1.087629391959528569e+01 4.360547064274024365e+01
8.081032471278041029e+00 -1.038027833142099254e+01 4.463057367092124395e+01
7.938675025171617605e+00 -9.949161437779352468e+00 4.538816756199675240e+01
1.222385717549307138e+01 -1.250312097441383052e+01 3.339766112662055519e+01
1.244925122168653076e+01 -1.239328764938917615e+01 3.279356607551155633e+01
1.199846384153294210e+01 -1.261298142379851228e+01 3.400178024359682638e+01
1.021352681988268252e+01 -1.263883629757565963e+01 3.639293832589989108e+01
8.412527923708255528e+00 -1.182489184667714710e+01 4.104052327819593415e+01
8.808857801170466573e+00 -1.241426733031673990e+01 3.891876130899485986e+01
1.077767908908889716e+01 -2.572470237348467137e+00 4.919164351260787527e+01
9.608838884056002172e+00 -4.316008658812068077e+00 4.883881927367276177e+01
8.844724173907234643e+00 -5.275743549260411669e+00 4.855243486216335924e+01
1.126715627540128928e+01 -1.346252699448768242e+00 4.943621465617597721e+01
8.069921378174710114e+00 -8.904381638143176403e+00 4.693196577069613795e+01
7.515693784676232170e+00 -1.050031096827103205e+01 4.427404128660724325e+01
7.077768516829949341e+00 -1.101544300682110666e+01 4.299925392289208759e+01
7.281950602484711155e+00 -1.129732766740158745e+01 4.226252510156781028e+01
1.178492849359533601e+01 -1.265778156295558787e+01 3.434046930348904425e+01
1.058785054610958376e+01 -1.266251735298384773e+01 3.554140307193117820e+01
7.891626301281467804e+00 -1.186998191348387266e+01 4.059311132779644282e+01
7.504551924147486730e+00 -1.163359719326649788e+01 4.141273925410305878e+01
8.777265916593103512e+00 -1.249452812110883215e+01 3.804518660552253095e+01
1.025075365141402450e+01 -3.129457882639061772e+00 4.911751963145686517e+01
8.948424943434286405e+00 -4.747464582086337259e+00 4.871077925646854823e+01
1.182836164762967890e+01 4.094350974871047155e-02 5.038034183571313918e+01
1.074005392062033160e+01 -1.902482940994741023e+00 4.936225232729012902e+01
8.093238726857002518e+00 -8.258314551075109478e+00 4.734562924423396879e+01
8.059666778340432103e+00 -6.069597474175780327e+00 4.828955405779277754e+01
7.061521622150220168e+00 -1.080831835948603725e+01 4.358337805600838522e+01
6.950754157941331002e+00 -1.062027662435004949e+01 4.391776625065507744e+01
1.190719125639424369e+01 -1.239623595684366641e+01 3.233657817569751813e+01
1.181767097769142261e+01 -1.250532697829938833e+01 3.305525116858628820e+01
1.141285684455660920e+01 -1.267246271031117999e+01 3.458292324418935948e+01
9.230719058577156133e+00 -1.262003365864364746e+01 3.675582581335046939e+01
1.130678508116255543e+01 -1.268913715012605614e+01 3.394795336759153770e+01
8.100139414524637260e+00 -1.213994092767293331e+01 3.963531758821353890e+01
9.647719565218686455e+00 -3.666129707242828495e+00 4.902646577523004368e+01
1.021272363343608980e+01 -2.458953767964436210e+00 4.928825820524469492e+01
7.867883051897424096e+00 -7.034401592201096065e+00 4.795910403322593396e+01
1.122279503600040229e+01 -5.908089618651141128e-01 5.000473139844505965e+01
7.854405504020775197e+00 -7.524875675737838776e+00 4.781854150435469819e+01
7.323571849977529524e+00 -9.615425807337068420e+00 4.580070046781411008e+01
7.388893288946442262e+00 -9.186307553795382219e+00 4.637258829977135832e+01
7.196697063907150138e+00 -1.019974997720978394e+01 4.474913901921747339e+01
8.739096454360858246e+00 -1.257482423513392966e+01 3.717156885219847595e+01
9.454763468171414331e+00 -1.264699046047949338e+01 3.634546929774920443e+01
7.370703189628462049e+00 -1.191507683174808285e+01 4.014568858428726372e+01
7.080440290945055004e+00 -1.173776737158365968e+01 4.076042562474103903e+01
1.066150947101002089e+01 -1.268581652477500299e+01 3.450804307261006443e+01
8.267924666779990162e+00 -1.242013936907715710e+01 3.846547320775533763e+01
8.057756983564294373e+00 -1.232333438446535112e+01 3.888973508007671853e+01
8.987671426792712026e+00 -4.096970991325229683e+00 4.889860324590786433e+01
8.119718944060888788e+00 -5.584211527189803626e+00 4.845410122667377806e+01
8.318061225507184631e+00 -5.049642088808358409e+00 4.861515564938411416e+01
1.054269385030346484e+01 -1.133855898407701845e+00 4.958926295814835328e+01
7.574129090958813038e+00 -7.942132682881792860e+00 4.750159986425911995e+01
7.301783245126060251e+00 -9.853717009516563152e+00 4.541015325625161836e+01
6.385487198981054213e+00 -1.074032943245559402e+01 4.356128724318845968e+01
6.736483689861403334e+00 -1.116719868482832467e+01 4.245878887437167037e+01
6.678401407167957160e+00 -1.139241556807897027e+01 4.179976092504549001e+01
1.118609313485961998e+01 -1.261737842178387048e+01 3.331694657140067051e+01
7.543640177736387287e+00 -1.211419485929421924e+01 3.944914794117543266e+01
9.356108929355849924e+00 -1.266881707146654179e+01 3.568307755797405179e+01
1.001624013291480964e+01 -1.268251742293727879e+01 3.506816066485178141e+01
9.686403174031811503e+00 -3.015981462710442429e+00 4.921418991254068231e+01
1.021504698447514059e+01 -1.852364046509520579e+00 4.944610016639028061e+01
8.326557055274115271e+00 -4.527586301553670367e+00 4.877080304006445033e+01
1.117843340624999904e+01 1.646422812500000221e-01 5.057325378125000270e+01
7.465882464062058688e+00 -8.436132849527936628e+00 4.715068000754105526e+01
7.250308375031079500e+00 -6.617117930173844087e+00 4.810772134949441892e+01
7.454210114476164328e+00 -8.758524397974523978e+00 4.694385378699513467e+01
6.282193494176298465e+00 -1.098916925338997075e+01 4.282037522089932224e+01
6.478486470440867784e+00 -1.041273150540236259e+01 4.418506615996344067e+01
6.790177988960264699e+00 -1.156050301827588633e+01 4.137516620891975805e+01
6.750829218682971700e+00 -9.186232861130973149e+00 4.619422049687830167e+01
1.106539597135479625e+01 -1.254563819721287032e+01 3.268593090650717414e+01
8.697272739853509904e+00 -1.265514542021160516e+01 3.629800785448974665e+01
1.055543594840743715e+01 -1.270248794385020297e+01 3.387306638753893395e+01
1.078032516025566778e+01 -1.268182913586463023e+01 3.353297265140918171e+01
6.849461766882102509e+00 -1.196020481885434528e+01 3.969798881414203606e+01
6.674295669276960830e+00 -1.176755451956294252e+01 4.043448335679880046e+01
7.728085023538223020e+00 -1.242601485733124456e+01 3.801207131113396542e+01
9.026772232015837005e+00 -3.446475401329928800e+00 4.908642781150982870e+01
9.728123745558058033e+00 -2.317488281722204224e+00 4.939034546210397991e+01
7.393407363697301449e+00 -5.893159868419020064e+00 4.835561445552155391e+01
7.107233224491714019e+00 -7.338283702847163248e+00 4.786002026877095972e+01
1.049818631614651920e+01 -3.781138137895710960e-01 5.015800298751795339e+01
9.773292897263587520e+00 -1.619194642620644720e+00 4.956645049115481783e+01
6.664392113057534317e+00 -9.758202160565536687e+00 4.543216494957284368e+01
6.571421649628462980e+00 -1.008546643293684753e+01 4.480847032950122610e+01
6.837345139564504848e+00 -8.613898792352866707e+00 4.695536248738835639e+01
7.947966008530062965e+00 -1.254349941748989927e+01 3.692819203820826601e+01
7.307739675996871576e+00 -1.223239537566340296e+01 3.886070657559886143e+01
6.075616387576329380e+00 -1.148739498966375194e+01 4.133758548849149150e+01
9.444623665067508611e+00 -1.270252187104388675e+01 3.459492757993027823e+01
9.157665361918718716e+00 -2.788283748400201212e+00 4.928600202101836203e+01
8.366191056171336626e+00 -3.877134745991278830e+00 4.895861649239267166e+01
7.549419255362463943e+00 -5.100093414331794861e+00 4.859332491178446389e+01
9.197699931841874843e+00 -2.090000325413162052e+00 4.946209427428845373e+01
6.972304764973548785e+00 -7.976877402592197797e+00 4.740769433040173908e+01
5.772794097710251648e+00 -1.078234223792119018e+01 4.310271746465237896e+01
6.178803685657307199e+00 -1.123830213320086280e+01 4.207881540314395608e+01
7.187891495269824738e+00 -1.243189504437037840e+01 3.755838222075794874e+01
8.597348255234770420e+00 -1.267696763173633556e+01 3.563561372722094944e+01
7.705102630130570063e+00 -4.307872336182893669e+00 4.883078195551696155e+01
1.055551208476223479e+01 4.024502419221853700e-01 5.072862285939616100e+01
9.817478124999999167e+00 -9.212378125000000306e-01 4.974247071874999904e+01
9.242486996602568894e+00 -1.391628295658503101e+00 4.963821167757582487e+01
6.737867973448143033e+00 -5.981679408534113840e+00 4.825109852919852926e+01
5.728504552170247344e+00 -1.057691921059612561e+01 4.355271426501858656e+01
5.989992753221833333e+00 -1.015114244731013571e+01 4.442748259326215532e+01
5.716725623032425929e+00 -1.100987217114124839e+01 4.244683160405778466e+01
6.082891010554598132e+00 -9.823890642737495682e+00 4.505100024257976798e+01
6.148796762056656817e+00 -9.115417986513984161e+00 4.604657715657709360e+01
6.282824752084330555e+00 -8.678320078540947335e+00 4.665479731017007481e+01
1.025384149044010229e+01 -1.267452468050931991e+01 3.311797379672555763e+01
9.804087518048357097e+00 -1.271583934773422442e+01 3.379818720004296750e+01
7.918591438174516384e+00 -1.260376951065675932e+01 3.627280527683110023e+01
5.986037074439042982e+00 -1.167512468411073456e+01 4.049218048706795514e+01
6.328381319781699155e+00 -1.200532155040002991e+01 3.925043527225017925e+01
8.498691263531407358e+00 -1.269880862141276445e+01 3.497321689687478141e+01
6.557320463836010305e+00 -1.214141916659214004e+01 3.883166564833447865e+01
6.497450174192777261e+00 -1.224114372229727188e+01 3.818050477965965683e+01
8.497893345079216232e+00 -3.218866919392481929e+00 4.915821152722478615e+01
8.629067477967913291e+00 -2.560743172749244234e+00 4.935776451922263419e+01
6.867542709314017557e+00 -5.619442215761435655e+00 4.838492317423637701e+01
6.523713234241697911e+00 -7.064944465794121164e+00 4.787938994188163377e+01
9.875018414871409078e+00 -1.409013999976038156e-01 5.031293084731996856e+01
6.550987850380641575e+00 -7.384139782249502737e+00 4.768563482339040149e+01
6.014761617878248146e+00 -9.552641176220614483e+00 4.543716153292528759e+01
6.380021470215103463e+00 -7.866819037983649565e+00 4.732458538991047448e+01
6.209036421265945904e+00 -8.353188059975467539e+00 4.696353761642673419e+01
8.106002681592260117e+00 -1.265488093553799231e+01 3.582530126068879639e+01
6.647797171803482286e+00 -1.243777610424873004e+01 3.710477468452686622e+01
5.896549248269109533e+00 -1.186271497092176297e+01 3.964765351515005420e+01
5.547943312696779650e+00 -1.150279953396125698e+01 4.089819166638718428e+01
8.873010800799375986e+00 -1.272253089480966004e+01 3.412168530543841882e+01
8.669169650547248196e+00 -1.862510776160798409e+00 4.953384343743879015e+01
7.837126627604480866e+00 -3.649309803988828982e+00 4.903046609634480291e+01
7.101521121626683808e+00 -4.430709679669462275e+00 4.874124203273415645e+01
6.541576776396173187e+00 -6.511558914542593612e+00 4.805910762162963579e+01
9.168658047733913463e+00 -5.718341834121160039e-01 4.986180436641647873e+01
5.525941468497528319e+00 -1.021465894979996136e+01 4.410373384289580656e+01
5.071596900555537246e+00 -1.041353751999278110e+01 4.354413797175102729e+01
5.366454250972139128e+00 -1.113486663363963025e+01 4.190767169736356124e+01
5.387027284169669805e+00 -1.135310652057524905e+01 4.132046022238641569e+01
5.160272706194291459e+00 -1.082435666639565675e+01 4.264428674952719689e+01
5.728713599108989030e+00 -8.742706533992844697e+00 4.635445269502826449e+01
5.365050779482431587e+00 -9.347067233559647192e+00 4.544217097576687792e+01
9.727356945502386054e+00 -1.266722434760302995e+01 3.270297974590840084e+01
8.400041560889304648e+00 -1.272066767041572533e+01 3.431082461906979120e+01
8.756128352766237910e+00 -1.243506671699565302e+00 4.969696176241153296e+01
7.968924388804127901e+00 -2.991259268955592354e+00 4.922999500012882379e+01
6.895998229001278901e+00 -5.013175667043213046e+00 4.855837877122934287e+01
9.932618625000001700e+00 6.402476249999999869e-01 5.088398503124999905e+01
6.342066592154979254e+00 -5.345979382649978184e+00 4.841420911401228011e+01
5.501496108275341079e+00 -9.889593713894699434e+00 4.466991285460871808e+01
5.173733615041403944e+00 -8.807203243934569770e+00 4.605363885345616382e+01
5.581680916939771642e+00 -8.092899394629618826e+00 4.697169589280825619e+01
5.994670520611205866e+00 -7.428403915403521296e+00 4.751123060895648109e+01
7.137381687842140998e+00 -1.255239492021287084e+01 3.624760771784861646e+01
7.514732240253618301e+00 -1.265461940949019493e+01 3.535259219273999776e+01
5.807009626227983112e+00 -1.205046787125474239e+01 3.880263192290544794e+01
5.020881637477695669e+00 -1.151819462453939558e+01 4.045922871636020091e+01
9.052740720891643278e+00 -1.272919133036783457e+01 3.372330962027413648e+01
5.727055935194505842e+00 -1.218344411388853210e+01 3.793414852067628829e+01
8.100571331532822938e+00 -2.333303138129908749e+00 4.942949527710905500e+01
8.236639273669522865e+00 -1.629114617718232516e+00 4.961352796088252859e+01
7.095134420923362661e+00 -3.946319696053045334e+00 4.888045553499544127e+01
5.939387211290801716e+00 -6.790670981614390200e+00 4.789878623479201281e+01
6.081993163856989071e+00 -6.071161196897701728e+00 4.814653787783706207e+01
9.226134043882881386e+00 2.089097814547730692e-01 5.043250599840708048e+01
4.920401380669879643e+00 -9.955284252254200439e+00 4.428903434998101574e+01
5.297497648004985571e+00 -8.411400355125918438e+00 4.651927259732450892e+01
5.059339397415961948e+00 -9.620234622121126122e+00 4.487314702611965345e+01
6.107397011110461627e+00 -1.244366145615023278e+01 3.665091623662747367e+01
5.157135511927735116e+00 -1.176842557445427850e+01 3.951444450343456083e+01
8.301398144135214707e+00 -1.274254395039124432e+01 3.364844182199396982e+01
7.601376118458921027e+00 -1.980966792283426647e+00 4.948699138424095878e+01
8.373822913466939966e+00 -9.258727407216210681e-01 4.979731323262912213e+01
7.227307036584689648e+00 -3.288109530708129835e+00 4.908004717562839403e+01
6.498302509045341679e+00 -4.553455995166867609e+00 4.865176827557557004e+01
4.400070610925301828e+00 -1.050539243246987731e+01 4.293530879935980948e+01
4.414479522719540583e+00 -1.025010887506332935e+01 4.353556283762833345e+01
4.698246058790252810e+00 -1.121875339951450457e+01 4.130332656444486616e+01
4.547504469825334183e+00 -1.086640026104225321e+01 4.218568284853751038e+01
4.715219636583721119e+00 -9.141467685497612905e+00 4.544719363819751123e+01
5.438434517532121149e+00 -7.476205481514635487e+00 4.733685650721733396e+01
8.751132991145334827e+00 -1.270122029631934168e+01 3.296818567227566632e+01
5.647081415205453148e+00 -1.231650113314350392e+01 3.706547054458189905e+01
6.350809342656875245e+00 -1.250099000009611316e+01 3.622239935207097972e+01
7.611938239394093308e+00 -1.269843478928968317e+01 3.426415004354578286e+01
7.739912599816099359e+00 -1.277164304595015398e+00 4.967095401867734950e+01
7.359370820016868819e+00 -2.629899791883320237e+00 4.927963875847216713e+01
6.485366685780501683e+00 -3.584899875956113924e+00 4.893011064678860578e+01
8.515880114844494031e+00 -2.222693749999999635e-01 4.998119306249999738e+01
4.339238052363977971e+00 -1.002100403621740199e+01 4.390811900885132246e+01
4.706391222778026240e+00 -8.416774753492884287e+00 4.626502216494807129e+01
4.441732034285029052e+00 -9.637358546160506023e+00 4.454963003105561370e+01
4.953380431364386105e+00 -7.832239766170387973e+00 4.697986715543852654e+01
5.262569753227049674e+00 -1.204926132712440001e+01 3.832741925856844034e+01
4.493448912452033817e+00 -1.153360746126495329e+01 4.001993824430373081e+01
5.083327158676262059e+00 -1.193280714048286839e+01 3.877783384264640176e+01
6.923467846131322823e+00 -1.265436074985718662e+01 3.487988602069234645e+01
7.102857543557770548e+00 -1.629158355352097631e+00 4.954440120305118000e+01
6.190211934861414633e+00 -4.130555087289528693e+00 4.874619984989311661e+01
5.621802774383739987e+00 -5.616668315068850781e+00 4.824281171326055784e+01
5.355072336028103841e+00 -6.516210349670834567e+00 4.791818202652406455e+01
6.617636224250920129e+00 -2.926587655759660844e+00 4.912973577511245082e+01
9.369672937928877232e+00 9.947827649659777283e-01 5.100379366847641904e+01
7.873903380088686177e+00 -5.738091979566203316e-01 4.985476230927106656e+01
3.757748720972585055e+00 -1.008678234052269929e+01 4.352699497712848853e+01
4.344981635723254243e+00 -1.132286499048683659e+01 4.067111171090591171e+01
4.619653398710727110e+00 -8.871604932529164600e+00 4.575298339768467315e+01
4.882077693152766074e+00 -7.524027907655743697e+00 4.716244562799281681e+01
5.118581666567513899e+00 -7.020073988905270568e+00 4.754031351291097707e+01
4.717967683909999543e+00 -1.204805840835154918e+01 3.785207007015066694e+01
6.247488828965335195e+00 -1.255192909544933499e+01 3.553851924954627606e+01
5.567144991712374313e+00 -1.244954837677520665e+01 3.619717213987244975e+01
7.513251924886997557e+00 -1.272030550743142108e+01 3.360169275498203945e+01
6.860246984816643412e+00 -2.277789143817920081e+00 4.933708846497792422e+01
7.243994364965976374e+00 -9.252147755235164972e-01 4.972837983718877553e+01
5.816547221433736148e+00 -5.073099982274285935e+00 4.844349754807617359e+01
5.427008469459802420e+00 -6.158533080586568786e+00 4.804212519001526971e+01
8.663155058949318033e+00 5.634590302670683393e-01 5.055231700953833496e+01
4.028811420552854905e+00 -1.064565931516333208e+01 4.239139069881375121e+01
3.612793927875614486e+00 -1.037451604492382451e+01 4.277450825635308718e+01
3.935143531981131648e+00 -1.090842726803769480e+01 4.172739570064511128e+01
4.010411002641155243e+00 -1.108458869771476074e+01 4.128621676270608987e+01
3.963061800142197999e+00 -9.319495857236120173e+00 4.481026640577739784e+01
4.239050400893983550e+00 -8.026410106115706711e+00 4.647640792185310232e+01
4.548317360130574194e+00 -6.908103405369007355e+00 4.746263908610139026e+01
4.916479823224595869e+00 -1.220153609742983747e+01 3.710752485892382424e+01
4.623289534050129213e+00 -1.171716911637688163e+01 3.934826794597230304e+01
6.332178089422833445e+00 -1.265410492628294925e+01 3.440715483031302568e+01
5.894974512638335717e+00 -4.676209300969619065e+00 4.856228933943324932e+01
5.875418080455345304e+00 -3.223381250000000087e+00 4.897977956250000631e+01
7.936951189136786766e+00 2.809370691146587107e-01 5.007162865310669986e+01
3.860359655652375821e+00 -9.703235038199409246e+00 4.416829832230327213e+01
4.065747704916534033e+00 -8.935994169271541665e+00 4.545222584368562480e+01
4.152412904985174791e+00 -8.481070998648263526e+00 4.596482472791390705e+01
4.325693824516421593e+00 -7.571858571519538117e+00 4.698802903910693374e+01
4.771072921043106874e+00 -6.244048871957716962e+00 4.793756721581547708e+01
5.291309293831149674e+00 -4.800239429157298510e+00 4.847276951073816775e+01
4.173701000458113874e+00 -1.204686040911263234e+01 3.737701733418195005e+01
4.359780643797984467e+00 -1.181517440061567115e+01 3.875303819257722182e+01
5.428111387411285627e+00 -1.251754782921136844e+01 3.528495545775093234e+01
3.781195716986067268e+00 -1.130061669841477467e+01 4.034101629535798139e+01
6.361086857786657056e+00 -1.925681124356740437e+00 4.939453741567649558e+01
6.603741958810373625e+00 -1.276962520108715582e+00 4.960187430921855878e+01
5.583373704879759813e+00 -4.011649207729043987e+00 4.872622503746745792e+01
5.031179060971686212e+00 -5.523858286277524954e+00 4.820511327125266376e+01
6.118297956892530642e+00 -2.574527790580741549e+00 4.918715958155267742e+01
8.806455281249998990e+00 1.349489187499999909e+00 5.112366018749999341e+01
3.467793740864387964e+00 -1.066242850821878285e+01 4.202183921864049410e+01
6.725113546148988597e+00 -1.269806982633223313e+01 3.355495119940347593e+01
4.991233956614427036e+00 -1.243422275130769883e+01 3.569391664326322910e+01
4.492001334920342259e+00 -1.219738098736286247e+01 3.675639831007787706e+01
3.966383066170902083e+00 -1.154901323206534869e+01 3.958096771634062350e+01
8.087718714827467181e+00 1.066887011820757181e+00 5.064291071666921340e+01
3.219922471361166494e+00 -9.858632243573767440e+00 4.351118752760844188e+01
3.230101021075518997e+00 -1.006927120142039911e+01 4.313432186549447778e+01
3.322770342361489160e+00 -1.095046646336607132e+01 4.126910877773476471e+01
3.466441417868072250e+00 -8.937985182832308695e+00 4.505138366983999276e+01
3.261917228464692897e+00 -9.382095048330810982e+00 4.425136944827173835e+01
3.753815315046966639e+00 -7.576077384700512951e+00 4.667116741915699407e+01
4.174535800665306162e+00 -6.208181683869582912e+00 4.773740276333447952e+01
3.818336238089700352e+00 -7.270443265922668985e+00 4.697778727306611302e+01
3.571338719990812205e+00 -8.102687167011369596e+00 4.603365842322545376e+01
3.160329708761778544e+00 -1.034218370589107039e+01 4.247601820569094144e+01
3.905065360906395888e+00 -1.187218284823314818e+01 3.805263775469649090e+01
4.810303482175910972e+00 -1.234794335629488948e+01 3.613578040553816351e+01
5.212279749148233776e+00 -3.234465358115234057e+00 4.886199665813721538e+01
5.437969266433952065e+00 -2.853833626897802844e+00 4.899611133957805009e+01
8.349813493998627933e+00 1.832204289968199840e+00 5.119652198871458637e+01
3.544899825235588331e+00 -8.667133112005071638e+00 4.544296779972547284e+01
3.908042797119716472e+00 -6.712310076467710829e+00 4.734071713826128303e+01
4.716661634473698683e+00 -4.778698898957465246e+00 4.836477964820131348e+01
4.773712200124051286e+00 -4.416918718121888077e+00 4.848167480749987845e+01
2.776020441171100472e+00 -1.075671913209828467e+01 4.124912824952713919e+01
2.739189487381336274e+00 -1.040420060283840975e+01 4.199533037904060961e+01
3.481729798958471012e+00 -1.186698830582274411e+01 3.770525700973291094e+01
3.636527636615114467e+00 -1.169754526739145994e+01 3.872824847151889571e+01
5.289963962939577158e+00 -1.258556126956419519e+01 3.437312510934752652e+01
3.629496651576818333e+00 -1.204566525756267481e+01 3.690194305845647449e+01
5.983877323406010973e+00 -1.391840809306147175e+00 4.946263924282985869e+01
4.182521376110942768e+00 -5.855342565724401815e+00 4.793640538943815699e+01
4.902269048432031262e+00 -3.797384865766980422e+00 4.866346023131986698e+01
5.649925540393286205e+00 -2.094918765576987418e+00 4.922536236671452770e+01
2.702358588245574289e+00 -1.005177156388855941e+01 4.274158983617087415e+01
3.186210038644691878e+00 -1.116001880999960783e+01 4.041461499847406458e+01
4.360725317672677903e+00 -5.284689726705900092e+00 4.814223646666450662e+01
4.053100140174933586e+00 -1.224629663247362110e+01 3.607436011540559662e+01
3.049513825077620588e+00 -1.136982851765755420e+01 3.955930122876697652e+01
3.439365236285023997e+00 -1.156442313984311987e+01 3.914204319448059977e+01
2.912726883356458352e+00 -1.157982659461105257e+01 3.870344404814838413e+01
2.682152710201621382e+00 -9.630510771110705193e+00 4.349538748116842157e+01
2.791722769369612944e+00 -1.092219566540617137e+01 4.081456125421698289e+01
2.866933562156602111e+00 -8.940011679607929196e+00 4.465041855498991907e+01
3.024797250486102485e+00 -8.398664616714127007e+00 4.543286707317854933e+01
3.311061195114345601e+00 -6.969106240535341890e+00 4.696754376146478194e+01
3.181331177540743571e+00 -7.580324502763045480e+00 4.635396756637256033e+01
3.577896758041887892e+00 -6.172310963038990295e+00 4.753720978810761721e+01
4.142388707046545271e+00 -4.755454166401545280e+00 4.825686695860142805e+01
5.000145337217056785e+00 -2.484085333646370408e+00 4.901245655696067161e+01
4.549201841416126157e+00 -3.245777374907321100e+00 4.874423882112819228e+01
2.691645228198769502e+00 -9.268743823398629900e+00 4.404246443156544188e+01
3.023279388295598391e+00 -7.970146650371513708e+00 4.586952503869094500e+01
3.594855218917710982e+00 -5.467232329783874967e+00 4.793524560085050013e+01
4.256227801856226733e+00 -4.032832577433005383e+00 4.849057733393502900e+01
2.229204146777425954e+00 -1.056295188597601253e+01 4.122914043110287707e+01
2.173729209460553591e+00 -1.003425525445548594e+01 4.234821263695616267e+01
2.695111730103913139e+00 -1.111626839998977445e+01 4.005420947121328368e+01
2.788895450774396600e+00 -1.173424040203349250e+01 3.778635647229900485e+01
3.085439010677230698e+00 -1.204447424570692426e+01 3.642691768483671666e+01
2.343228615724938013e+00 -1.117519690454251169e+01 3.948895103652682792e+01
5.106867944722466746e+00 -1.976912489416919438e+00 4.915962394639341682e+01
5.364519568232944735e+00 -1.508328329893503739e+00 4.932355011382131238e+01
2.786174315228467258e+00 -7.148032508244282823e+00 4.652129081822807422e+01
2.981786492936968624e+00 -6.136470819069355542e+00 4.733720212179430575e+01
2.120538953181881681e+00 -1.028268006100696041e+01 4.175756237078493882e+01
2.260288282511592417e+00 -1.089390974504820875e+01 4.035969427972830204e+01
2.159092225295899503e+00 -9.718298683106835867e+00 4.291386683844322647e+01
2.665037225054553982e+00 -1.188873362155032609e+01 3.686907669962405265e+01
2.374877151450193402e+00 -1.154541551076413342e+01 3.821233820743845655e+01
2.218053085992832685e+00 -1.138004351605068365e+01 3.866261280209327822e+01
2.267062452468625811e+00 -8.942069629347306758e+00 4.424922401111546577e+01
2.144453480900206266e+00 -9.402425955073923092e+00 4.347959225070062672e+01
2.385888252441811463e+00 -8.536057309229290624e+00 4.483736878889802568e+01
2.504709975175496428e+00 -8.130212954217677535e+00 4.542276593375969895e+01
2.609244116526108215e+00 -7.584581577065198310e+00 4.603699405466256422e+01
2.803983609456357495e+00 -6.667771427509621596e+00 4.695730079085286235e+01
3.568021326241502145e+00 -4.733448409132092749e+00 4.814894445758943675e+01
3.600139481208370018e+00 -4.283847146641142523e+00 4.828606726602494348e+01
4.223739263818629297e+00 -2.684633549181413059e+00 4.882756260758786482e+01
1.645497761636646850e+00 -1.001676343254823820e+01 4.195514853081528628e+01
4.562324506620575093e+00 -2.113590089706401276e+00 4.902880119562139072e+01
3.884994692428069385e+00 -3.255504335312461528e+00 4.862629335649512541e+01
3.738678707164190484e+00 -3.647442230799880392e+00 4.849948031479428323e+01
1.795371464901820202e+00 -1.063590733062455840e+01 4.059642643885835156e+01
1.682678680972494512e+00 -1.036928962913780161e+01 4.120916287813773948e+01
1.608773382789590256e+00 -9.536459964267494982e+00 4.280333031148648359e+01
1.728706967435287067e+00 -1.086562051694169995e+01 3.990471744324563730e+01
2.099830563520099780e+00 -1.171708820955952035e+01 3.702391263969423818e+01
1.715489003040280958e+00 -1.105582902748617080e+01 3.924408985725309407e+01
1.836533597694539832e+00 -1.151097570417852012e+01 3.772079881118941103e+01
2.243652323306608132e+00 -6.998697982416651975e+00 4.635672155458878763e+01
2.695611463358047466e+00 -5.589571525529140494e+00 4.753547545389672280e+01
3.006352220416113052e+00 -5.078586126283950897e+00 4.793408263205742514e+01
1.606759489514388628e+00 -9.174349585823053488e+00 4.346380034179273366e+01
1.523551172351518490e+00 -1.118031584824764302e+01 3.862179394991455439e+01
1.799797751876163199e+00 -8.492916654634742102e+00 4.450194464189033283e+01
1.667840838202783837e+00 -8.944155647140602738e+00 4.384847355714109085e+01
1.984060850881760096e+00 -7.861479187534047064e+00 4.541265425880866502e+01
2.036502386762063299e+00 -7.588864684056845888e+00 4.571965437252076470e+01
2.385071165623235068e+00 -6.100573179359016329e+00 4.713686631334103794e+01
2.296599637676727035e+00 -6.366238875409097275e+00 4.694705038084725857e+01
2.993595428856175467e+00 -4.711834484427549263e+00 4.804101931187361174e+01
2.819711299354345169e+00 -3.974985161798689326e+00 4.822070943876659044e+01
3.220931294755934537e+00 -3.260118690754723936e+00 4.850838734354744020e+01
3.522207998522765671e+00 -2.756004189101096902e+00 4.868733007906629950e+01
1.200214115049309971e+00 -9.670862385440948117e+00 4.222887649753095474e+01
1.196945924186514354e+00 -1.083732579753377934e+01 3.944960480137709880e+01
1.166586359730215960e+00 -1.050646552663370059e+01 4.031936957030264779e+01
1.136226587574166835e+00 -1.017565431958227329e+01 4.118919042846607681e+01
1.117038642116274572e+00 -9.999277188071104661e+00 4.156192781620621446e+01
1.069043628624486875e+00 -8.946265619330759478e+00 4.344801956810323418e+01
9.091511257029560866e-01 -9.291217823939177833e+00 4.268852883314173852e+01
1.157579994067315265e+00 -1.125121050920875376e+01 3.792730219622173848e+01
1.298279425785274555e+00 -1.147654467808368217e+01 3.722935852143026381e+01
2.418390386241202616e+00 -4.690188577197900166e+00 4.793292234074588265e+01
2.103975843688256742e+00 -5.377059373933564146e+00 4.743514018897223394e+01
1.459198817761518274e+00 -1.165284049135618716e+01 3.655427405618090120e+01
7.278134624757500726e-01 -1.062300071271842405e+01 3.956324113689571220e+01
1.200755779105697529e+00 -8.495071236939860881e+00 4.410113961065367505e+01
1.789209375000000213e+00 -6.064724368548387368e+00 4.693679984375000203e+01
2.626993823664498073e+00 -3.125153495779630308e+00 4.834382440353829224e+01
2.768475956486315059e+00 -2.751144895144160607e+00 4.846080270030822845e+01
7.492413813098629527e-01 -9.636335388634138965e+00 4.192907759254855904e+01
8.288621018871769053e-01 -1.098053904543728798e+01 3.858097063498164658e+01
6.657250195965085382e-01 -1.080906471155456217e+01 3.899497138317017431e+01
5.850487960148397226e-01 -1.117636111923626707e+01 3.755057201198698635e+01
1.876846742834389570e+00 -4.163787112738190466e+00 4.787113487669473955e+01
2.138342146972322499e+00 -3.578392325033384669e+00 4.808489661174919405e+01
4.754284441048488574e-01 -1.018161667524585567e+01 4.051159997575531690e+01
5.892135215105488433e-01 -9.981822466833387253e+00 4.116919631657693657e+01
3.617455788021647356e-01 -1.038125578005604943e+01 3.985462592329172793e+01
7.603905938706512213e-01 -1.144214100377417687e+01 3.673826611496992456e+01
2.033594108692290181e+00 -2.990348968079272307e+00 4.817942469101497238e+01
2.480593032879315762e-01 -1.058092397406764107e+01 3.919766887967607261e+01
1.342709043951830217e-01 -1.078079508523612517e+01 3.854015948197977082e+01
5.013107027236973767e-02 -9.704357938116995541e+00 4.112745933199969528e+01
-1.779051900293648902e-01 -1.011857036218518147e+01 3.989016546550002573e+01
-5.312904399823659141e-02 -9.898778696426672852e+00 4.061301632890007340e+01
-3.026802868889065801e-01 -1.033839078935744027e+01 3.916736058410930355e+01
-4.163557093272680643e-01 -1.053819283597290024e+01 3.851016950432796193e+01
-6.953429948084504097e-01 -9.815759362102150831e+00 4.005699390214508071e+01
-4.889722505439161315e-01 -9.426900793929940292e+00 4.108572156102985673e+01
-8.312238838702010746e-01 -1.005563057609942668e+01 3.926856053447259853e+01
-9.671052141905671640e-01 -1.029553717691333325e+01 3.848018378282527863e+01
-1.337375803557601550e+00 -9.732768812158843375e+00 3.950118830320777619e+01
1.527792659315533541e+01 8.850016157664322147e-01 4.895797821447927589e+01
1.483803643175196996e+01 7.445175449386114419e-01 4.915841606379920137e+01
1.397820518814055646e+01 5.724159953527998557e-01 4.951104787769096305e+01
1.458230928320461040e+01 1.278301436560726145e+00 4.913041969683700927e+01
1.415243797602119180e+01 1.192410515635564661e+00 4.930668313390833646e+01
1.352017944325736210e+01 5.414634253381106488e-01 4.968123840748630471e+01
1.432658112500000058e+01 1.812086062500000150e+00 4.910242353125000392e+01
1.323619689527304288e+01 1.130885058559008005e+00 4.964704453856442257e+01
1.363966999496483368e+01 1.766244222687979759e+00 4.935752917623842961e+01
1.263584747632352467e+01 5.179503389333812713e-01 4.999611921124726877e+01
1.279397564393578435e+01 1.118999651410270690e+00 4.980453349520022499e+01
1.363072011316787879e+01 2.374668501992067249e+00 4.922381942081765516e+01
1.295218653124999975e+01 1.720364187499999975e+00 4.961284737500000119e+01
1.414609373547727778e+01 2.408841997857321005e+00 4.903246915500842107e+01
1.206566421952332568e+01 9.428139403467612478e-01 5.009285876749062538e+01
1.311534691108723827e+01 2.340495858579397570e+00 4.941516934084246770e+01
1.442963609440756301e+01 2.462979729808195906e+00 4.891543609289018235e+01
1.162211114249974742e+01 5.537827788032558818e-01 5.033302252572804036e+01
1.250877511307923307e+01 1.331457441757839977e+00 4.985293439212885147e+01
1.396557190019727024e+01 3.005711823221929535e+00 4.896250142807527794e+01
1.226691836287356274e+01 1.880840109337742927e+00 4.980760320422682952e+01
1.131280967725932740e+01 7.902042780423672585e-01 5.038296451135582288e+01
1.327846831238409919e+01 2.960477631948437161e+00 4.921753893361040610e+01
1.197578756268707423e+01 1.455943348056998099e+00 5.000448764556391268e+01
1.144717747833659516e+01 1.415723699665639268e+00 5.019268796403331123e+01
1.255079688436540764e+01 2.406794536690317621e+00 4.959076421719580452e+01
1.453268878380826479e+01 3.113873553900142532e+00 4.872844949290685435e+01
1.239055983098418956e+01 2.904452159626683461e+00 4.953055117242282535e+01
1.344150141061299664e+01 3.580124663115784145e+00 4.902001530930085238e+01
1.158156474618685650e+01 2.041336041438609694e+00 5.000238331818959381e+01
1.103155363815556456e+01 1.573998781303786121e+00 5.029644428047689786e+01
1.198624795667882736e+01 2.473092249903035444e+00 4.976635894381079339e+01
1.048201294863904032e+01 1.107060983285155675e+00 5.059025379102502740e+01
1.279528488785710749e+01 3.336253177526339986e+00 4.929450235537691327e+01
1.181548186061215411e+01 2.687345790632832188e+00 4.977664160750973110e+01
1.097476099894552526e+01 2.384947676033170705e+00 5.013705841667115948e+01
1.015065505502738397e+01 1.684218131120049256e+00 5.057777281602810859e+01
1.204926008442872210e+01 3.332972351841446468e+00 4.955103384792967347e+01
1.141483802824921057e+01 3.023703223279526675e+00 4.984111367621745359e+01
1.004164220924172923e+01 1.162258277019042829e+00 5.073087145105461104e+01
1.025967027414224120e+01 2.206186810512939189e+00 5.042467140733268138e+01
1.090525799006575269e+01 3.201713181978096401e+00 4.997889508574471051e+01
1.036868340381957410e+01 2.728148707112993510e+00 5.027157222216330723e+01
9.607150734519848356e+00 1.440078916226855243e+00 5.082242164012087926e+01
1.144244078327890435e+01 3.675814432384521879e+00 4.968588620206006823e+01
9.327199296113855453e+00 1.809043517590842365e+00 5.083963015196081159e+01
9.847940757420932556e+00 2.268595594178922425e+00 5.055560150921117923e+01
9.906711000344280649e+00 3.269461389248313754e+00 5.034672368308591928e+01
9.749804043930556219e+00 2.624841441896273331e+00 5.052102567060483551e+01
1.057339871564228417e+01 3.638055203699196216e+00 5.002403186222370124e+01
9.130928031229656128e+00 2.521534714614750872e+00 5.077047777422286146e+01
9.338678090184014735e+00 2.968498821082929950e+00 5.061270137134140157e+01
8.512049575889937714e+00 2.418226953304767335e+00 5.101993098699852425e+01
1.811686633908529132e+01 5.442645136436535580e+00 3.079961826672253977e+01
1.796409639783882994e+01 4.786049114130944027e+00 3.053758625948722383e+01
1.755923711700760848e+01 5.466144122958771057e+00 3.012581247572922294e+01
1.739190397813658961e+01 4.366396695109594717e+00 2.979333357213404909e+01
1.854603713438624979e+01 4.854898320940698397e+00 3.125235598963977424e+01
1.781146898615356733e+01 4.130053653156746662e+00 3.027583054188182743e+01
1.818260928330531812e+01 4.306250561785936348e+00 3.074697622644286454e+01
1.849814689050691996e+01 5.588549213225722845e+00 3.127970815874654065e+01
1.826940135242464436e+01 6.098227287375575401e+00 3.106127105915895470e+01
1.865725032800396832e+01 6.143651838462442782e+00 3.153769192093533036e+01
1.788850473948539488e+01 5.940961772066526869e+00 3.058063632031774759e+01
1.800035561918124216e+01 6.528892120524173670e+00 3.078495550617980214e+01
1.757829501195474364e+01 6.303901435033999689e+00 3.024665506321546360e+01
1.842189016555815684e+01 6.753596190348778450e+00 3.132286077328795670e+01
1.905182390455287234e+01 5.717917482059621470e+00 3.206127976552190972e+01
1.889262561941432850e+01 5.533669251728579930e+00 3.175258363015573337e+01
1.902003865261619353e+01 6.380255282464124100e+00 3.219093609309408777e+01
1.912797878855527500e+01 4.923740250022639486e+00 3.196751634241154605e+01
1.765879231016642592e+01 3.473833416208947700e+00 3.001403527649701530e+01
1.726742033398899423e+01 3.380169299836473407e+00 2.952593387242697887e+01
1.702869854190037913e+01 3.941888115646210000e+00 2.930033219053494875e+01
1.807731152594116608e+01 3.650906458846660207e+00 3.054269924688989590e+01
1.792432103129214482e+01 2.994815587606713958e+00 3.028045403966093119e+01
1.847275923455812219e+01 3.931472531613581456e+00 3.105565914715758424e+01
1.890415762263072708e+01 4.163067545909586720e+00 3.160680613702960429e+01
1.750625221700924072e+01 2.818193484042553099e+00 2.975159288501884802e+01
1.834315513165339695e+01 3.171757921773331823e+00 3.080961972571828511e+01
1.876155259241798134e+01 3.348511172413131121e+00 3.133850555299780183e+01
1.918041457149239193e+01 3.525456034458156029e+00 3.186823785546553012e+01
1.936372455785067004e+01 4.312800209650047734e+00 3.218289327948613732e+01
1.819649757442380178e+01 2.402553152606660802e+00 3.060191213479439654e+01
1.770134416715167092e+01 2.272233297094657711e+00 2.997869676397734651e+01
1.704155411749319882e+01 2.687771300772145544e+00 2.925738874116800048e+01
1.939656743009797069e+01 4.995328866521223432e+00 3.242301141868981773e+01
1.935946136968917486e+01 5.755649018009207474e+00 3.257084835325849070e+01
1.969809139648414487e+01 5.748868874088949532e+00 3.311873410339548940e+01
1.966515653546519715e+01 5.066916619950136536e+00 3.287865548485692813e+01
1.935172816350855385e+01 6.517432150396720303e+00 3.276673605119372468e+01
1.951126008448693483e+01 6.971797041677507245e+00 3.314999910879165412e+01
1.973103931759793994e+01 6.431027080273641339e+00 3.335886709815472528e+01
1.963222786003766984e+01 4.385037086550023666e+00 3.263857911476895168e+01
1.869060520761759392e+01 2.578509844356062342e+00 3.122574451199740864e+01
1.724972849580645118e+01 2.184488881521855497e+00 2.948413119343998545e+01
1.959926449220526834e+01 3.702391140109889900e+00 3.239820215544023796e+01
