1.050176162446451045e+01 4.590975520955320910e+00 4.602540788592273202e+01
9.599455207201989637e+00 4.394547071420211282e+00 4.607127504511193195e+01
1.417355995179723394e+01 4.913823485679358782e+00 4.573636235670776529e+01
1.186313839308626683e+01 4.320387208447042937e+00 4.594548490099791138e+01
1.162771371498209838e+01 3.899839956204161240e+00 4.594768670106758890e+01
1.304282950691298026e+01 4.102974631116484083e+00 4.587896316547254827e+01
1.233525952490815492e+01 4.001405998579053325e+00 4.591358794792357401e+01
1.092000624817990406e+01 3.798250402014217819e+00 4.598135014209852045e+01
1.429983904516479498e+01 5.634719564590336738e+00 4.567024002295995899e+01
1.360819348205353840e+01 4.508397664528028592e+00 4.580801660455362168e+01
1.025956641453538687e+01 4.096474102261176142e+00 4.602648281457733503e+01
-1.012261689276407317e+01 -2.402090620806811572e+00 1.978201535253303334e+01
-1.071421736246904466e+01 -2.040956195929847894e+00 2.028124615513624107e+01
-1.035587345918747637e+01 -1.832706157112526490e+00 1.961692238382832087e+01
-1.034309460619493137e+01 -2.635598525558334515e+00 2.028013641872072625e+01
-1.066011981892002503e+01 -2.714518748046537588e+00 2.077878322007347833e+01
-9.909649000689682907e+00 -2.371799671090438100e+00 1.950246694810651960e+01
-1.107266578547365832e+01 -2.249276100628930575e+00 2.094602449552469636e+01
-9.889464360432439705e+00 -2.971197753091865845e+00 1.994702630688488298e+01
-9.850695160610317913e+00 -1.681601725505372125e+00 1.916289500916377619e+01
-1.024738263459489218e+01 -3.180035335315706924e+00 2.061148558943698816e+01
-9.152076013115356901e+00 -2.147493937195714242e+00 1.882164344051575355e+01
-1.087988210013920387e+01 -2.780109758254575514e+00 2.117702600032931315e+01
-9.463637852896557234e+00 -2.912751916123001550e+00 1.938807126325325569e+01
-1.068723535499843003e+01 -3.310594673950890687e+00 2.140787685297905085e+01
-1.141067001214091370e+01 -2.474208775319926001e+00 2.174370873963405870e+01
-9.656155104139632073e+00 -3.542733320689730014e+00 2.011213681709438816e+01
-8.958481149380562059e+00 -2.764021952817196759e+00 1.893415679603175761e+01
-1.126587519403483562e+01 -3.257192090609596580e+00 2.231732338628227552e+01
-1.021503678630005041e+01 -3.661390843239623827e+00 2.103631825692724178e+01
-9.835089546647239445e+00 -3.646826855616660534e+00 2.044439086666105254e+01
-8.511640291735114161e+00 -2.564438494032392768e+00 1.862467081695703897e+01
-8.928859726641155348e+00 -2.047521100240923708e+00 1.866693276254826728e+01
-1.078395015301373938e+01 -3.814763469509246274e+00 2.209395089973230952e+01
-9.016935750074273059e+00 -3.455456695279294888e+00 1.927350204477394158e+01
-1.174842105395528691e+01 -2.698975491218065681e+00 2.254100085434583178e+01
-1.049437375307823039e+01 -3.842402720676108441e+00 2.163900466452935589e+01
-9.422748533163240126e+00 -4.114349243938312028e+00 2.027730112249154359e+01
-8.996739288224496534e+00 -4.055487063746892495e+00 1.971780332892625864e+01
-8.094527786834822436e+00 -3.081061410288651992e+00 1.858242110745682751e+01
-8.764822420061252117e+00 -3.380522126236231717e+00 1.904670190972152000e+01
-8.247347769587571875e+00 -1.964563504155959039e+00 1.846605025887362217e+01
-1.107494344969592781e+01 -3.893207356279331233e+00 2.270460172419676681e+01
-9.862117427745207721e+00 -4.245326296106108011e+00 2.107372037220579486e+01
-7.890377989610245280e+00 -2.537359090465872047e+00 1.844847233680900089e+01
-1.201918209554871453e+01 -2.014078205604340255e+00 2.233379124550981132e+01
-1.155710228922496974e+01 -3.335482142151009022e+00 2.292828476387605363e+01
-8.571239328068774199e+00 -3.996609003455430020e+00 1.915919544958626375e+01
-1.030138984096667976e+01 -4.376240037142581585e+00 2.187029931669533056e+01
-1.059267892953759649e+01 -4.454424738819567686e+00 2.248116010540787357e+01
-1.198258532092981632e+01 -2.833983425996228434e+00 2.313294477402495630e+01
-8.947360851116348712e+00 -4.759912150072247883e+00 2.021166845688480862e+01
-7.281213655768283388e+00 -2.696937595149809574e+00 1.830220660225233331e+01
-7.677580665570353347e+00 -3.597412121823800657e+00 1.854018962997856335e+01
-7.291765029926547292e+00 -1.988981136774367942e+00 1.820448547367612946e+01
-1.213637404916187457e+01 -2.207261247891313616e+00 2.289210323216565968e+01
-1.088393643557236068e+01 -4.532606289780097164e+00 2.309221363470254218e+01
-1.179134717846789293e+01 -3.470594930925595012e+00 2.352065687290431839e+01
-9.821467816559291464e+00 -4.973293060994004477e+00 2.175184647099801438e+01
-9.235857825182790748e+00 -4.798430122772835205e+00 2.068983932416537641e+01
-8.379715935626354195e+00 -4.681379838236347624e+00 1.946631397164020782e+01
-7.270636837860536161e+00 -3.405524975489457429e+00 1.840002380845962549e+01
-7.916142601004444224e+00 -4.055503286645689265e+00 1.882873173562018820e+01
-1.136591351955159013e+01 -3.971650732744878898e+00 2.331544971448374781e+01
-9.482579746104345730e+00 -4.974378468189852853e+00 2.124110046940140961e+01
-6.590866085987855172e+00 -3.486052748511156540e+00 1.830184955959235538e+01
-1.011853857447462701e+01 -5.009723889997268031e+00 2.235387594140840051e+01
-1.040990892423874037e+01 -5.087538970659135629e+00 2.296457126088322909e+01
-1.160020374777112728e+01 -4.106662907682770758e+00 2.390799146696256017e+01
-1.221703752189348435e+01 -2.969183384481613786e+00 2.372593112559485107e+01
-8.472158883006533969e+00 -5.404966546279460715e+00 2.014606219387379582e+01
-8.198700189310001107e+00 -4.540370374219702576e+00 1.918624519875693935e+01
-9.049040063804925538e+00 -5.482085728732084107e+00 2.110235429749371505e+01
-7.260037115563736876e+00 -4.114467772843380722e+00 1.849789929899387531e+01
-6.258866415865855792e+00 -2.995346531526285716e+00 1.817948227587861609e+01
-1.117478001932551912e+01 -4.610680966024977678e+00 2.370267045024688102e+01
-1.202556323619493739e+01 -3.605711001751020550e+00 2.411330846136320716e+01
-9.341554262401608355e+00 -5.569958670235505949e+00 2.163339683375497913e+01
-6.606673207192675257e+00 -2.424098935417528189e+00 1.815527081768059503e+01
-1.070125047781715821e+01 -5.165348321686849431e+00 2.357549303435030197e+01
-1.245132053091899493e+01 -3.104306198655713445e+00 2.431884335809210285e+01
-9.638716957291757481e+00 -5.606134148158747443e+00 2.223520097891924152e+01
-8.429448487644590315e+00 -6.107966675265656065e+00 2.079756848080485554e+01
-8.188259605461885471e+00 -5.365762955202951545e+00 1.977332326975722765e+01
-7.826359796242599032e+00 -5.083784830231775409e+00 1.921328047744735201e+01
-7.200505839710942269e+00 -4.800184771093235270e+00 1.875444124382970301e+01
-5.911062680741127728e+00 -3.566584843175560682e+00 1.820369206132692241e+01
-6.578138956826441230e+00 -4.312775870768248865e+00 1.841590918657585618e+01
-1.144649713847153905e+01 -4.629233674758308048e+00 2.435113988205282709e+01
-9.935863860296040073e+00 -5.642306894445285437e+00 2.283718669821830360e+01
-1.187233767960362663e+01 -4.124993232323396875e+00 2.455640813911250575e+01
-6.877075056436934730e+00 -4.736624881940234566e+00 1.861391371238214631e+01
-5.865235120170249949e+00 -2.531635416591864196e+00 1.807527826737264220e+01
-1.098774535821914711e+01 -5.155767912408661502e+00 2.426262985141053363e+01
-1.022735976532024083e+01 -5.720043927317752797e+00 2.344822148064799450e+01
-1.229781075253253242e+01 -3.623708965701854634e+00 2.476101171683546553e+01
-7.996744697711441141e+00 -6.050205838691806726e+00 2.008042488716569451e+01
-8.862202661596327857e+00 -6.165746680125005597e+00 2.151508664620019218e+01
-5.334258114837846954e+00 -3.163050515219801628e+00 1.808370601534899436e+01
-5.563262731750096002e+00 -4.137816811449465781e+00 1.822789979665840576e+01
-1.255639170486673173e+01 -3.153920847694356322e+00 2.512250231547384516e+01
-9.159012920082183484e+00 -6.202107783696615861e+00 2.211643472728589188e+01
-7.454051690036109790e+00 -5.627122144610721577e+00 1.924031370696284426e+01
-7.140992605010441530e+00 -5.485393323473519267e+00 1.901082770069369943e+01
-5.896501984344808101e+00 -4.511002774202690802e+00 1.833396494679534428e+01
-6.088534912478846373e+00 -4.910100169750702293e+00 1.850138762233736145e+01
-1.171857795039433547e+01 -4.647813307610140221e+00 2.499414058064583699e+01
-1.125941479712757953e+01 -5.174852600984951145e+00 2.490556080530619454e+01
-1.051395353217533923e+01 -5.710575070953720633e+00 2.413515574900520733e+01
-1.214441930246712431e+01 -4.143532706881817518e+00 2.519932256062583420e+01
-1.232607371567524090e+01 -3.935822018742453299e+00 2.578006336546934918e+01
-9.455831142102299580e+00 -6.238471491058959373e+00 2.271802763096663824e+01
-7.841970036457537319e+00 -6.631734809397999086e+00 2.051980904459589894e+01
-8.419324663844612644e+00 -6.707935016117709814e+00 2.147593799931075154e+01
-7.538891727843997970e+00 -6.110577408407862343e+00 1.967363464077423529e+01
-6.494270315169762497e+00 -5.358508137735076282e+00 1.872988017452077258e+01
-5.215467485303155293e+00 -4.709046370556816186e+00 1.825210537947265976e+01
-5.311316375214980567e+00 -2.207342663966016971e+00 1.796755272691001437e+01
-1.080049820079316092e+01 -5.701102525090730566e+00 2.481668257782645881e+01
-9.753147326591554034e+00 -6.274896063696482784e+00 2.332086685921746394e+01
-1.266126977891151384e+01 -3.204813887136310768e+00 2.592232101341256723e+01
-7.654684730572954621e+00 -6.553097338453573784e+00 2.013689053255549410e+01
-8.678935423979094566e+00 -6.738639805603082067e+00 2.205973251496664034e+01
-4.804992849190520943e+00 -4.080869308933205097e+00 1.812629174724477465e+01
-4.647656727955742362e+00 -2.515925964761318578e+00 1.792111295732600240e+01
-1.004032615138406825e+01 -6.265141963558678917e+00 2.400804575094914384e+01
-8.975604431217382384e+00 -6.775462187960158644e+00 2.266176544498449985e+01
-7.081425906626700240e+00 -6.170903907813645617e+00 1.926736926324286969e+01
-4.394502985106460535e+00 -3.452688853812206027e+00 1.800047813943700703e+01
-5.934127543503770141e+00 -5.431091762606683915e+00 1.863387637977511702e+01
-5.386734966530281277e+00 -5.340144386859752679e+00 1.848871185220124858e+01
-4.848676117613400116e+00 -1.905177151677208913e+00 1.791528654900833573e+01
-5.299175229737603132e+00 -1.400439563615619498e+00 1.793544955935619356e+01
-1.199093151491293341e+01 -4.666413491869080943e+00 2.563785399176474300e+01
-1.153102728113665698e+01 -5.193937525449050518e+00 2.554843688268152846e+01
-1.032690851744021643e+01 -6.255403122977916119e+00 2.468906843070917390e+01
-1.107222327707192022e+01 -5.719909357170998021e+00 2.545923423838327082e+01
-1.240191776579849936e+01 -3.626045191680196123e+00 2.670399536116131500e+01
-7.312809685476675980e+00 -7.055685714509785100e+00 2.019332761314318603e+01
-7.687449679106881817e+00 -7.212301269412339622e+00 2.095856559521357099e+01
-8.235824855975295122e+00 -7.281296023060143341e+00 2.202092050891183916e+01
-6.111550276935413528e+00 -5.980238953263160795e+00 1.884581913672571574e+01
-4.252073203220928299e+00 -2.146627702991816822e+00 1.787215648723480754e+01
-9.272258763228730771e+00 -6.812283965268092878e+00 2.326402486278503545e+01
-9.516384298555699672e+00 -6.785363818601593877e+00 2.394879892384648201e+01
-1.204169987168225298e+01 -4.459632199480799031e+00 2.625388466677592092e+01
-7.026320824826387756e+00 -6.864334617151055973e+00 1.975843450104100540e+01
-7.976226356525348393e+00 -7.250354274407260213e+00 2.143677238524175976e+01
-8.495415569536453049e+00 -7.312250314013328811e+00 2.260537154573623297e+01
-4.061070391579716166e+00 -4.458903212985679154e+00 1.819574024406485435e+01
-4.611699966811920959e+00 -4.951502637568150789e+00 1.829585321801367215e+01
-3.983997153583791917e+00 -2.824505446992652047e+00 1.787466397787299854e+01
-4.902613090746675617e+00 -5.326208232746616922e+00 1.844153236106681604e+01
-4.520159598158104863e+00 -1.468759961575563322e+00 1.786964488534142248e+01
-1.061344667363781014e+01 -6.245658784207116732e+00 2.537003436050588334e+01
-9.803384482117140308e+00 -6.775360883339138773e+00 2.463010113002010115e+01
-6.405301912579468571e+00 -6.386248027240220004e+00 1.911450271575041171e+01
-6.726545090203966737e+00 -6.808203830058564776e+00 1.952517837380372612e+01
-5.557926718554620393e+00 -5.971007073130383702e+00 1.872524183972078760e+01
-4.298706916168585579e+00 -5.568729678115546200e+00 1.848528630656684157e+01
-4.007679634831723625e+00 -5.194056334277179943e+00 1.833960503377910456e+01
-1.166937727296471117e+01 -5.049777816788996176e+00 2.627201778718400504e+01
-1.121037929425829560e+01 -5.576027430861421053e+00 2.618229758399422380e+01
-1.209230666741561500e+01 -4.253016975315732751e+00 2.686909806733227057e+01
-8.792222201804829496e+00 -7.348649932571857946e+00 2.320730704186193094e+01
-6.971194440609948195e+00 -7.557864067882501757e+00 2.024972391052687826e+01
-7.532880161309026157e+00 -7.793052212847404014e+00 2.139758292307870846e+01
-3.510413656535869453e+00 -3.966302218535025848e+00 1.809561906224831418e+01
-3.747204891611655153e+00 -3.395406427059623589e+00 1.798514419629806582e+01
-3.578810641311855001e+00 -4.925473533262173298e+00 1.828419441702311588e+01
-4.589734701709581977e+00 -5.943399514952936613e+00 1.863096571495875864e+01
-3.681117958034341608e+00 -1.715328961188461454e+00 1.786468702417392151e+01
-3.465022012473882196e+00 -2.432497646245384448e+00 1.786787076904714766e+01
-1.009033491589024756e+01 -6.765352470163692011e+00 2.531134355062961205e+01
-1.075137786696928721e+01 -6.102090602158907195e+00 2.609257117054754715e+01
-9.036044608483090101e+00 -7.321950923998078231e+00 2.389035803826132920e+01
-1.172040831452071608e+01 -4.842540744744994186e+00 2.688714697484445892e+01
-7.251770978602423590e+00 -7.675333486641935821e+00 2.082303591560243206e+01
-6.371464319589472680e+00 -7.445822879470275879e+00 1.978313292285081459e+01
-7.922844279241105347e+00 -7.839054015892019223e+00 2.227442771164941249e+01
-5.729041425156266243e+00 -6.601617824027542270e+00 1.896169292383666161e+01
-3.279056183650194356e+00 -3.172491965922223933e+00 1.794104112982664745e+01
-3.273623718388334325e+00 -4.537195712251357094e+00 1.820608782650714375e+01
-9.279847453448315520e+00 -7.295254753401891890e+00 2.457116715536622209e+01
-1.214283831851621720e+01 -4.046316684104994010e+00 2.748419339103069703e+01
-1.243282126174434410e+01 -3.445944993868183648e+00 2.737901028038210782e+01
-7.331096069883216160e+00 -8.274672511728407898e+00 2.197791040005235175e+01
-8.312150140351667105e+00 -7.885008300234237488e+00 2.315060990924234829e+01
-5.824804506590522735e+00 -7.095540594832943526e+00 1.932140857241092391e+01
-3.403814460040782031e+00 -5.436540737408786406e+00 1.838332359808478245e+01
-3.889131486267952909e+00 -6.061142977332441006e+00 1.862620586398228895e+01
-2.945990969207281207e+00 -2.040449389163411897e+00 1.786107302409990183e+01
-1.134838154007519861e+01 -5.432230610343527388e+00 2.690476109933716842e+01
-1.029865765446314541e+01 -6.509383608322556469e+00 2.597881479425885232e+01
-9.566770223000277795e+00 -7.285399625587276162e+00 2.525258997306593400e+01
-1.177133642375551936e+01 -4.635292259124329739e+00 2.750196122230209639e+01
-6.776928905816622439e+00 -8.024604389035040697e+00 2.063981327975773894e+01
-6.016335384510148820e+00 -8.083487450973256827e+00 2.004112540777779472e+01
-6.960330448836332451e+00 -8.376042419353492363e+00 2.140911180858665830e+01
-4.846654749477467661e+00 -6.889413907762643952e+00 1.898567562453787971e+01
-3.036835362089103096e+00 -5.108085991421059013e+00 1.831654876126705034e+01
-2.760042894276441672e+00 -2.780469067998341703e+00 1.793423776121434443e+01
-9.704822917454778874e+00 -7.093284538496897440e+00 2.599097180061923851e+01
-1.088922229888317617e+01 -5.958528212116876333e+00 2.681481161468405361e+01
-8.555593844045239038e+00 -7.858508998116621846e+00 2.383162262729263148e+01
-1.219592059931174610e+01 -3.690016236161191010e+00 2.806637161812970405e+01
-1.139907744088693953e+01 -5.225363903734805859e+00 2.751976273049383437e+01
-5.920560685202771012e+00 -7.589456590925165003e+00 1.968118256328241600e+01
-7.591064203632875262e+00 -8.305030371311351800e+00 2.256217694384778127e+01
-2.571392497993545856e+00 -4.202844704609757898e+00 1.813991112696899322e+01
-2.574104482375143110e+00 -3.520483810041839412e+00 1.800739495508378241e+01
-4.276785830483774475e+00 -6.560710893304120717e+00 1.882043135896700647e+01
-2.800049173941322689e+00 -5.678976287338779905e+00 1.842700059726701411e+01
-3.110143454003762464e+00 -1.284013922215595738e+00 1.785721340042895022e+01
-1.043656758212427782e+01 -6.365839334688534912e+00 2.670115577542038565e+01
-8.799348038548369999e+00 -7.831977529385413028e+00 2.451267918306627536e+01
-1.186746391170352588e+01 -4.383224816172497817e+00 2.819654567108741006e+01
-7.129582241039613244e+00 -8.755523263570104575e+00 2.255783418002956964e+01
-7.851026095542113836e+00 -8.335401097937008785e+00 2.314608741732659070e+01
-5.461381258220540325e+00 -7.086603820438470258e+00 1.921715749982358190e+01
-2.706752301441097686e+00 -4.694123877921096977e+00 1.823556397883352886e+01
-3.188506311455570064e+00 -6.178886698338626360e+00 1.862141439870181614e+01
-2.278030200962558816e+00 -2.240362222163578831e+00 1.791279996634818517e+01
-2.426665693133632562e+00 -1.648179917132853278e+00 1.785426649037185953e+01
-1.102715615709712971e+01 -5.814801604645417399e+00 2.753754534427185519e+01
-9.983862374858029298e+00 -6.773091432780949717e+00 2.658748147296726927e+01
-9.043140023989719722e+00 -7.805441672904665396e+00 2.519381970065075649e+01
-9.120931516895831592e+00 -7.679195206543750096e+00 2.584669480510757467e+01
-1.149574532788420633e+01 -4.972483576481793399e+00 2.821456452535012005e+01
-6.582551158968444227e+00 -8.491557193229452238e+00 2.103015605217610329e+01
-6.202161764733030935e+00 -8.520844057203849076e+00 2.073044035707618349e+01
-6.657847509776572359e+00 -9.097825653979482396e+00 2.227937605657739439e+01
-8.075563392048520583e+00 -8.198929027260140501e+00 2.365881150964274582e+01
-3.964250794297843772e+00 -7.177184528781205053e+00 1.900963304460565695e+01
-5.193636481489209977e+00 -7.571715790914789856e+00 1.947269228411436970e+01
-3.576445652633353234e+00 -6.678125025974271267e+00 1.881556082954263331e+01
-2.254785276426576779e+00 -5.191507629929891898e+00 1.833134341319044225e+01
-2.092131727796787910e+00 -2.980407843775733756e+00 1.798594978761394003e+01
-2.590912579863736465e+00 -8.917265241181141500e-01 1.785041234177951353e+01
-1.192064979831307525e+01 -4.026779433291324928e+00 2.877723261221041895e+01
-5.716376957010552040e+00 -8.598163093784570776e+00 2.049711144352568226e+01
-6.388129270147484995e+00 -8.958560457546957068e+00 2.142064025845481723e+01
-7.389638158992787531e+00 -8.786027287831966959e+00 2.314074140286752623e+01
-1.869135088069133532e+00 -3.868479218592880464e+00 1.807371483251221989e+01
-1.709443744056919012e+00 -4.703973992025422213e+00 1.823566481184653654e+01
-2.613804507074043215e+00 -6.225890863274538667e+00 1.870325349539945137e+01
-2.228731957815684339e+00 -5.902297409569902342e+00 1.857812041848025331e+01
-3.002116667273746931e+00 -6.725182008781386500e+00 1.889740855453510449e+01
-1.610038680616839191e+00 -2.440279905665537097e+00 1.796449988733674274e+01
-3.274308695138937075e+00 -5.275793546410156853e-01 1.785335040899491688e+01
-1.046938725054066666e+01 -6.310255053464305597e+00 2.762653043444836243e+01
-9.575458723557057183e+00 -7.171707756943676237e+00 2.663441635053971623e+01
-1.015910281346217303e+01 -6.601134993644140359e+00 2.713681437648130768e+01
-8.319166340952552474e+00 -8.172418487508753770e+00 2.433938963853607618e+01
-9.198733119804838765e+00 -7.552915760555698022e+00 2.649963729506592358e+01
-1.224892184229472925e+01 -3.333816255727386935e+00 2.864702565564808978e+01
-1.112400973341896737e+01 -5.561676222668008762e+00 2.823257830619925457e+01
-5.337260144337076184e+00 -8.313012039696086930e+00 2.001262793652007588e+01
-7.614309314049278576e+00 -8.649426187169032332e+00 2.365344825238516790e+01
-4.195555757473087510e+00 -7.632668445720583783e+00 1.933468059722772381e+01
-3.328881007780000623e+00 -7.406220659315649435e+00 1.918333145514942473e+01
-1.560993615369494325e+00 -5.396398376525517904e+00 1.849211987560905968e+01
-1.758700150049629318e+00 -1.848161351375218420e+00 1.790598461194792890e+01
-2.668323462137642821e+00 -4.255939128430225038e-01 1.787571576160932807e+01
-1.907387608809077095e+00 -1.255949926352983637e+00 1.784745441982195402e+01
-9.669052867836109399e+00 -7.036793207870229772e+00 2.719602230151399169e+01
-8.483794401948740571e+00 -8.250796522567679148e+00 2.518964030818667865e+01
-8.664723995685523761e+00 -8.027664414502275747e+00 2.585075345816114734e+01
-1.159225600177113868e+01 -4.719888924716260981e+00 2.890749636702638981e+01
-1.066968467803562426e+01 -6.036774795197162646e+00 2.818775507922919132e+01
-1.122066453624979232e+01 -5.308883573217231699e+00 2.892577705917364383e+01
-4.925547027945114564e+00 -8.057419420435140367e+00 1.972854278620668822e+01
-6.080764836823381536e+00 -9.356004891414967162e+00 2.201799857868696009e+01
-6.927680662532620381e+00 -9.237187363411463181e+00 2.313538546320669553e+01
-7.838976541178855229e+00 -8.512844122881437769e+00 2.416609728621369868e+01
-1.461394234594314945e+00 -3.032350484437702942e+00 1.802300343434050589e+01
-3.721227266038504400e+00 -7.709419050679033880e+00 1.935440528970939411e+01
-2.427732861363566919e+00 -6.772240121891005771e+00 1.897920809954237598e+01
-3.074964706762523647e+00 -3.956975471485056628e-02 1.788741514959655987e+01
-2.058863473601151295e+00 -6.697106732389258577e-01 1.787782364598081131e+01
-8.824217448720466095e+00 -7.815345672152440137e+00 2.673425871362869444e+01
-5.416054004957649326e+00 -9.113393166402918411e+00 2.095366545948403569e+01
-4.657687002335202386e+00 -8.542669086934647993e+00 1.998415857517898786e+01
-5.752292069886323134e+00 -9.293403405456462707e+00 2.141546045836585677e+01
-7.073411833360105483e+00 -9.205202673972134875e+00 2.381662707165364168e+01
-8.386659038957613443e-01 -2.711340492144938885e+00 1.808071999966729848e+01
-1.164134288796847772e+00 -4.216477305938491682e+00 1.813998287571000390e+01
-2.760134615601169017e+00 -7.173342486086342618e+00 1.913307343719501574e+01
-1.002006270147079103e+00 -4.804883125587171122e+00 1.836258581453504846e+01
-2.099671956727934496e+00 -6.392742993296597120e+00 1.882289136075825908e+01
-1.657637227666632462e+00 -6.125513511492720831e+00 1.872912446961732513e+01
-1.337724727979541450e+00 -1.631049783935695219e+00 1.794501269150869405e+01
-9.911730428026261919e+00 -6.805496594899972607e+00 2.771549212682000274e+01
-1.011194073354670664e+01 -6.532175988407932898e+00 2.827681536745577162e+01
-9.276478959360044740e+00 -7.426710687313998527e+00 2.715208113047759397e+01
-8.053244706692133548e+00 -8.479072883135495786e+00 2.472226635501476011e+01
-1.076641427148357089e+01 -5.783863448824805964e+00 2.888197931724953449e+01
-4.426709801540003042e+00 -8.087846929191309542e+00 1.965953034895356311e+01
-5.773315541760712932e+00 -9.753533789088589145e+00 2.261319094459305035e+01
-7.459807413380172392e+00 -8.880568906922661654e+00 2.414574480014945124e+01
-7.680439321733847358e-01 -2.006146736751620363e+00 1.804254708198556401e+01
-1.312758751707619576e+00 -3.624415027746546780e+00 1.808149810390299805e+01
-2.691833477085650017e+00 -7.635837556953967820e+00 1.935741109293002893e+01
-2.241738770807280456e+00 -7.318295047772308770e+00 1.925499596952543868e+01
-1.237559683189349391e+00 -9.454944614526052948e-01 1.795751715999363540e+01
-8.035756992638773966e+00 -8.528459852565735133e+00 2.584578408767737301e+01
-8.286619310032849128e+00 -8.249700320903277984e+00 2.650702692839114505e+01
-7.924547069446788328e+00 -8.696047656285237792e+00 2.518542283420637773e+01
-1.031211103352688951e+01 -6.258807151015798986e+00 2.883794138015475284e+01
-4.886566212369961804e+00 -9.085277481189242721e+00 2.069656768921761625e+01
-3.946699497826633429e+00 -8.657434213894589448e+00 2.001351784837302716e+01
-4.291902796938996012e+00 -8.983778890725398369e+00 2.044141955082593753e+01
-6.196546265026242395e+00 -9.694298488877405973e+00 2.317041528832790576e+01
-5.232394855157009417e+00 -9.802687498880462869e+00 2.201103690093474796e+01
-6.625071176395339378e+00 -9.486637954325779276e+00 2.365156780424472061e+01
-7.864997325995174426e-01 -3.353180106958673523e+00 1.813026567116870069e+01
-3.478396522196203211e+00 -8.241158920640698327e+00 1.969884905779619544e+01
-3.149042589880875820e+00 -7.883220939011443384e+00 1.949048985504530762e+01
-8.396755830885378469e-01 -5.393942945867417293e+00 1.858541338657608932e+01
-1.191455549211914100e+00 -5.820661396319039227e+00 1.868559910330383289e+01
-1.719082382890014804e+00 -6.791308630640167543e+00 1.904309040102017647e+01
-9.354218876664988969e+00 -7.300500034571387964e+00 2.780442477369010845e+01
-8.535764741535095013e+00 -7.987042829372829722e+00 2.721233682997977965e+01
-5.115726229020473248e+00 -9.628556517495455935e+00 2.141027358881616749e+01
-7.219342532217393860e+00 -9.173200226914834943e+00 2.449866927975311270e+01
-7.602247532614363479e+00 -8.826942798237329413e+00 2.467356967904506959e+01
-1.983006661954975214e-01 -2.381249772807048082e+00 1.814005427305730578e+01
-6.008663357504757663e-01 -1.289547329219368876e+00 1.806606638575123824e+01
-6.378598974241089792e-01 -3.945255059514352958e+00 1.818873950617235380e+01
-4.845442392101497187e-01 -4.583163158466789788e+00 1.834180463313792586e+01
-1.085958532612795402e+00 -6.348929417520843721e+00 1.888019509577010879e+01
-9.435084784974634431e+00 -7.101435820305981750e+00 2.858237914733438245e+01
-9.869758573185404060e+00 -6.667710393685575276e+00 2.880928720392255471e+01
-8.746538475777963839e+00 -7.764793778696977178e+00 2.780915665397954228e+01
-3.235869317719979321e+00 -8.772158348887957757e+00 2.004280082977368238e+01
-3.398164221381930528e+00 -9.318860459443881084e+00 2.069910043425634427e+01
-5.349036242607089875e+00 -9.976822202188358801e+00 2.260909171959272257e+01
-5.465778572518210865e+00 -1.015114896532685407e+01 2.320541475579526036e+01
-6.766461303532785188e+00 -9.449381699129011380e+00 2.424667120161269906e+01
-2.075319636398186285e-01 -3.054783933127518392e+00 1.818390081686944271e+01
-2.645829496373107048e+00 -8.318809680366378245e+00 1.978709406605784338e+01
-6.773532493816940558e-01 -5.982881585052879814e+00 1.880816211462301979e+01
-1.541423106813103905e+00 -7.433701958243858599e+00 1.936428856295051659e+01
-2.055438783400852287e+00 -7.865183201899574428e+00 1.953117744888238860e+01
-7.448082004966681602e+00 -8.917324953716473601e+00 2.650033668622962324e+01
-7.908745487847159694e+00 -8.471597004086765637e+00 2.716275447058079706e+01
-7.406769435635168541e+00 -9.029183372564297372e+00 2.584122140216378583e+01
-3.926230849890355756e+00 -9.424702348038627164e+00 2.089853607807237879e+01
-4.338093790166222874e+00 -9.747115843383587830e+00 2.138301857557665642e+01
-4.698129637512093559e+00 -9.975205509717994801e+00 2.200105085168243946e+01
-6.322716712598660749e+00 -9.735880930785462795e+00 2.416722804591351448e+01
-7.365397238845845962e+00 -9.141197051182176736e+00 2.518115326861704162e+01
8.582007111758827023e-02 -1.716145861440013576e+00 1.818343035165402810e+01
-1.114989297712303262e-01 -3.674016000780073732e+00 1.823748721297458886e+01
-2.407510894651725963e-01 -5.466543873001106668e+00 1.867594192210937010e+01
-1.028075783471855909e+00 -7.002782306789541167e+00 1.919759531384431028e+01
-9.515908097167027790e+00 -6.902324740242514522e+00 2.935998201559511145e+01
-8.925296628993832471e+00 -7.526376895617562290e+00 2.843881858359275583e+01
-8.138526259846461386e+00 -8.229286970775833154e+00 2.781388242249899179e+01
-2.371579385298013598e+00 -8.711163565596773850e+00 2.022291271092433362e+01
-5.549728349388958648e+00 -1.017896769061010076e+01 2.386988863933196470e+01
-6.569422407487428117e+00 -9.620783900519198184e+00 2.467718221767219688e+01
3.715591039926453565e-01 -2.756359435543360270e+00 1.823752508901311131e+01
1.953592461432026584e-01 -4.949927141685686927e+00 1.854357328625288659e+01
-5.149407987790548535e-01 -6.572045087750637116e+00 1.903094688540830148e+01
-9.169993716348155965e-01 -7.570494159713829774e+00 1.964268929786730666e+01
-9.006019318434939080e+00 -7.327397576581880401e+00 2.921666603578072596e+01
-8.397811073825144135e+00 -7.935466578863417553e+00 2.840519365442409594e+01
-7.489377388453596573e+00 -8.805504237049078142e+00 2.715919888539750104e+01
-2.765176860214113130e+00 -9.013430062761365491e+00 2.039338435625630908e+01
-3.560491114576358918e+00 -9.865654954242092600e+00 2.135576244363642218e+01
-4.280444044938338521e+00 -1.032191282912123143e+01 2.259132316427389142e+01
-4.664770413434128571e+00 -1.040960579897656402e+01 2.319154887598076797e+01
-6.816126673645004352e+00 -9.505705738930124937e+00 2.518705545077473218e+01
3.852042231134052974e-01 -2.211356084856015425e+00 1.823646859387288544e+01
4.149849703180968907e-01 -3.402757980818066130e+00 1.828622348789334140e+01
3.934069627890517395e-01 -4.131100259501424787e+00 1.842310580277126064e+01
-1.977980800022026919e+00 -8.408894409314136453e+00 2.005241180061375772e+01
-1.542560424542957165e+00 -8.021982643529959489e+00 1.979226258180718290e+01
-5.101173420718894264e-02 -6.153803316046267291e+00 1.893582078293158233e+01
-6.655357523086570026e+00 -9.430074318923859167e+00 2.620381119763989730e+01
-6.894867866383037835e+00 -9.190003681103366517e+00 2.693710923941152657e+01
-7.530706866045060011e+00 -8.693587192820100285e+00 2.781858829266385769e+01
-7.010060614770400100e+00 -9.285765790431439015e+00 2.569296669624177909e+01
-3.661579764618317689e+00 -1.013356234151945401e+01 2.196528067724752731e+01
-5.085906963657516044e+00 -1.035243415777665987e+01 2.371658699799651160e+01
8.740095726696237577e-01 -1.884534670924912669e+00 1.831607239739634707e+01
-2.691886838621461830e+00 -9.680976075845563855e+00 2.122550126697892381e+01
-1.900537090417680153e+00 -8.952572227077812528e+00 2.057366620451770345e+01
4.130174948982944794e-01 -5.735519433640024367e+00 1.884067762716344774e+01
3.580148777879230138e-02 -6.690102034950695220e+00 1.926318576140024774e+01
-3.873488716400434462e-01 -7.052196605152263764e+00 1.941697547046777572e+01
-7.951153335808316847e+00 -8.219658291769443181e+00 2.876195782664664691e+01
-6.300359742397239060e+00 -9.574499595723073853e+00 2.671501934971979253e+01
-6.019947779239690711e+00 -9.985468550171944457e+00 2.468348579864761660e+01
-6.266827942047902056e+00 -9.870230985593734019e+00 2.519295118654083865e+01
-6.324778179372882114e+00 -9.700416499111293334e+00 2.592360069773504350e+01
8.401758186238666992e-01 -1.261015538142169268e+00 1.830661771401428695e+01
9.078354721491012080e-01 -2.508019110233669746e+00 1.832551516897650146e+01
9.416518251707572951e-01 -3.131478516088536779e+00 1.833494493103536271e+01
8.985308081094129928e-01 -4.588188794934301207e+00 1.860862163452635443e+01
-2.294462503048435575e+00 -9.254699990660368414e+00 2.074397291645876606e+01
-1.030182617234659981e+00 -8.178614203798794335e+00 2.005300785475597891e+01
-1.123467814283920285e+00 -8.670000669439906105e+00 2.048727175882336127e+01
8.769408253137944698e-01 -5.317415390622739935e+00 1.874556796374751144e+01
-7.557831589989688403e+00 -8.571119492540001161e+00 2.844896903742080241e+01
-6.883638579812793701e+00 -9.083681118358933659e+00 2.779149003122686068e+01
-5.633675340987529090e+00 -1.020681529470004278e+01 2.453435437705194744e+01
-3.863258088860317407e+00 -1.066818516924073634e+01 2.317764019271766429e+01
-3.762435173840733338e+00 -1.040089800074050430e+01 2.257325759690203171e+01
-4.706021409794755250e+00 -1.055373112641126809e+01 2.422771788959020611e+01
9.200973790333725200e-01 -3.859660272114911361e+00 1.847176458353468931e+01
1.537745272156753051e+00 -2.368103090145971201e+00 1.851531882572339782e+01
1.571389804166088755e+00 -2.991675385093897521e+00 1.852463627310788397e+01
5.920312835308382260e-01 -6.291565062155048516e+00 1.920683714484206916e+01
1.090212541345282476e-01 -7.123868007904174959e+00 1.960074853282831242e+01
-2.598042005332262261e-01 -7.532176467106149076e+00 1.980284379366490199e+01
-5.960415739583471151e-01 -7.902133627470355748e+00 1.997597078680205129e+01
-6.491608989834510623e+00 -9.381664274911022616e+00 2.730912474579492155e+01
-7.112099121902613064e+00 -8.845139484753154591e+00 2.830518585509175722e+01
-3.145924791818364152e+00 -1.006113254578790794e+01 2.177469203089185257e+01
-3.890648110645178015e+00 -1.076432305330231287e+01 2.386859510562084452e+01
-5.717623574286749388e+00 -1.023469131498017681e+01 2.519882842366153142e+01
1.495265911233374378e+00 -1.588287211903091745e+00 1.850351662067078351e+01
1.422394277580446786e+00 -3.624888162477306608e+00 1.860384297866022507e+01
-1.823096534520283640e+00 -9.496285296875941029e+00 2.109504061869731828e+01
-1.216775806435785423e+00 -9.161388272749880102e+00 2.092159114701434675e+01
-5.171987815420391321e-01 -8.335410575588653614e+00 2.031393124640452541e+01
1.148029393631847528e+00 -5.892844168632777269e+00 1.915022262882850512e+01
5.876139133579307838e-01 -6.808355813419189495e+00 1.949568091517598489e+01
-5.685815935088471385e+00 -1.014190390590523627e+01 2.583315890255269665e+01
2.202868417138711621e+00 -2.851686279180195793e+00 1.871452002775654933e+01
1.387225146204935644e+00 -4.264436831466998257e+00 1.871817220573026219e+01
1.540326676398676264e+00 -5.246860674132153513e+00 1.896727588515311425e+01
-6.111102295098175263e-01 -8.826878233368901761e+00 2.074819564538470829e+01
-1.323041763107824231e-01 -8.011990850635971384e+00 2.018854538857278413e+01
-6.236653071645721802e+00 -9.473719606601569865e+00 2.776437465093971824e+01
-5.654008480210597654e+00 -1.004911845474376975e+01 2.646744942416845703e+01
-5.945014868441561795e+00 -9.719063743550687917e+00 2.722665175161494489e+01
-6.304494417403478934e+00 -9.291590635103252893e+00 2.847330005337131098e+01
-2.731605722437956185e+00 -1.025649110795285601e+01 2.219356241722919165e+01
-5.127132750191937482e+00 -1.047529185340379954e+01 2.521621772339639378e+01
-3.210321862716422281e+00 -1.066097609121889356e+01 2.312798008006935646e+01
-4.325875649437965542e+00 -1.075517074497122572e+01 2.473911697488019001e+01
-3.369607610770185779e+00 -1.081289869541199344e+01 2.369914345001830824e+01
-5.299569447954756818e+00 -1.034874431985594434e+01 2.566192442088701853e+01
2.052096066988636558e+00 -2.043334932614509825e+00 1.867041401758476837e+01
2.053397261796757522e+00 -3.485108654206777956e+00 1.879368702263287361e+01
-1.850190594808869715e+00 -9.879990835668207794e+00 2.174020870659574101e+01
1.722159241041332001e+00 -4.682802994410774744e+00 1.892007483939310575e+01
1.904019023425730817e+00 -4.118715183873507435e+00 1.887285926494420707e+01
1.419411451194699580e+00 -6.468749328432728873e+00 1.955498657186459255e+01
4.522759680778562497e-01 -7.437753765457364885e+00 1.992162297869830212e+01
-2.915948978663887470e+00 -1.048472976064612183e+01 2.271768876590968134e+01
-3.917981662461929027e+00 -1.086050328415075938e+01 2.455942254105963229e+01
-4.881251031902907656e+00 -1.046286826471631493e+01 2.612512872586373902e+01
-1.281103397235478614e+00 -9.628737851207580078e+00 2.149398700300904963e+01
-5.703153825990743275e-01 -9.289600824789497224e+00 2.135909360962941506e+01
-4.747126865129645823e-03 -8.492020405730354327e+00 2.057436408087122715e+01
1.811376454487137133e+00 -5.822508926378836769e+00 1.937174276278177132e+01
1.138717100186196207e+00 -6.926410925411339292e+00 1.972755165233917651e+01
5.596989278574918680e-01 -8.010016675734073388e+00 2.036964962751812891e+01
-5.622149724965730400e+00 -9.956186594057113481e+00 2.710271728055234419e+01
-5.590328163927747340e+00 -9.863357352979633674e+00 2.773725104360053351e+01
-1.877259994243517083e+00 -1.026342269939681096e+01 2.238544323751234444e+01
-2.317965511164085335e+00 -1.045152683923171288e+01 2.261208020127062568e+01
-4.536643072800215393e+00 -1.071589383920124838e+01 2.523359996601330835e+01
2.117122012227461880e+00 -1.291924011447912912e+00 1.869098174865018080e+01
2.682070484590592940e+00 -3.345287933892536980e+00 1.898352841979037109e+01
2.505677561550771149e+00 -2.320363185368785164e+00 1.880631094017989469e+01
2.204226002395142103e+00 -5.176351728358710602e+00 1.918868440702358313e+01
2.386099732428864417e+00 -4.612570378259522208e+00 1.914169968736502625e+01
1.125320018221577900e+00 -7.527147332609690267e+00 2.016444633586541713e+01
-5.552764600783912208e+00 -9.760284174249854061e+00 2.836406878134049236e+01
-2.557300816884570782e+00 -1.065376979882100805e+01 2.307826794282801330e+01
-3.945288047545722598e+00 -1.095684953325806532e+01 2.525099412245907615e+01
-2.716423029685655521e+00 -1.080575763028732439e+01 2.364978831581074559e+01
2.567241501204640119e+00 -1.718471870965849968e+00 1.882552870476978768e+01
2.830535986939906490e+00 -2.711546474441711485e+00 1.890454073433901172e+01
-1.094736887996294206e+00 -1.001732396968083805e+01 2.221623416857726596e+01
-7.391525809518656454e-01 -9.761181036630759422e+00 2.189303159102617613e+01
8.256188831295588337e-02 -8.875564339069212494e+00 2.110329958548872753e+01
2.534097767938018553e+00 -3.978821713509069546e+00 1.906262074609013268e+01
1.690845443465278430e+00 -7.044618540835005049e+00 1.995922090645845870e+01
1.284479034402197684e+00 -8.070579755175840475e+00 2.075254547573906549e+01
-5.042519394953905554e+00 -1.026659353964588384e+01 2.684550570153536952e+01
-1.904305796395842743e+00 -1.064656638840411595e+01 2.302847385867245933e+01
-2.875485433868133711e+00 -1.095776073288251240e+01 2.422107659377643785e+01
-3.259540565765533415e+00 -1.105361900666886577e+01 2.525491284694009764e+01
-4.347988832808563409e+00 -1.070207231595248665e+01 2.596519656865553927e+01
-1.155393203644645261e+00 -1.043986721058036871e+01 2.291604721872338501e+01
-2.410343258656021670e-01 -9.547578844235577122e+00 2.182931906921448117e+01
1.697934954208473179e-01 -9.258775014371195766e+00 2.163199039001505142e+01
6.058855584043907339e-01 -8.573239027867504802e+00 2.092606060662576795e+01
2.082986284278162348e+00 -6.398514839774529506e+00 1.977615419186319912e+01
-4.936076615688322455e+00 -1.017710511920381755e+01 2.766296215901768818e+01
-5.101269751535873809e+00 -9.981497193115311362e+00 2.820692273236073433e+01
-3.067548245672951701e+00 -1.100567944416533095e+01 2.473807649549109655e+01
-3.507370459326788925e+00 -1.105878206517722262e+01 2.571654918836584613e+01
2.900870102502219439e+00 -1.042498766784101472e+00 1.895253835910840579e+01
3.308164543234685784e+00 -3.205337154708426617e+00 1.917345708980824526e+01
3.159965029581997875e+00 -3.838889502582338853e+00 1.925235617165597191e+01
3.012251634723843274e+00 -2.144865148905540586e+00 1.895999227943730858e+01
2.474937768223368639e+00 -5.752167777858394615e+00 1.959299707261793699e+01
-1.979253861962936289e-01 -9.893446156321322960e+00 2.229182718498634586e+01
6.932841714986083259e-01 -8.956640342586341674e+00 2.145502277571135252e+01
2.863504771353782452e+00 -5.105841930220329061e+00 1.940983390443040335e+01
3.011768314725226325e+00 -4.472284597558630281e+00 1.933115144287019049e+01
2.288917100350893907e+00 -7.059198993498626784e+00 2.025277299196613967e+01
1.878120165922504192e+00 -7.487780772432174992e+00 2.046459611971257431e+01
-4.462896007200545689e+00 -1.057700168487529879e+01 2.658810042476629931e+01
-1.899217022153214307e+00 -1.084678980572637741e+01 2.377402324453355931e+01
3.115108424091656225e+00 -1.631802735953779671e+00 1.900731107951216359e+01
3.456400222772276987e+00 -2.571423349973416261e+00 1.909446066199689085e+01
-4.063359735226179659e-01 -1.023314661986688634e+01 2.280342278374389764e+01
-1.412340735074573805e+00 -1.073024803936157845e+01 2.344945508216914121e+01
2.570609712969654792e-01 -9.642149396289415364e+00 2.216132293234374018e+01
1.216923054735876919e+00 -8.654500086877066067e+00 2.127743823972036097e+01
2.476243911682971088e+00 -7.502311383439167258e+00 2.075961290360539380e+01
2.065345837733464140e+00 -7.930823660742425396e+00 2.097138048965114976e+01
-4.589610774374007995e+00 -1.042001738678508360e+01 2.717041731632152235e+01
-5.515137342271082765e+00 -9.657043831927239808e+00 2.899158740391432332e+01
-4.567979878055380638e+00 -1.024971888345226212e+01 2.808969979079340717e+01
-3.838890147006142062e+00 -1.090629362973466066e+01 2.600574866143197994e+01
-2.382059918608348426e+00 -1.110243020880555420e+01 2.474214752946358686e+01
-2.574245581202021960e+00 -1.115032445409691952e+01 2.525880973982548383e+01
-3.069331131059628071e+00 -1.116074911490839483e+01 2.618195457095121625e+01
3.825730053278260989e+00 -3.048483551099039790e+00 1.938939779287925802e+01
3.530137513432497709e+00 -1.978648450164432138e+00 1.913444872662391916e+01
3.603827509377468541e+00 -1.385811226784189554e+00 1.917430211958573238e+01
7.810032413415408659e-01 -9.339970076589674264e+00 2.198441016401415737e+01
1.698331463863264723e+00 -8.331834426719520792e+00 2.118754938665243159e+01
3.834871464469314706e+00 -4.297424032138928318e+00 1.969197801773356815e+01
3.665463885609373307e+00 -3.592746339416975854e+00 1.944124169984048578e+01
2.860209964844713681e+00 -6.190904081695240535e+00 2.002836836044496494e+01
2.750488949042898756e+00 -6.662526690158372844e+00 2.024633461392172507e+01
-4.611281332877796402e+00 -1.009986002107643621e+01 2.867686391479317365e+01
-4.281174388840544687e+00 -1.049116579566090479e+01 2.758819823306496843e+01
-1.894087366729332311e+00 -1.104693332097222225e+01 2.451876262542609552e+01
3.677924279773651328e+00 -7.927613173865247775e-01 1.921408655060926662e+01
3.166277543752475498e+00 -5.605585040097293970e+00 1.984061059640584190e+01
-4.737625922232676090e-01 -1.055962464456783501e+01 2.350795475919115773e+01
3.473300938738883126e+00 -5.068816694750409191e+00 1.969939191363105735e+01
2.885706350118358188e+00 -7.073783092011285412e+00 2.054785558652364941e+01
-4.044810866490224477e+00 -1.069106077128692966e+01 2.705036141907773484e+01
-3.732622153185117142e+00 -1.085580883878349034e+01 2.675898593866496711e+01
4.119507981267656938e+00 -2.538871085889321311e+00 1.939223745911449015e+01
4.002135204052856388e+00 -1.795202765853026738e+00 1.934807987301626753e+01
3.444319287654415973e-01 -1.002598425752968936e+01 2.269005077869008957e+01
-1.429119886268643835e+00 -1.090798677662826854e+01 2.410644133830235347e+01
1.304587953165339043e+00 -9.037887681365159409e+00 2.180675839976677821e+01
1.828397962210071670e+00 -8.735799579459838426e+00 2.163146478214509827e+01
2.252557982785321489e+00 -8.373830429183911406e+00 2.147831967993845481e+01
4.196954347867016821e+00 -3.525853131925222428e+00 1.968439394905346518e+01
-4.058223535622241585e+00 -1.040867894982617159e+01 2.841638739467806118e+01
-1.888909056486239191e+00 -1.124703330572884497e+01 2.526266250401999969e+01
-2.431586912594831063e+00 -1.123473093371895359e+01 2.600075424499865306e+01
-9.203723657045973505e-01 -1.081393915613103651e+01 2.387044833727411586e+01
4.227746352432179222e+00 -1.135286635606592043e+00 1.945628354751736211e+01
3.468641624297040149e+00 -6.104700217886741775e+00 2.027265527891789176e+01
3.973385221770222575e-01 -1.028578400434412110e+01 2.330136824415711061e+01
8.681225405241996818e-01 -9.723691352971714608e+00 2.251325441010235195e+01
1.392328486502510065e+00 -9.421172002441082327e+00 2.233566486225053893e+01
2.663571192306923408e+00 -7.945348447137877912e+00 2.126654936947375774e+01
4.085297510180575742e+00 -5.031792490067545032e+00 1.998863657102243607e+01
3.775739897674430523e+00 -5.568279977319399165e+00 2.013043755891131426e+01
4.568260303813501011e+00 -4.003324392320164904e+00 1.997921341985363952e+01
3.177262467200756557e+00 -6.589253500161492028e+00 2.041025501712822532e+01
3.072971104428163791e+00 -7.516852159272821687e+00 2.105479699432401119e+01
-3.626204730261251896e+00 -1.080526111616053164e+01 2.751252824960731047e+01
-3.505171820124321158e+00 -1.071749886321572376e+01 2.816116476470954311e+01
-4.121524261253844301e+00 -1.021816568490652521e+01 2.914549887821056373e+01
-1.092846150986085396e+00 -1.102668687092782029e+01 2.462254634257125474e+01
4.412608374355412977e+00 -2.982456440958963562e+00 1.964262163537271633e+01
4.651655915001182251e+00 -1.800328595612577187e+00 1.963861983320684601e+01
4.091138606981976622e+00 -5.511116354133982487e-01 1.940155693868754128e+01
8.747445294740466837e-01 -1.008006044190531902e+01 2.305823024635976282e+01
4.502133830805528647e-01 -1.054543803228889942e+01 2.391218127769294099e+01
1.915884400605126769e+00 -9.119142069278012741e+00 2.216066947437832013e+01
4.402077620231259480e+00 -4.551276066974993206e+00 2.002866037922039055e+01
3.479988415204410934e+00 -7.088376311948660913e+00 2.084319456773394563e+01
-3.195781954891784071e+00 -1.104252337770177839e+01 2.680321720636197824e+01
-2.631734502795897157e+00 -1.126262088401401762e+01 2.664638991940673662e+01
-4.277107823133149411e-01 -1.089775923061529461e+01 2.429204504868537740e+01
4.785334736858443350e+00 -2.506079965548182464e+00 1.969055859600896596e+01
8.832205749466639499e-01 -1.031593490076373598e+01 2.359507219924194388e+01
1.423452249139554482e+00 -9.750197228489684065e+00 2.285255646563734899e+01
2.439867732175241777e+00 -8.817063885177928384e+00 2.198564889765498620e+01
2.850849141992408242e+00 -8.388603334142553436e+00 2.177409533910427442e+01
4.697604906637792510e+00 -4.994752618237494168e+00 2.027892254330028621e+01
4.388196638204963307e+00 -5.531256301834899247e+00 2.042117797148899427e+01
4.078688362617052476e+00 -6.067603403437766829e+00 2.056334113852268430e+01
5.009557646531515473e+00 -3.238588362467124782e+00 1.998427595000208612e+01
3.771021909424673080e+00 -6.603890065827121347e+00 2.070550525336173919e+01
-3.069416725974854820e+00 -1.088989742253622062e+01 2.800327657334269560e+01
-3.384276518208318763e+00 -1.062984126512681016e+01 2.881194916254408156e+01
-3.002994054257522194e+00 -1.102562155765789598e+01 2.753583372328163748e+01
-1.073989413391275072e+00 -1.118641396664081533e+01 2.521969701787250884e+01
-1.845062116093980409e+00 -1.132008539499506306e+01 2.603345249691390961e+01
4.589664293069454892e+00 -5.515603881669276509e-01 1.962457656200444234e+01
4.971460345944402448e+00 -1.023693207164390051e+00 1.979024033370750146e+01
6.461790015635804352e-02 -1.098153629065224557e+01 2.471335356351260160e+01
1.405093719701800525e+00 -1.013414976787366406e+01 2.342606929902031254e+01
4.939237245525192499e+00 -4.480368837953868422e+00 2.027327816825117779e+01
3.260235789503596493e+00 -7.959922283088997297e+00 2.156209169969422135e+01
-3.631985724674807958e+00 -1.033641717584746189e+01 2.962818875471837998e+01
-1.364874697679518745e+00 -1.132235946246703939e+01 2.573707352640765578e+01
-2.590177952160616082e-01 -1.112579578956865056e+01 2.517673435647059321e+01
-2.379765522772504305e+00 -1.124601499170046637e+01 2.756222337064374273e+01
-2.194405338536219219e+00 -1.136444100618010111e+01 2.711511252416187645e+01
1.899923686661729283e+00 -9.425502562984680921e+00 2.261761525298199871e+01
5.031638848767919781e-01 -1.080547991074630154e+01 2.452363803933482700e+01
1.219233511333594588e+00 -1.049687308647269290e+01 2.415970849779149177e+01
2.657047771147469817e+00 -9.123615706526207347e+00 2.256932360744707466e+01
5.148019926484376008e+00 -3.942555929006415827e+00 2.023068612280664880e+01
5.000859338243172303e+00 -5.494037191708072143e+00 2.071209987239401684e+01
4.691096833857157478e+00 -6.030713563138662359e+00 2.085428356103360414e+01
