1.854371022298720817e+01 9.845796449379328408e+00 3.603503862789982293e+01
1.807591035799784152e+01 1.260284020236135305e+01 3.809923748993759318e+01
1.871782082903276034e+01 1.080617007961006237e+01 3.705956395576453843e+01
7.180845629998676038e+00 1.677148654446081011e+01 4.316688297591230850e+01
6.616652425034152074e+00 1.703834328594843228e+01 4.323993953400925250e+01
1.521675404295278078e+01 1.510488421498251377e+01 4.090049560310938404e+01
1.576304396975562305e+01 1.477503311513138406e+01 4.051591217187791472e+01
1.424563744143196331e+01 1.541037001034147380e+01 4.134928237584688304e+01
1.131411598280790365e+01 1.647372150058053464e+01 4.223071894291533823e+01
1.078836538566700121e+01 1.634195997632131281e+01 4.242845742284792721e+01
1.740049304042942069e+01 1.378644121736973815e+01 3.936329011022542090e+01
1.630943363664712464e+01 1.444513092468189619e+01 4.013127289895750494e+01
1.685487094234070682e+01 1.411582230327097243e+01 3.974732451710102055e+01
6.150550910286315620e+00 1.841540385029601978e+01 4.300119633693773835e+01
6.746254760410842266e+00 1.809941203999251158e+01 4.295290008697251238e+01
5.130947083745300397e+00 1.896641896359119883e+01 4.310872985054152196e+01
1.026261478265507954e+01 1.621019792583097185e+01 4.262619603382258759e+01
1.083040528640709610e+01 1.589703261263039025e+01 4.255934941831274898e+01
1.172076942804161881e+01 1.596839698661691287e+01 4.227336320186172003e+01
1.064780243389936309e+01 1.550968513837170271e+01 4.265293425235595492e+01
1.001898307268948329e+01 1.569399463253243354e+01 4.275096881089614698e+01
9.573133321686199793e+00 1.626518406054500687e+01 4.275541573086223934e+01
7.837803136441003460e+00 1.644161148026042696e+01 4.308279857346095554e+01
7.540219397748454178e+00 1.633719439844263732e+01 4.317831718834635524e+01
6.494001617492707545e+00 1.786740375219483568e+01 4.305642626056138056e+01
5.991787549797513712e+00 1.771942095807742135e+01 4.322115480864909642e+01
5.540623237499985088e+00 1.856863814872254181e+01 4.308108418075419621e+01
5.554274310170077555e+00 1.831166127470662630e+01 4.317816889296815930e+01
5.489573547772541140e+00 1.757144013517687142e+01 4.338588311893319371e+01
6.052950361506533206e+00 1.730496736319926754e+01 4.331293258648140210e+01
8.494242164877146450e+00 1.611199743551566854e+01 4.299878071143551495e+01
9.151052055263216189e+00 1.578219721276926890e+01 4.291471579838604811e+01
7.899464325026356981e+00 1.590305357900231975e+01 4.318974984058797162e+01
8.258443933593140329e+00 1.546922829513698261e+01 4.320117595068702343e+01
8.994162074159916642e+00 1.535357726493617925e+01 4.304959384084102680e+01
7.671782519359013008e+00 1.572427541973975984e+01 4.327350712974502756e+01
8.882379945607654648e+00 1.520769864146928718e+01 4.315872672871867621e+01
1.319610305409172746e+01 1.559682574554097734e+01 4.195594039686503862e+01
1.885021328998282542e+01 9.247161612569676947e+00 3.615907774719062928e+01
1.884227851946223709e+01 1.149099580937504861e+01 3.779125059802998976e+01
1.883216096109303450e+01 1.026868946369576818e+01 3.687530637887680030e+01
6.562154577241853026e+00 1.676247582691268434e+01 4.329888993398731145e+01
7.085256192644085793e+00 1.597926307652787692e+01 4.334582182209718582e+01
1.388015467397004343e+01 1.532757226569805376e+01 4.174075376606709398e+01
1.376783235715959108e+01 1.525153924814432216e+01 4.189794946299014811e+01
1.768926860657462186e+01 1.332759501210733966e+01 3.904904614382647310e+01
1.639284891396722443e+01 1.421565902185152019e+01 4.084324814085019284e+01
1.139825674775405773e+01 1.558383596108552283e+01 4.249249574114634953e+01
1.212767128979573350e+01 1.546277443408085439e+01 4.231603204894987869e+01
5.943743671022330588e+00 1.675346946912378954e+01 4.343083944393844575e+01
6.498724353578378299e+00 1.623425310521369269e+01 4.341813717165300801e+01
4.958367180979115219e+00 1.820798393785953451e+01 4.335503184143844635e+01
4.931383381727981963e+00 1.872170200584152866e+01 4.316088112637654461e+01
4.321727801821513282e+00 1.887487090273022261e+01 4.324073249748431635e+01
4.926208535751793960e+00 1.783790553371261467e+01 4.345883246652221743e+01
4.362839037177363544e+00 1.810437296076568359e+01 4.353178245013678804e+01
5.004358087798427057e+00 1.719779606249186088e+01 4.355247681186162367e+01
1.046519774431223837e+01 1.512233903383809874e+01 4.274651899901991925e+01
9.808263531064062235e+00 1.545219830352310630e+01 4.283059936272844936e+01
1.115485861884272190e+01 1.506726144634641251e+01 4.261727825280244275e+01
7.641515622590267398e+00 1.558942827422681177e+01 4.327978617424126639e+01
8.688865618185566575e+00 1.499933947785873656e+01 4.332765926329594208e+01
7.999385412814125296e+00 1.519170717209163790e+01 4.342657084542718593e+01
9.729459030141045517e+00 1.523799266229313432e+01 4.289810064152268154e+01
1.269437785886801251e+01 1.545103867621674709e+01 4.215179269664239570e+01
1.884845031462765519e+01 9.808118409394337434e+00 3.656734099429808538e+01
1.855369851092542177e+01 1.194973600480923892e+01 3.810541933830371164e+01
1.894594157747999930e+01 1.091795221547384820e+01 3.756091706276159670e+01
1.797835211530128063e+01 1.286868223820715862e+01 3.873476105875123210e+01
1.477790237273867646e+01 1.500543251347546203e+01 4.137059275706512551e+01
1.580487335934712867e+01 1.466021145483798271e+01 4.087186801599021635e+01
1.433975399950177021e+01 1.490613895209613382e+01 4.183993964842247948e+01
1.706583404967235751e+01 1.381362869620345180e+01 4.035108561826429963e+01
1.196631498285011475e+01 1.527052588967521629e+01 4.242561820130996608e+01
1.184457166638773451e+01 1.501217814227543101e+01 4.248802770877180990e+01
7.024648417802109357e+00 1.570961749518411921e+01 4.335839003023656346e+01
6.406914811084400974e+00 1.582997492267903539e+01 4.343710628404188867e+01
5.912036527145136944e+00 1.648931087186834077e+01 4.349047165051131003e+01
4.683601027391416594e+00 1.765108353889241144e+01 4.354212717917219067e+01
5.325141365226695456e+00 1.674446056750402434e+01 4.356283161389397662e+01
5.789089264976236215e+00 1.595035018914260760e+01 4.351583565038907864e+01
5.557109460085482233e+00 1.634743694653668200e+01 4.353933280927064686e+01
4.694430884379097613e+00 1.702023707661502172e+01 4.363276669000865127e+01
9.505759687371581279e+00 1.494640368826296495e+01 4.311631488469436135e+01
1.113980492410125400e+01 1.478374881243344774e+01 4.269904169598326860e+01
1.075422247810239362e+01 1.442310074577707191e+01 4.303137713392560926e+01
1.012956728238706283e+01 1.468492954770733228e+01 4.307387424722602987e+01
1.253464929802504280e+01 1.495706679270489481e+01 4.235870841608100790e+01
1.826649202137106798e+01 1.240906364213696023e+01 3.841999065849553574e+01
1.904953701895728813e+01 1.034448377691146881e+01 3.733041122860363004e+01
1.859159104950650843e+01 1.209550988902494240e+01 3.862764024940521779e+01
1.569159041104436092e+01 1.458095028927062309e+01 4.109623707146859317e+01
1.524388831767373098e+01 1.462148814030061317e+01 4.141744287781109080e+01
1.313629464929076995e+01 1.494009290767240650e+01 4.218580149605700313e+01
1.765266381683126085e+01 1.348492056769271130e+01 3.982819754631239562e+01
1.781405315614842877e+01 1.330878920831578327e+01 3.940777141778864490e+01
3.842495302391146783e+00 1.801906275935213841e+01 4.363536220847126401e+01
5.176552425177348482e+00 1.616893640026569656e+01 4.357799682987016610e+01
4.662749182417136318e+00 1.677140102475107142e+01 4.363007695013637743e+01
1.135613437008119675e+01 1.425945787974285572e+01 4.291276086101638043e+01
1.181425603578129291e+01 1.444524085042512063e+01 4.265157529173177409e+01
9.377100118620688818e+00 1.480732091608055789e+01 4.322892721021786144e+01
1.006512494100801192e+01 1.461535955192555392e+01 4.313022794530319715e+01
8.626579896931600544e+00 1.499933664224621488e+01 4.338834192392932465e+01
7.262789370085370955e+00 1.544453057271754659e+01 4.345631846087135131e+01
1.915318018968446978e+01 9.770439846471019152e+00 3.709967703584928955e+01
1.915931199146754338e+01 1.094051073752891057e+01 3.789424000064912690e+01
1.905013744580848112e+01 1.145955457298937219e+01 3.838860085080651174e+01
1.841837122628331613e+01 1.242711906502246855e+01 3.896564579003674567e+01
1.373835258816728100e+01 1.492310673116611675e+01 4.201277621973247278e+01
1.308681494803190049e+01 1.463379684744182363e+01 4.231953171346116704e+01
1.413189893089692184e+01 1.442243479586232269e+01 4.208982891865260711e+01
1.363955876248679999e+01 1.431019410274381443e+01 4.228031372681494560e+01
1.698106543728373907e+01 1.377094356263395092e+01 4.081461883960652415e+01
6.526159528811487753e+00 1.569736490952491792e+01 4.348606798400631135e+01
4.063229115780052858e+00 1.729622775107894128e+01 4.370275608545440349e+01
3.431749523992918771e+00 1.757233931616185529e+01 4.377277613832663405e+01
4.000338718889571155e+00 1.679834216354114318e+01 4.369732771668532934e+01
4.564314281916269422e+00 1.638741496231129702e+01 4.364012737204421200e+01
9.878688897270476943e+00 1.461529514809680741e+01 4.331202479671757999e+01
9.252776062316778294e+00 1.480727222847315439e+01 4.335017476793928637e+01
1.284908231665214728e+01 1.436245517623609658e+01 4.245769212646494140e+01
1.248848175566933350e+01 1.410684982317365943e+01 4.260412551972929407e+01
8.559681506016810104e+00 1.501635635972970739e+01 4.346716836172364395e+01
7.294158212085513071e+00 1.529615901797827782e+01 4.343486512125866739e+01
8.178280443501385832e+00 1.498067890400642632e+01 4.351873881658998755e+01
7.428340748744775901e+00 1.513789338215393521e+01 4.350398688702209427e+01
3.222684018937066686e+00 1.454605039013105028e+01 4.312038071224906588e+01
2.468086005207468681e+00 1.435859936304947659e+01 4.294371454767254903e+01
3.044860184351075638e+00 1.369597622629116351e+01 4.334400317564818295e+01
3.510999814954360865e+00 1.421469758640605008e+01 4.332048553254233525e+01
3.977196718500752848e+00 1.473348055828814651e+01 4.329702735960182025e+01
3.419787598028805498e+00 1.495829459168578168e+01 4.318673260027079408e+01
2.862367934137599601e+00 1.518311362521410501e+01 4.307644701323481229e+01
2.477360523145785365e+00 1.488474792404973179e+01 4.297502270967601845e+01
3.023291122216939186e+00 1.545839870087958268e+01 4.308952956558497505e+01
3.741680059996637109e+00 1.550873259883384847e+01 4.321290305556769340e+01
4.577805828756984496e+00 1.517124822990077604e+01 4.337833815964625472e+01
4.711643081232205432e+00 1.480948281298274338e+01 4.338605746356935100e+01
4.533425059636894794e+00 1.452245159375015326e+01 4.347619952484072314e+01
5.447489872995673110e+00 1.488563055958427128e+01 4.347525690452496860e+01
5.179010148416205439e+00 1.560943819130548960e+01 4.345974282704526104e+01
5.090026531012497912e+00 1.431128361874156241e+01 4.365551641385534509e+01
1.822756617592459349e+01 1.283130266413407661e+01 3.945223768976862999e+01
1.489480604803133090e+01 1.452692541913390656e+01 4.180862072453408018e+01
1.756854281093773906e+01 1.332682663281093660e+01 4.078602582865515558e+01
1.616634260584162419e+01 1.405713252988987350e+01 4.129193519174584281e+01
6.589132988973618765e+00 1.540058209442808490e+01 4.344315716948996453e+01
3.337195937539569890e+00 1.682531313435993781e+01 4.376465558946680545e+01
3.951175484430836882e+00 1.660621397775154051e+01 4.370234898634430465e+01
5.152383883180602808e+00 1.601612222848921263e+01 4.351010127791872861e+01
5.883883444600976453e+00 1.550503771737425573e+01 4.345145210593653928e+01
4.515619570723506726e+00 1.608190013280249531e+01 4.350436743058379818e+01
4.533588926622308612e+00 1.581074668166738206e+01 4.347079479415231873e+01
1.195796704217296380e+01 1.409583734779938702e+01 4.279416315660138537e+01
1.129749575805441530e+01 1.423179343576223843e+01 4.298930071378122619e+01
1.050549444637511165e+01 1.442304473856561664e+01 4.327382122877079240e+01
9.678780020864053313e+00 1.466611760975161793e+01 4.354825685514152411e+01
1.316338723966807933e+01 1.376812287563764770e+01 4.255662973906476765e+01
1.256090976762051348e+01 1.393191629220059724e+01 4.267534900176967483e+01
1.387391155251992814e+01 1.362555370222795226e+01 4.242543874807815030e+01
6.678621101249569314e+00 1.529506237867122209e+01 4.348923981616655965e+01
6.917461708360221451e+00 1.503774884636220754e+01 4.365344420028085182e+01
7.608057989041570046e+00 1.494480254462084190e+01 4.362713848723952026e+01
9.119213744020829182e+00 1.484124329790820873e+01 4.350771000013335055e+01
3.345141380680713983e+00 1.340768511969478993e+01 4.348439284718051567e+01
4.460070414862175703e+00 1.555906634988100201e+01 4.333627612311527599e+01
3.888146955493232859e+00 1.601205788072942582e+01 4.348184825537192921e+01
4.112615106584950553e+00 1.363846541214569186e+01 4.360128300218286057e+01
3.242609267461095346e+00 1.621340246635639915e+01 4.349290708837318675e+01
5.757960898278063233e+00 1.541904984490953368e+01 4.352424596958566383e+01
5.647170635398515159e+00 1.409990822898175722e+01 4.383504534565994959e+01
6.182197434007201231e+00 1.496165941871677063e+01 4.356431797040586673e+01
4.879792579792092688e+00 1.386915684551687988e+01 4.371814356402651924e+01
1.943791963509849552e+01 9.899615091225903996e+00 3.761085376828950899e+01
1.883571126397017892e+01 1.194255848976867007e+01 3.900882560207700323e+01
1.936755965007801805e+01 1.090875054714876491e+01 3.849199996095904197e+01
1.544961351124844917e+01 1.414788327574955140e+01 4.177731787943574915e+01
1.465865250753527782e+01 1.438420093946822931e+01 4.194752365016302065e+01
1.419214661798923416e+01 1.398668759557204844e+01 4.224110723722518657e+01
1.790467333879592360e+01 1.318360497952111920e+01 4.029278525821943902e+01
3.068796641121401603e+00 1.733710136579297156e+01 4.380371979207161104e+01
3.878966279518921034e+00 1.614766689088256513e+01 4.349863559158912096e+01
5.769102310729661731e+00 1.548573256407296483e+01 4.347134937593001780e+01
1.142547373230171992e+01 1.418672755862795931e+01 4.297939034528740621e+01
1.129796593229084500e+01 1.423087584926046212e+01 4.307401692359830037e+01
1.035541890111480079e+01 1.446120321819395116e+01 4.345099801419741681e+01
1.209685799378068261e+01 1.395030917449351904e+01 4.292739060429840237e+01
1.370233170423125024e+01 1.351394583976486352e+01 4.261086496621295083e+01
1.276765828979125494e+01 1.371409904834921889e+01 4.287543936582579107e+01
7.594681288804546071e+00 1.482189796922631864e+01 4.380745731258640774e+01
7.102780768702781522e+00 1.430746030940806968e+01 4.393080051867593738e+01
7.830233545541158691e+00 1.441118569892493717e+01 4.397865937091214050e+01
7.907362327847677896e+00 1.405194796269612389e+01 4.422356263733108506e+01
7.619774935699513918e+00 1.490801593067727104e+01 4.368640540562147834e+01
8.298617661634800413e+00 1.485186247839383000e+01 4.360083508022203347e+01
5.928939699059175616e+00 1.545222456910948949e+01 4.347449327913033557e+01
8.928462834437086215e+00 1.482341211824327942e+01 4.353349702785435937e+01
9.089277162025148016e+00 1.478969913577584627e+01 4.353666089874276679e+01
8.988932809038880478e+00 1.475895882679022542e+01 4.357453654161096068e+01
6.282385669010327689e+00 1.456888299983708812e+01 4.374419310697478380e+01
6.337641810861213365e+00 1.522842166511877871e+01 4.358883505159511884e+01
6.375328415379019731e+00 1.420373442949233755e+01 4.388294448133843417e+01
1.925833420749732028e+01 1.142807469425797251e+01 3.898665233435483657e+01
1.947662569139540523e+01 1.038942505171849184e+01 3.799734370305677800e+01
1.864218656545073571e+01 1.235334997304926041e+01 3.949674771339567769e+01
1.802457150417704668e+01 1.305635777864734237e+01 3.982761286483754049e+01
1.664069059092617309e+01 1.353379700790375573e+01 4.148745285191785115e+01
1.600478682258619756e+01 1.376859841348920988e+01 4.174599711366892762e+01
1.113228715921256118e+01 1.423079887410596100e+01 4.323561902560872738e+01
1.103219877390399617e+01 1.425624834130037399e+01 4.335371867434199089e+01
1.184170547339766166e+01 1.403865021814103642e+01 4.311665722054689098e+01
1.424130889042850967e+01 1.325975661182227583e+01 4.266510379604885372e+01
1.343842494122697140e+01 1.347790434106632418e+01 4.282349140895828299e+01
1.238504606416138643e+01 1.384656313008011175e+01 4.315926700199820232e+01
7.738080306791646379e+00 1.477619271397272982e+01 4.384007140411829795e+01
7.257151549716176042e+00 1.358912359425594474e+01 4.442119380262376893e+01
6.452445575391552168e+00 1.384442690027278289e+01 4.412797963658513112e+01
8.322523354016022168e+00 1.477820359129918160e+01 4.371938755319629877e+01
8.557795375966003704e+00 1.451492709567974337e+01 4.402652714217187935e+01
9.199993416508064570e+00 1.445119372621123510e+01 4.398272067166042376e+01
9.025240444806421181e+00 1.464839944293978036e+01 4.375236567956313394e+01
9.088506591105746324e+00 1.474555792832079604e+01 4.357074346504841600e+01
5.175488367117112354e+00 1.359859799554664583e+01 4.394809934892422376e+01
5.743884590597670758e+00 1.309213520899119132e+01 4.429637454812213093e+01
6.499928052176064064e+00 1.334043653416492248e+01 4.435895769900731267e+01
4.703339224770481941e+00 1.309679016090332837e+01 4.406131320872419366e+01
3.404719137761904157e+00 1.288651643635682476e+01 4.377062463444094220e+01
4.987937011637441742e+00 1.284386769731240463e+01 4.423375370313360833e+01
1.838259808204639612e+01 1.263971489750083599e+01 4.000417634127171596e+01
1.497748201352383823e+01 1.386240941505213087e+01 4.205507750606994222e+01
1.655990503225648425e+01 1.338936704358692964e+01 4.171467893210772360e+01
1.763619466493615917e+01 1.294592363401920743e+01 4.122044551175645211e+01
1.175899179470868106e+01 1.403858092365397781e+01 4.319742241766025614e+01
1.098360149462608071e+01 1.427711947479761179e+01 4.352628897101399019e+01
1.033129141912203153e+01 1.447158825716202557e+01 4.353727175122133275e+01
9.727016467353054807e+00 1.451876833857055082e+01 4.378530136129691641e+01
1.458533877554756586e+01 1.348280255785783410e+01 4.229408374656806302e+01
1.474459228208372608e+01 1.366326911859252746e+01 4.220191226712555732e+01
1.298376407071838301e+01 1.363629942804361939e+01 4.304939042053464959e+01
7.959808680620093391e+00 1.370394371200440631e+01 4.443225889517396610e+01
9.202886542716901985e+00 1.440677139004520768e+01 4.406090062180332723e+01
4.231675981505225614e+00 1.259549654872830082e+01 4.417102858723884395e+01
1.905446546939363728e+01 1.187540572087097956e+01 3.954125505856593037e+01
1.954792144134569298e+01 1.080727574752085829e+01 3.889090288887054214e+01
1.966407039864057893e+01 1.036120150012276930e+01 3.853583986824974517e+01
1.979395989303430170e+01 9.838236000235868417e+00 3.810046834035756547e+01
1.815670911210315097e+01 1.288227264645011871e+01 4.075740574981819009e+01
1.590328698806336050e+01 1.322986169650234523e+01 4.200287990534775417e+01
1.529667576794568973e+01 1.334007321722660322e+01 4.216274379128238081e+01
1.650972640133908342e+01 1.311968326792365147e+01 4.184306195004913320e+01
1.170900295021331949e+01 1.405128883199604850e+01 4.325643833561058926e+01
1.040454760427587821e+01 1.446279415086942421e+01 4.369977577961804371e+01
9.843029424901752478e+00 1.438737704494423042e+01 4.393886110431039071e+01
9.849075801699662236e+00 1.429843207490294965e+01 4.409533206180786635e+01
1.410932192989737466e+01 1.324166918454998054e+01 4.277153421137275302e+01
6.785200088845436461e+00 1.318638629549723795e+01 4.457627089795539632e+01
7.993215026442259230e+00 1.343970695211860722e+01 4.471573142602893824e+01
8.007444775322760222e+00 1.306309329407263675e+01 4.497695337238823043e+01
7.284945860716611321e+00 1.283574800777609504e+01 4.494950432988806455e+01
8.662908454551862647e+00 1.381883577259719154e+01 4.444342464961793837e+01
9.313617781265138618e+00 1.428185637374732941e+01 4.424611806215536092e+01
6.313735326727407227e+00 1.278406739056680408e+01 4.472891286646130027e+01
5.036643930604030039e+00 1.248870666298224918e+01 4.452661035840143455e+01
1.946771928789972606e+01 1.139653426421098104e+01 3.958585535066463024e+01
1.965916475208270597e+01 1.086464865573247707e+01 3.933004116015244023e+01
1.903131404919446723e+01 1.189248554501617683e+01 3.997692655661288796e+01
1.478159876516642868e+01 1.300495442916340139e+01 4.271947346259953804e+01
1.711591651371960410e+01 1.300955046558250494e+01 4.168331205376959048e+01
1.637354228011413326e+01 1.266991709448103443e+01 4.222815640823785088e+01
1.163572044025762686e+01 1.408270831876014562e+01 4.351530991154882599e+01
1.049556179562550717e+01 1.419004332005568791e+01 4.412977909362626860e+01
1.114128707902764148e+01 1.408178306284251136e+01 4.416418417904772298e+01
1.048647919089951408e+01 1.432352082809218885e+01 4.389497431131110261e+01
1.112945264329313844e+01 1.425971195095177357e+01 4.385112361373202816e+01
1.042800963140861370e+01 1.438928146232072791e+01 4.381820182439057021e+01
9.366612332901256721e+00 1.393382665436950951e+01 4.445465485358624136e+01
1.228724884110856230e+01 1.388847408260891036e+01 4.350434134157927701e+01
1.358268204306837923e+01 1.342597045344722950e+01 4.293948006040331933e+01
1.307181052046254344e+01 1.358424830926038673e+01 4.314328773275749995e+01
1.293874900939164263e+01 1.369424944886732831e+01 4.349337368526349223e+01
1.583469480634011362e+01 1.300523867387680710e+01 4.219542663897742329e+01
5.842353257893353025e+00 1.238181738776900787e+01 4.489436146827306828e+01
6.563654741395880343e+00 1.260878422344058158e+01 4.492374174185181346e+01
5.159267036481987923e+00 1.206792751347206405e+01 4.484951112216365487e+01
1.859410554746233046e+01 1.238747053580803303e+01 4.036723812124065347e+01
1.549222463069623501e+01 1.278138324796100633e+01 4.256653056491776255e+01
1.701414088170863792e+01 1.267196321491414679e+01 4.197218927426612822e+01
1.074921244255532393e+01 1.399601284684595193e+01 4.439880247304753880e+01
1.006967712806200765e+01 1.404871320368666687e+01 4.446590944163624215e+01
1.085680443906524673e+01 1.398766782589740387e+01 4.438818236096765446e+01
9.399213911344174832e+00 1.366930501057915670e+01 4.474037713690616158e+01
1.174475382242949628e+01 1.406975518960281235e+01 4.375894208588278644e+01
1.418166876253822473e+01 1.321562365842405562e+01 4.282956151660097532e+01
1.444628985107318364e+01 1.305927169375279107e+01 4.311130550805676620e+01
1.375911335347672981e+01 1.332173232541145502e+01 4.312729534933278330e+01
1.298766687373099771e+01 1.367328790011480244e+01 4.332076512833599224e+01
1.235990178708046727e+01 1.387984876452772731e+01 4.366679035875644388e+01
8.729397392402034939e+00 1.329026437808262884e+01 4.500929868153841795e+01
1.620245429884533195e+01 1.255794336287175028e+01 4.241368418660262307e+01
8.072972093855673492e+00 1.283612759827443384e+01 4.528994146717213454e+01
6.629746891356562699e+00 1.238195224854255549e+01 4.522942862019458943e+01
5.360382064333256480e+00 1.186444740364493455e+01 4.518915620417893564e+01
1.985148794210194012e+01 1.033297743150416004e+01 3.907433188537326885e+01
1.981689521459301773e+01 1.080013499911654584e+01 3.969979773677911083e+01
1.901104569369977426e+01 1.194481065853082846e+01 4.089830560371844825e+01
1.858371666879355644e+01 1.241346918230305540e+01 4.082786588316632503e+01
1.834966146810214838e+01 1.247731868321673865e+01 4.108843778471118213e+01
1.765568313594923566e+01 1.256211865427547103e+01 4.170578050891503352e+01
1.005429639278489340e+01 1.348951422595110650e+01 4.499390983404830280e+01
1.072444362679161678e+01 1.386890337292425102e+01 4.472290674974701830e+01
1.178010936107065554e+01 1.406264111900224556e+01 4.404200999600872990e+01
1.076315730445379515e+01 1.393621763833232308e+01 4.451380554986680238e+01
1.530130433627095954e+01 1.276959448287011689e+01 4.289944179888674114e+01
1.359077912225975915e+01 1.349986854021568661e+01 4.348239810283642015e+01
1.297506557575285235e+01 1.368994091991369011e+01 4.357463562313311201e+01
1.691249717686844534e+01 1.233458324371699533e+01 4.226088837393985642e+01
7.416682217962957679e+00 1.238208772498548704e+01 4.556535285113672273e+01
6.147895878415439164e+00 1.186459506195168956e+01 4.552540516819032490e+01
1.959904152237784558e+01 1.126664658588386203e+01 4.007046850391967041e+01
1.936151944479714970e+01 1.154325378815627268e+01 4.049386271731210485e+01
1.071663588567485981e+01 1.358912682916484194e+01 4.498599032650300700e+01
1.164383946975106987e+01 1.392662993155004791e+01 4.431050920117624514e+01
1.178604143620263045e+01 1.397368283342265194e+01 4.419854277769845652e+01
1.182898461727983985e+01 1.403902088821075012e+01 4.385479407462669599e+01
1.145695142522601806e+01 1.382367154053220304e+01 4.456172391256382781e+01
9.391609286451796379e+00 1.338985449474874123e+01 4.500171969569068153e+01
1.252830772159614980e+01 1.381839625562564144e+01 4.385846389155193492e+01
1.243063365494725581e+01 1.386561116949552108e+01 4.423289067500636662e+01
1.513327834112214454e+01 1.279689560982829377e+01 4.309532033662205208e+01
1.414814437715101469e+01 1.325852195963247659e+01 4.338164506938487364e+01
8.086208695569116145e+00 1.256429942673936040e+01 4.557580727364059925e+01
8.754922511716625166e+00 1.274629005681977745e+01 4.558625903266739954e+01
1.582078745286865740e+01 1.253434354205860934e+01 4.307932421231465270e+01
6.782472324583642909e+00 1.212341397281702093e+01 4.554538815434038668e+01
1.996479424057001495e+01 1.065437010198675516e+01 4.024482478923327733e+01
1.854258634649860937e+01 1.207221140710835172e+01 4.141959489221627422e+01
1.819580333738849731e+01 1.211453503980391666e+01 4.172825364605976262e+01
1.752007992254425162e+01 1.211216780924056913e+01 4.209088134204433373e+01
1.073709695438070177e+01 1.339988454604728219e+01 4.528708846131487320e+01
1.137997444386745194e+01 1.368888490305118566e+01 4.497800660876691836e+01
9.410937306760246202e+00 1.320052155103283908e+01 4.530826875960003264e+01
9.423715826255657291e+00 1.292830292411055737e+01 4.559674341762609373e+01
1.322766500059266725e+01 1.359776160487624708e+01 4.386213354629586547e+01
1.302689004544890672e+01 1.367304689720241484e+01 4.413422475046059645e+01
1.470529930447697531e+01 1.301727779838919474e+01 4.328093580873213142e+01
1.525147448492940150e+01 1.275175558883261928e+01 4.309257100316696665e+01
1.420144946425972954e+01 1.322356708417184734e+01 4.348291318401573591e+01
8.216420734205312826e+00 1.235047632654069538e+01 4.585030863730437289e+01
1.636659335528927528e+01 1.243447165610133176e+01 4.267014306543661917e+01
7.060987591846864753e+00 1.194445962273235118e+01 4.586725617128704613e+01
7.859280022158649182e+00 1.191244371809488278e+01 4.615216399071488951e+01
6.705125648590301246e+00 1.150663466262058598e+01 4.616930505585178679e+01
2.016682455854896361e+01 1.020419404361458859e+01 3.981365715871860544e+01
2.004381264763567572e+01 9.800729917544629188e+00 3.881834768878452735e+01
2.028014470281152981e+01 9.704543822087924099e+00 3.937291903589914455e+01
1.973028114259250287e+01 1.113684201861769729e+01 4.055477210024937307e+01
1.943646174298762119e+01 1.147548569742794022e+01 4.096884426809020141e+01
1.009364114048534766e+01 1.311062293390227396e+01 4.560734574057153878e+01
1.180469243648516375e+01 1.391415515450084861e+01 4.429463862424994147e+01
1.284496450581915106e+01 1.359851013321286928e+01 4.465759656352171447e+01
1.215082933057957071e+01 1.371111251359287309e+01 4.460964845605230522e+01
1.304390630779381155e+01 1.364846389961580897e+01 4.425066768779044679e+01
1.526292603788120594e+01 1.277584706109418278e+01 4.318014601704492605e+01
1.410903715552487370e+01 1.332803602756212769e+01 4.367597854765222820e+01
1.392765584969999537e+01 1.337692832309534374e+01 4.386580698971709324e+01
1.316265097403071316e+01 1.362920266176505812e+01 4.411176365478549144e+01
1.389501037715989717e+01 1.339268830893689355e+01 4.399058962150537155e+01
9.554196854686972884e+00 1.271456861239900960e+01 4.587114586432377905e+01
9.015273317592855662e+00 1.231890031063487712e+01 4.613497357391334930e+01
7.282107420521361618e+00 1.170950528045943884e+01 4.616073860118467564e+01
1.649881289470976498e+01 1.223102850777923045e+01 4.290260617352848982e+01
1.738303031197231618e+01 1.197984035126662228e+01 4.240525834317381992e+01
1.929863204046635872e+01 1.133700859736427624e+01 4.139492810969996128e+01
1.873577811600107523e+01 1.166714226562814360e+01 4.175072061246712707e+01
1.812769779584856877e+01 1.188964852179752540e+01 4.192079642900844050e+01
1.829428024403251385e+01 1.164615233898674163e+01 4.215011472600271958e+01
1.022858462801761092e+01 1.258751346547415650e+01 4.610513611282551949e+01
1.076880439135915424e+01 1.298378323996419859e+01 4.584101895531014748e+01
1.070088526447351995e+01 1.317994748843336872e+01 4.558686733896391274e+01
1.130794133693791004e+01 1.324925062113445051e+01 4.556603244572285405e+01
1.198438719723196044e+01 1.363206198817580805e+01 4.490268464621041744e+01
1.191444705546543581e+01 1.331849096733703952e+01 4.554105536865803572e+01
1.298454092208075217e+01 1.367588513534986561e+01 4.446895894501603408e+01
1.281973718628641024e+01 1.355352711703872615e+01 4.479710322924520227e+01
1.481179885605608426e+01 1.294741768754500377e+01 4.348342916438512873e+01
1.462704648473309632e+01 1.315628645988719470e+01 4.386947747978292966e+01
1.365765860028569634e+01 1.343114679719984395e+01 4.426845942451453908e+01
8.437241959670876312e+00 1.211565972647740885e+01 4.614357240560108409e+01
9.621909747477404906e+00 1.245320251992404614e+01 4.612005867558293914e+01
8.923909403579765254e+00 1.188176962029773698e+01 4.647976272889454918e+01
9.626480517960224859e+00 1.222903313137644687e+01 4.628981986908889468e+01
7.413990213265821083e+00 1.148602191528753913e+01 4.638759684108091363e+01
1.717597227560923301e+01 1.192821324433091768e+01 4.272617459156161601e+01
2.011279087254713716e+01 1.050837196519732331e+01 4.078979193356813937e+01
1.083650274683006032e+01 1.272209946110448442e+01 4.609017658569561604e+01
1.144484050327206326e+01 1.285677867598587198e+01 4.607520168097516944e+01
1.084955179052353991e+01 1.204920521024904012e+01 4.659967067136489760e+01
1.114722615910934422e+01 1.245303263603042332e+01 4.633741113629636743e+01
1.199687436946650365e+01 1.357604440472018936e+01 4.502869392133430182e+01
1.195042249467255679e+01 1.353820769596280371e+01 4.524862587853551332e+01
1.210001079171518334e+01 1.362119208195353082e+01 4.488827077696767276e+01
1.542291888536223254e+01 1.267092981953732078e+01 4.348394254891370281e+01
1.529957944427906469e+01 1.281024037221681411e+01 4.374133074214593364e+01
1.427167403280903635e+01 1.321373657461411355e+01 4.428625814251262227e+01
1.353926207593440978e+01 1.348588167377443980e+01 4.470555778430541238e+01
8.122813342087964017e+00 1.146541247582356071e+01 4.660587305716193640e+01
9.505643386105674608e+00 1.164647385685012182e+01 4.674944410530849126e+01
6.784393916604252617e+00 1.106012606868716119e+01 4.658656002469107449e+01
1.603405016274637873e+01 1.239445952788076433e+01 4.348445707073116751e+01
1.623317449830494752e+01 1.232609760223424011e+01 4.328219978746167129e+01
1.986157045999908632e+01 1.100698841367965208e+01 4.103926153261615895e+01
1.917618006019846533e+01 1.112045712660892072e+01 4.186126665823765336e+01
1.785275810187199852e+01 1.162515662031433727e+01 4.254960664970074902e+01
1.023760492200297634e+01 1.213918029228089779e+01 4.644464157111050184e+01
1.198295943241241801e+01 1.312239801483482893e+01 4.579939830149809410e+01
1.261324175928513291e+01 1.346330053019263318e+01 4.507933792816183427e+01
1.529202041744240859e+01 1.280017006780611055e+01 4.388413351985940380e+01
1.597248498870446909e+01 1.246404270665605907e+01 4.361312970243412224e+01
1.488500668404526550e+01 1.299656838146151117e+01 4.430403695595163782e+01
1.724985881851047509e+01 1.187145572236451585e+01 4.301709609177173377e+01
1.419256488318616860e+01 1.325028543067493736e+01 4.457754877531257165e+01
8.832572955876774046e+00 1.144477288175865581e+01 4.682443924832628568e+01
8.175911376410029519e+00 1.116762744189680667e+01 4.688421879304700468e+01
7.520179107871560298e+00 1.089087696566130603e+01 4.694390367538055386e+01
1.664537651858196199e+01 1.211795569598557520e+01 4.348497042794489431e+01
1.155446689721867060e+01 1.216170735759938637e+01 4.651790985043078308e+01
1.017730899312936010e+01 1.184775197255659585e+01 4.667459687256762635e+01
1.252036285412245675e+01 1.338766435479785244e+01 4.551764453699563262e+01
1.216934675461741122e+01 1.290625025178126606e+01 4.602820776335178010e+01
1.220522125996130569e+01 1.262171450400356676e+01 4.621479868177031136e+01
1.225990956082548067e+01 1.227429209184110270e+01 4.643607823519614897e+01
1.296503145080288810e+01 1.238682736320700606e+01 4.635429509142606008e+01
1.322919471632327593e+01 1.335063310841433726e+01 4.512994355351073494e+01
1.305829266459048377e+01 1.331494057924840924e+01 4.543899770981285258e+01
1.549857865020588221e+01 1.277931468866604980e+01 4.432182401593555454e+01
1.595718616907426224e+01 1.244395664720282646e+01 4.389879024091310100e+01
1.484548122765762024e+01 1.301483094564482634e+01 4.444968212242059025e+01
1.419830860952551177e+01 1.321733968724248598e+01 4.473624641408930103e+01
2.019774476496309745e+01 1.041666813696006599e+01 4.119268812297926274e+01
1.974018578795878653e+01 1.079024665990955256e+01 4.150548422374058077e+01
1.844055106975336145e+01 1.127476802995491312e+01 4.235713690405688681e+01
1.902921510630247326e+01 1.092389073437762725e+01 4.216440088367039607e+01
1.729448179775202732e+01 1.168240396391647629e+01 4.329364881957983613e+01
1.146386341899177985e+01 1.193786262544366039e+01 4.671803240797401457e+01
1.092418985672100540e+01 1.168586601226768273e+01 4.699797828804982913e+01
1.027694136753112986e+01 1.136317801494928936e+01 4.720581332655976325e+01
1.289285635233803085e+01 1.295565347509080745e+01 4.598136710763665747e+01
1.307050685070851515e+01 1.324988771830484957e+01 4.554133286303262196e+01
1.485698407871030469e+01 1.294894842242687005e+01 4.476691253970671625e+01
1.794090444827702413e+01 1.124718921930029403e+01 4.310247069359920857e+01
1.400036751645232869e+01 1.330552231044776157e+01 4.497009528956545665e+01
1.384559077909904268e+01 1.323788489748972275e+01 4.518058578374148482e+01
9.554883226370403548e+00 1.140396760369675810e+01 4.701516197059863345e+01
1.961879967055001472e+01 1.057342014498641980e+01 4.197189086077349884e+01
1.822001275683003030e+01 1.121853909015278816e+01 4.273051355940070550e+01
1.662272178253291344e+01 1.208755935798778935e+01 4.391345380277122956e+01
1.207811792244672766e+01 1.182653084498264917e+01 4.683637881050326968e+01
1.269273878602996319e+01 1.171513348370176111e+01 4.695479398536055271e+01
1.306830020335185871e+01 1.319637205590682960e+01 4.572686599588847400e+01
1.316722904784247206e+01 1.330021390186283270e+01 4.542292326152092130e+01
1.551619757610529504e+01 1.268033793094392436e+01 4.479760453639825357e+01
1.381440940442537268e+01 1.321271953312147396e+01 4.532713427897797942e+01
9.106960521128897312e+00 1.105280072329468233e+01 4.731457698529611378e+01
8.121758590325033111e+00 1.063744742559814327e+01 4.740379641234139285e+01
2.003555353804662076e+01 1.012786077246503069e+01 4.181456376004738473e+01
1.910307018254600209e+01 1.069280435939937846e+01 4.244180930791597461e+01
1.858773402117038387e+01 1.081208857878116802e+01 4.291134569594731119e+01
1.609475729604684346e+01 1.243013010534399321e+01 4.419067954574431667e+01
1.728872546570210034e+01 1.173095136659940785e+01 4.392812742525467939e+01
1.156345328961308816e+01 1.145330170347616061e+01 4.724923338075333135e+01
1.329070109316441695e+01 1.269596821246039653e+01 4.614439983741306150e+01
1.328403038057289187e+01 1.175706336403396080e+01 4.680200936258731303e+01
1.361631210176259721e+01 1.300505439162381727e+01 4.593513030067104097e+01
1.446116609654622742e+01 1.312528408463395380e+01 4.523116428523451304e+01
1.503209348496941722e+01 1.288763367201804044e+01 4.509793297780772292e+01
1.772262739009445554e+01 1.142470157738707215e+01 4.358923327261127412e+01
1.322909975747071343e+01 1.321016986232439372e+01 4.554811286056169450e+01
1.393776246842361566e+01 1.303269483848344024e+01 4.557824299874629759e+01
1.419580567343949085e+01 1.289591785230812881e+01 4.583385371840832079e+01
1.422429316379310649e+01 1.269526496383226188e+01 4.600127063639991576e+01
1.358758395881735126e+01 1.238636943454758566e+01 4.626020855119221409e+01
7.492943984511695632e+00 1.062561732167435835e+01 4.720380860709085624e+01
8.751147293096313007e+00 1.064928745004415234e+01 4.760396619464276569e+01
1.669129424060785638e+01 1.208076215978613099e+01 4.405948257675288460e+01
1.212853817910133358e+01 1.158431821319662092e+01 4.710190554009014363e+01
1.179030710667951354e+01 1.128974104036862158e+01 4.755738340577479306e+01
9.920565888290763468e+00 1.088163601536252045e+01 4.766831682913219481e+01
1.099885677861286304e+01 1.132239315553957049e+01 4.739642670206874442e+01
1.605023283879753393e+01 1.243478144107292316e+01 4.434567260468202221e+01
1.560406493717875165e+01 1.264954844626752894e+01 4.496363842293225588e+01
1.505795842787740924e+01 1.283191231197217697e+01 4.523328860359728054e+01
1.815485579579691588e+01 1.111843086555393612e+01 4.325032604948551551e+01
1.421010853574533961e+01 1.238591175202567740e+01 4.616590868290783334e+01
1.371667184529120931e+01 1.211366098297070515e+01 4.642575680450445930e+01
1.483232000167207154e+01 1.238545456422795787e+01 4.606635238939263388e+01
1.446705078608946238e+01 1.184095363262561129e+01 4.649248489046944854e+01
1.387561817611843473e+01 1.179901433246542197e+01 4.664968503758052520e+01
1.336637696681165366e+01 1.161237233440105499e+01 4.703636756710415767e+01
1.045960198225425231e+01 1.110196965518092327e+01 4.753240414335461850e+01
7.355738850472092416e+00 1.017067830283786378e+01 4.759269171035830226e+01
1.997293097028367370e+01 9.878235423636747115e+00 4.213013730326400719e+01
1.916786660880423554e+01 1.026877403710231107e+01 4.270366415151170969e+01
1.660241310948149263e+01 1.208991929964820500e+01 4.436953762967689840e+01
1.524750933499740135e+01 1.176074419300452512e+01 4.628080073836581221e+01
1.543038169920478175e+01 1.203288317003903707e+01 4.606896099889211627e+01
1.258154233382337139e+01 1.125711837196412546e+01 4.771989918796326435e+01
1.617533796128407886e+01 1.241175584681785082e+01 4.482829714169299962e+01
1.464683776545640725e+01 1.285511719768696715e+01 4.560822736040318404e+01
1.477770686574174164e+01 1.282234265183812028e+01 4.561375042875169328e+01
1.477623529558549897e+01 1.278660469400729305e+01 4.573411833975055885e+01
1.565569500582593498e+01 1.253807657950358134e+01 4.523540541815100369e+01
1.535755867206045799e+01 1.267712522881702419e+01 4.563819283673469585e+01
1.789030584338075514e+01 1.126524587486233386e+01 4.378425804086330686e+01
1.403966927078793780e+01 1.150966670263236757e+01 4.712086021656146784e+01
9.381131400631845807e+00 1.066113788129333351e+01 4.780432430130998256e+01
1.109263617170172189e+01 1.100988712704480932e+01 4.785098796743626792e+01
8.358249062369569771e+00 1.003911444476470116e+01 4.805536005775650921e+01
1.497615812247958367e+01 1.165758480634224981e+01 4.651836678080285736e+01
1.715476710882565214e+01 1.174494962739782089e+01 4.439340621529182584e+01
1.331112132656796021e+01 1.138348230678455941e+01 4.742006202623304745e+01
1.610401016660431139e+01 1.231394150588653069e+01 4.543893922001922903e+01
1.558531432354848256e+01 1.218121483039610276e+01 4.589617437251641974e+01
1.625263905681731558e+01 1.224463121351248951e+01 4.523749925512788650e+01
1.849045157792890137e+01 1.079959650930159931e+01 4.364040597325730175e+01
1.770620668593908320e+01 1.140055375388386061e+01 4.441723927927161952e+01
1.476216474875503160e+01 1.149197393839545889e+01 4.683666848267800020e+01
9.983048238217650194e+00 1.067318675481952006e+01 4.797135907008582478e+01
1.058472087783018090e+01 1.068524463493237775e+01 4.813885804381190070e+01
8.869453727802531162e+00 1.034998212506718929e+01 4.792990306212039542e+01
7.847078584938969925e+00 9.728267840466980232e+00 4.818080409175887269e+01
1.668535241561557925e+01 1.207485974942863827e+01 4.469125145689773149e+01
1.602811008195352116e+01 1.168052030615101167e+01 4.607023366966414102e+01
1.548500500818393277e+01 1.147427251675867410e+01 4.654535323280108372e+01
1.188301995276506062e+01 1.097684388469446404e+01 4.801375055947446668e+01
1.584791992418262119e+01 1.232710289822058058e+01 4.568145739201310818e+01
1.816856636907760603e+01 1.104503761416028951e+01 4.411036415225291307e+01
9.631395481897046196e+00 1.027977897858018785e+01 4.831470142338940121e+01
8.525045346463322460e+00 9.785030267001982196e+00 4.839531523709730010e+01
8.299519320264399980e+00 9.282802491527043287e+00 4.871171682908783396e+01
1.909232889900922103e+01 1.033374702649740406e+01 4.349650439131892909e+01
1.862996801950205139e+01 1.068943327603326665e+01 4.380345945316590672e+01
1.684982596063877480e+01 1.195106643875377550e+01 4.523959182666487067e+01
1.667235688870865928e+01 1.204648523667851556e+01 4.482348677527796355e+01
1.719647234646367551e+01 1.173724016396884906e+01 4.455402360891910973e+01
1.683043964569678153e+01 1.193030651120555063e+01 4.482196690322922450e+01
1.749548713298268510e+01 1.145905777381777213e+01 4.502433801732278340e+01
1.616594481951062434e+01 1.132696992843543704e+01 4.628483711390808963e+01
1.748559604830720104e+01 1.144881779957213297e+01 4.481570797305389675e+01
1.628476415985592496e+01 1.222599620064588777e+01 4.539063835469364960e+01
1.633851505709608887e+01 1.197692106612195673e+01 4.572455044837720095e+01
1.820840151964394593e+01 1.096529027277003010e+01 4.426019609368614027e+01
1.118634954231316669e+01 1.069731422045116354e+01 4.830684653764155456e+01
7.134922569371125789e+00 9.673736391144586833e+00 4.792468624339004180e+01
7.466857467108765078e+00 9.332106912453953740e+00 4.828988919804358915e+01
9.203324059516578615e+00 9.841835235261365611e+00 4.861035347991563071e+01
1.697577422091982058e+01 1.160191276585566023e+01 4.553277579844441902e+01
1.723154905208332366e+01 1.158881204263110298e+01 4.528934531161295496e+01
1.666197565495283683e+01 1.143526725356305818e+01 4.587724990439730988e+01
1.684559226839646939e+01 1.117993414055376533e+01 4.602825956008234698e+01
1.729568870470945896e+01 1.119011594116725661e+01 4.568204370447838158e+01
1.681703966484951707e+01 1.158350603002944545e+01 4.570419998120159022e+01
1.814130423228676747e+01 1.096693104312397971e+01 4.480949010152804846e+01
1.761278967790559591e+01 1.122707157140443890e+01 4.533928642931432762e+01
1.053397587956838954e+01 1.029802956360000898e+01 4.856626455962855715e+01
9.316348441007471948e+00 9.367379263659499244e+00 4.903497698531942461e+01
9.881442120243997707e+00 9.898647916060513197e+00 4.882574773731148809e+01
1.743751325909654071e+01 1.088694570670745598e+01 4.582312482599029124e+01
8.070201861401070431e+00 8.738000272355620268e+00 4.899812027095132549e+01
1.782669462600016175e+01 1.080300716463756316e+01 4.551053215145538644e+01
1.780356710968987599e+01 1.077755514962295003e+01 4.563810693250236739e+01
1.814337593317196351e+01 1.074465058766863912e+01 4.516178557352234435e+01
1.798583404867591540e+01 1.082127977563440702e+01 4.533913989943973633e+01
8.752225532910108186e+00 8.837025490103751935e+00 4.924384224572828828e+01
7.388286746159775653e+00 8.639018136825239225e+00 4.875279438740276561e+01
1.778912104110098014e+01 1.071322356299394052e+01 4.570143632384294108e+01
1.867502487831053770e+01 1.026243042888968837e+01 4.498450523830743464e+01
1.835993488778088789e+01 1.041581428950418520e+01 4.533914424959365164e+01
1.802999699246390009e+01 1.059393845399937995e+01 4.561786543733430221e+01
1.850216710341553394e+01 1.018706121674283693e+01 4.546905861088301748e+01
7.790671754399729032e+00 8.305822687583708230e+00 4.909104661638848910e+01
8.332639230281005283e+00 8.188300000089908437e+00 4.938330972851581890e+01
1.419162880585164821e+01 1.094003142211948365e+01 4.709312950924292807e+01
1.376202201288207760e+01 1.099647474920612389e+01 4.725839368701751653e+01
1.434357468046760964e+01 1.037039415923413443e+01 4.706548742813081532e+01
1.466050676573949652e+01 1.084693324455776064e+01 4.691337763606392031e+01
1.269719039699706897e+01 1.065612168616569910e+01 4.770374530574683547e+01
1.348420438396854948e+01 1.048297518258793204e+01 4.739602985169987903e+01
1.482524615863302131e+01 1.035844016432744397e+01 4.687661777857665868e+01
1.515499888164741549e+01 1.091613264143792073e+01 4.671208698636061740e+01
1.565584628105525944e+01 1.079123424621886507e+01 4.652078912446883407e+01
1.533725752964654809e+01 1.032225737619730843e+01 4.667730632320335360e+01
1.397335206508815375e+01 9.685687394138723150e+00 4.724866592792916720e+01
1.369162791295130255e+01 1.001569738707800283e+01 4.734070588436744487e+01
1.449546960626870273e+01 9.800757503873120058e+00 4.703796539896030993e+01
1.228230615888645616e+01 1.039616258728817222e+01 4.788293910906028117e+01
1.281272690626263788e+01 1.005564544180697162e+01 4.768761112182895801e+01
1.320606071208678500e+01 9.968882529472733012e+00 4.753383249859240323e+01
1.582652309414230807e+01 1.010840265528765158e+01 4.649623279566390011e+01
1.656270010135969883e+01 1.059522118173598138e+01 4.617662312857270024e+01
1.627931749629076208e+01 1.001056850291100275e+01 4.632408494841459401e+01
1.701416243879522483e+01 1.000980192350605336e+01 4.604616931508155631e+01
1.524470141935982070e+01 9.613228160018318036e+00 4.675860534269757807e+01
1.599839402453186565e+01 9.425532460054784067e+00 4.647167421432447298e+01
1.650629496279992381e+01 9.717712525272764523e+00 4.625944137445182491e+01
1.752228289272644091e+01 1.030199567899407143e+01 4.583205577934376151e+01
1.570613417036162751e+01 8.821959054198043049e+00 4.663056989167509414e+01
1.457844505632859189e+01 9.103883632805343851e+00 4.705271710838141530e+01
1.512747745881264372e+01 8.864246372336824109e+00 4.685884103329033934e+01
1.430345570341176398e+01 9.245989135386126989e+00 4.714960072439279770e+01
1.378139072638242979e+01 9.130882241962252621e+00 4.736060831686187811e+01
1.234695425057002538e+01 9.869803194134663116e+00 4.788344397923976459e+01
1.345090086114530692e+01 9.570544455756820668e+00 4.745993660755323873e+01
1.176656575621392875e+01 1.028362385136109936e+01 4.809515292191785107e+01
1.772651171036753937e+01 9.991007929434864820e+00 4.577400695554864996e+01
1.466384796364150667e+01 8.407009471869821837e+00 4.706745315851224376e+01
1.541440863770672109e+01 8.218833834119960713e+00 4.678934769419813477e+01
1.411298816974301040e+01 8.691219882915772743e+00 4.726136728918382346e+01
1.292819944577139424e+01 9.455345941709088819e+00 4.767148950946187114e+01
1.128780005575319478e+01 1.006592192163192934e+01 4.829176466818486801e+01
1.181823963542737133e+01 9.728482947059692520e+00 4.809664290767620543e+01
1.090026327941318840e+01 9.725680816782590554e+00 4.844961014965839041e+01
1.220884951047665368e+01 9.128976630051676366e+00 4.796675478301001050e+01
1.308002477263461927e+01 8.848269040514145090e+00 4.765292094993433381e+01
1.041804435515847160e+01 9.533354482503765936e+00 4.863761307288370972e+01
1.095438401377471216e+01 9.168235088633746699e+00 4.844958702747999979e+01
1.138924432723081992e+01 9.434531243607587214e+00 4.827668214627647814e+01
1.357794552438962121e+01 8.640402431505060932e+00 4.747294644111620698e+01
1.259353246922116476e+01 8.520556430494028888e+00 4.785965233999938562e+01
1.200213926948312881e+01 8.359249338900701431e+00 4.809558556321832157e+01
1.149067145904747633e+01 8.803139068964700442e+00 4.826160085787920195e+01
