1.879508726017820308e+01 8.320640227902721620e+00 4.586464826762843927e+01
1.847062772299356936e+01 9.198753383286510044e+00 4.551651919956394465e+01
1.687913176431240814e+01 -1.552218025836955118e+00 4.620912275282205428e+01
1.847704483275906995e+01 -1.272779113730072131e+00 4.579749102799681282e+01
1.624461939046160808e+01 -2.086870334879831201e+00 4.627699634383733951e+01
2.177544983498097508e+01 3.115413685888835271e+00 4.392598131951284302e+01
2.150219822817053839e+01 2.612393463562403539e+00 4.422386403242364850e+01
2.205359359152486221e+01 3.180250440402540679e+00 4.366418738025530644e+01
2.229983547983213654e+01 2.726936301743476232e+00 4.323065233053772971e+01
2.246027075479355517e+01 1.464764380794749243e+00 4.210332310856644256e+01
2.253854319147923846e+01 8.983860102740131026e-01 4.199728310674831988e+01
2.250125294465738079e+01 2.235697899471481287e-01 4.182576635698529088e+01
2.088919182148709197e+01 -4.895696905495867668e+00 3.866345151532584623e+01
2.246306501157954827e+01 -4.510657058556056254e-01 4.165440023938594294e+01
2.242419498074667672e+01 -1.125576743308373651e+00 4.148319404855165260e+01
2.003563113933670081e+01 5.272984473356144841e-01 4.523797386920873009e+01
2.065357428784029636e+01 9.130966126705731822e-01 4.489411036744445482e+01
1.986309884307960516e+01 -6.625530230381250218e-01 4.531466706798678246e+01
1.947336195539111614e+01 -1.002096377369563696e+00 4.545670662051356459e+01
1.913515886855967096e+01 7.111356933103246902e+00 4.611065729518658429e+01
1.904470111243812269e+01 7.649030870095095302e+00 4.610444109485552389e+01
1.863260823269738964e+01 8.759624497967047674e+00 4.569061838721528801e+01
1.764741923121898992e+01 -1.563046450156570177e+00 4.603176989602078351e+01
1.896799542529101501e+01 -1.200376084715484515e+00 4.564336328811037191e+01
1.615377388810428272e+01 -2.664059177918332022e+00 4.618591668711469111e+01
1.572539505462338916e+01 -2.980519747879313730e+00 4.617977819835479636e+01
1.694612457039849929e+01 -2.241821506732568636e+00 4.612467036197617887e+01
1.662888653055594901e+01 -2.508925954458081975e+00 4.615864016203278908e+01
2.202303407375769950e+01 2.511844919909341112e+00 4.387255922388456497e+01
2.216206709659355312e+01 2.545150087911734360e+00 4.374165379863008951e+01
2.245417310027382385e+01 2.153513368889175883e+00 4.313789800136346742e+01
2.157725937500000057e+01 2.042447870476344463e+00 4.428774478497022926e+01
2.260853236295015378e+01 1.580508730031830567e+00 4.304522757264175681e+01
2.257346085103251099e+01 1.239281186350265074e+00 4.252118676116816687e+01
2.227070327772245406e+01 1.909684611260784592e+00 4.381929213268917067e+01
2.175435876047136219e+01 1.417985019053711104e+00 4.425273413300809011e+01
2.155254870582015769e+01 1.335218411635763491e+00 4.437970812846883462e+01
2.066758390651589039e+01 -5.448493832434651019e+00 3.838764650532654343e+01
2.152607324745703110e+01 -3.947945560657713404e+00 3.964611026503990843e+01
2.190445251066343957e+01 -2.392116367376473374e+00 4.020918658014674918e+01
2.181808462749677702e+01 -2.982399269467514991e+00 4.004091514722413336e+01
2.177992524798679952e+01 -3.536170669472862738e+00 4.012260662005030554e+01
2.059413521280430359e+01 2.980771368089438211e-01 4.496996478009415910e+01
2.113787504001753703e+01 1.033322886599836954e+00 4.465322374714899212e+01
2.041472192410186537e+01 -2.585745690560822818e-01 4.505284000735087346e+01
2.104885037495661138e+01 1.108797856431412571e-01 4.476681865458133558e+01
2.132057481349626826e+01 4.783946016281241942e-01 4.460847536524104839e+01
1.880507699378993536e+01 8.136278713811618601e+00 4.611138681432393582e+01
1.856739685352836844e+01 8.623746978798353169e+00 4.611833084217548162e+01
1.846904699024361918e+01 8.795859507812584965e+00 4.589240105035527506e+01
1.814376814549508410e+01 9.270857291088573149e+00 4.592012830053687367e+01
1.819073448915171909e+01 9.045033044503892228e+00 4.613576636793570174e+01
1.844162330967688845e+01 8.815401047647650756e+00 4.605962256310517233e+01
1.841694674477869498e+01 8.791911302202397138e+00 4.612529378202349051e+01
1.806493221182154230e+01 -1.913190385498362067e+00 4.590097881094179399e+01
1.753898854374890348e+01 -2.421924918347961864e+00 4.597034204381856881e+01
1.633340102132572014e+01 -3.284414674397992062e+00 4.605584060313054806e+01
1.701055035406346505e+01 -2.930658181902701998e+00 4.604042466658315647e+01
1.565635413339915694e+01 -3.638248879128640034e+00 4.607219746869590438e+01
1.533158430109411263e+01 -3.179610177835831664e+00 4.619471505373268627e+01
2.235693902473794381e+01 1.338446598709324142e+00 4.374711709319183228e+01
2.227338620591397600e+01 1.319013126274028114e+00 4.390153920014792988e+01
2.263925790055889564e+01 -3.836437421237879897e-01 4.222401989705250003e+01
2.044569371169641414e+01 -6.001993058074056364e+00 3.811154133072304262e+01
2.122482167077512827e+01 -4.845062394725833776e+00 3.931420690273277074e+01
2.096864510848134344e+01 -5.281403023055093904e+00 3.893531697195147956e+01
2.229084648036878136e+01 -1.849986705571464940e+00 4.101005253243639714e+01
2.238532494652616833e+01 -1.799996051661379992e+00 4.131215494223872753e+01
2.268963195911264918e+01 -1.024637187112489523e+00 4.233745501874477668e+01
2.208238671339059067e+01 -2.727738142845443914e+00 4.059132806866503529e+01
2.182031532150961084e+01 -4.212693352315584505e+00 4.042974127596185951e+01
2.196509323332396590e+01 -3.204920495117965729e+00 4.046058972537790055e+01
2.199577880635559879e+01 -3.632975589386701287e+00 4.066696018221775688e+01
1.904659949039870170e+01 -1.769059871751782920e+00 4.559217342352120284e+01
2.069642261101651215e+01 -2.689816911771378827e-01 4.494273320126758620e+01
2.079865019495697709e+01 -8.358728529931443996e-01 4.491558611963462511e+01
2.023535114284064207e+01 -8.150848858602476321e-01 4.513590508864428585e+01
2.152729610206117172e+01 6.289340724011444062e-01 4.447175649143987641e+01
1.685687944036299157e+01 -3.596301257384217909e+00 4.592158496773946297e+01
1.735945665682118033e+01 -3.326487080720927025e+00 4.591470612172984289e+01
2.263481884361695151e+01 9.310175038833575778e-01 4.292616439865684441e+01
2.192989597157123427e+01 7.944162895673065883e-01 4.421786029648919225e+01
2.263183059099097960e+01 9.496430452534831979e-01 4.314871595381635672e+01
2.258889426634762998e+01 2.573632255865313523e-01 4.211062956513517008e+01
2.078693130186289295e+01 -5.791932031064633613e+00 3.872614828927541453e+01
2.149791245111974192e+01 -4.659831648599209508e+00 3.980104815514058458e+01
2.146975620415902242e+01 -5.371602561750970395e+00 3.995603144562487330e+01
2.112812683786682300e+01 -5.581899486489788842e+00 3.934069264557695078e+01
2.164498881620060899e+01 -4.792221568704185586e+00 4.019278399483103925e+01
2.268740729998069483e+01 -3.675063463150123333e-01 4.268834046587590336e+01
2.271370913116752632e+01 -1.016604265193128631e+00 4.256958424038771227e+01
2.274001562623878669e+01 -1.665622179473894349e+00 4.245093591505755626e+01
2.254527068917036914e+01 -2.070214614248181206e+00 4.179593777152541634e+01
2.217113511377928603e+01 -3.053604968797691388e+00 4.090411107795463863e+01
2.234645335120671206e+01 -2.474352440217057136e+00 4.114128725657922558e+01
2.005597883294300843e+01 -1.371575565952297682e+00 4.521917799836481322e+01
2.133402943061619794e+01 -7.068285150920980975e-01 4.466279559595354698e+01
1.806436185716757237e+01 -2.648162733553669934e+00 4.582162820535562275e+01
1.595456284216909459e+01 -4.068050576867587864e+00 4.594290721479578110e+01
1.720614226489978194e+01 -3.992288590195150366e+00 4.579575308231934372e+01
1.863373649472558924e+01 -2.410241698317231673e+00 4.569537721734164393e+01
2.244311989429433396e+01 7.679653128319154920e-01 4.367509337007626868e+01
2.266111042007505816e+01 2.816919853849574884e-01 4.280720155731594190e+01
2.119623669982887293e+01 -5.842500628754542014e+00 3.965673408694526358e+01
2.203467728056180874e+01 -4.245423901997988025e+00 4.101675863993414595e+01
2.265514171530651311e+01 3.188507759743903769e-01 4.325226308787566865e+01
2.252932233899761982e+01 1.976670697298995583e-01 4.360315519023514241e+01
2.227608467650163959e+01 7.290120101689782084e-01 4.398378543601692314e+01
2.210556212662450903e+01 1.717628784315418655e-01 4.418313036639538893e+01
2.227879996370664273e+01 1.391336586186884272e-01 4.406609853744049587e+01
1.977149773678700129e+01 -1.882945101911642549e+00 4.530911755762444670e+01
1.948533141065986385e+01 -2.394743726206153944e+00 4.539937123567236199e+01
2.150158605498096165e+01 -7.611259523135754934e-02 4.456383494599768369e+01
2.089840236840005971e+01 -1.402838673803260550e+00 4.488851223609809438e+01
2.052738882890172079e+01 -1.670637383951280253e+00 4.504043659060065607e+01
1.912411415870453268e+01 -2.338015870053565148e+00 4.554102616317004504e+01
1.670387705300434433e+01 -4.261848833774474876e+00 4.580293456986398581e+01
1.770871498616174833e+01 -3.722343085790863704e+00 4.578900767027031549e+01
1.806082797707487586e+01 -3.383114329664585362e+00 4.574240605421506700e+01
1.919907868793999128e+01 -2.906991844197776675e+00 4.548994538585656500e+01
1.805841965772322766e+01 -4.118366299903226668e+00 4.566328520671942925e+01
2.033124909945284742e+01 -6.576631572695619710e+00 3.822771963866786393e+01
2.092272782405965970e+01 -6.313380673652772224e+00 3.935747795929052018e+01
2.064947913816152791e+01 -6.783811017926658415e+00 3.905853429561800283e+01
2.132507321149509494e+01 -6.022525877541331063e+00 4.009165813148821655e+01
2.152987041575255134e+01 -5.809085824639392825e+00 4.054345576005125196e+01
2.170281631866460259e+01 -5.152173177091345480e+00 4.049213623312782317e+01
2.267846402424883934e+01 -3.118893584768846483e-01 4.335586659058252224e+01
2.270179558186256941e+01 -9.425897625557554393e-01 4.345952534011929913e+01
2.225782987592018003e+01 -3.594142341112408712e+00 4.135298946927709807e+01
2.184983646145396108e+01 -4.625874621057117331e+00 4.067453494446422013e+01
2.230215750662074115e+01 -3.034042218822422754e+00 4.124707079476847582e+01
2.158029228656705811e+01 -6.920173887071628949e-01 4.454539572515849244e+01
2.228152634886536987e+01 -4.507928812213711778e-01 4.414850266907618703e+01
2.116635870697324862e+01 -1.338142012449449858e+00 4.476202409486453604e+01
1.881860015108695450e+01 -3.310884723024480003e+00 4.554745375179144418e+01
2.008837202007416423e+01 -2.539847633321441922e+00 4.520053767571027947e+01
2.007271179159660690e+01 -1.955716076971883099e+00 4.520981914174829797e+01
1.755565305770513262e+01 -4.388247407880000672e+00 4.566995845436353818e+01
1.843849222620217176e+01 -3.714569417569818732e+00 4.560521550460187257e+01
2.084740702668521806e+01 -6.934548071923351209e+00 3.963464617499530362e+01
2.107643053550701495e+01 -6.414319002864899311e+00 3.979307181494641554e+01
2.037596935682222110e+01 -7.254694283964447266e+00 3.875933563308500140e+01
2.243029489496699114e+01 -2.679856284192183580e+00 4.161864044728342549e+01
2.262660641322535682e+01 -2.275431728368850326e+00 4.227340034857606810e+01
2.272080856829919426e+01 -1.304201203393956288e+00 4.295517165358868539e+01
2.267412093807429940e+01 -2.233790268663428780e+00 4.254722142083641501e+01
2.261160828458576333e+01 -2.140968637254693885e+00 4.320996837114927303e+01
2.261554847757791009e+01 -3.725093695115400116e-01 4.353129840696278308e+01
2.212687607910984156e+01 -1.147641296606620953e+00 4.426250570124378214e+01
2.165929883302726822e+01 -1.307880868983081202e+00 4.452704622970241388e+01
2.099858624760245362e+01 -1.969986940170557421e+00 4.486150955477832980e+01
2.070587847123652381e+01 -2.549688974067662706e+00 4.496827425324991623e+01
2.010459516852438000e+01 -3.123970860625253199e+00 4.519133530144981137e+01
1.910356757148705498e+01 -3.629842291157710399e+00 4.545364923810976165e+01
1.966010939502054100e+01 -3.307749291980596418e+00 4.533599272845125228e+01
1.780000872480245988e+01 -4.734283040860245428e+00 4.557367121688839973e+01
1.848636860947409488e+01 -4.596317999641462038e+00 4.552241065290100863e+01
2.148923384703180872e+01 -6.280787818418969159e+00 4.084374506801526650e+01
2.171574880114221173e+01 -5.758943308825842600e+00 4.108396770820237265e+01
2.193595366494827914e+01 -4.933318420708578955e+00 4.102844516444751122e+01
2.041348625012848927e+01 -7.591834692925062633e+00 3.909430499240222900e+01
2.265669333422449938e+01 -1.541798271792933273e+00 4.333469968267358041e+01
2.256654010362856866e+01 -2.740105682097889961e+00 4.308533124787810209e+01
2.221348361576426456e+01 -4.154449367113596026e+00 4.145899114182295619e+01
2.228509232309053800e+01 -1.128208895195415673e+00 4.407210813394348747e+01
2.098140050988851257e+01 -2.590569250271650859e+00 4.485937058238205566e+01
2.041342965916236807e+01 -3.129083842943995553e+00 4.507518016953606832e+01
1.900883556458451551e+01 -4.351996089898484854e+00 4.541753979524484919e+01
2.251349888327787241e+01 -2.885174379238174769e+00 4.209603220991921546e+01
2.216917187499999997e+01 -4.714327430755273163e+00 4.156496704743943127e+01
2.239916229232889577e+01 -3.494861334245773055e+00 4.191884150642618323e+01
2.118039322281022407e+01 -6.674103604517975796e+00 4.022731007460502184e+01
2.194236389571247514e+01 -5.236860940833127920e+00 4.132434191771115195e+01
2.260822908680200172e+01 -2.801958503813952284e+00 4.264355357690018167e+01
2.260032015431142227e+01 -1.496843063852491884e+00 4.355547387043414886e+01
2.228418517746445815e+01 -4.104516898223883103e+00 4.174183138578991503e+01
2.173856127463448829e+01 -1.923707840085186804e+00 4.450878862559281401e+01
2.140833112567727881e+01 -2.254921930120508566e+00 4.467597061710671369e+01
2.152258604799451192e+01 -3.176784914856643827e+00 4.461135018765317994e+01
2.096450258855945492e+01 -3.210857284382533372e+00 4.485732008019171246e+01
2.012126353328308070e+01 -3.708086275498676088e+00 4.518221444012067423e+01
1.971898244896390651e+01 -4.163440689195339495e+00 4.524842088471228863e+01
2.254233942800732038e+01 -3.370126941425828360e+00 4.273993169241926182e+01
2.126235147650860213e+01 -6.803471412246588024e+00 4.060317722783905481e+01
2.197836152433830037e+01 -5.387617249991937918e+00 4.169513012996765866e+01
2.103575945872927377e+01 -7.325480221253378943e+00 4.036296343288125854e+01
2.249885283716243833e+01 -2.051095555066742460e+00 4.365147954838473510e+01
2.228868101105810240e+01 -1.805380669446241537e+00 4.399585049745975596e+01
2.239739000501877442e+01 -2.605348477131792073e+00 4.374754374357917897e+01
2.197244714748382677e+01 -1.843576069448694232e+00 4.437649611685991147e+01
2.232501841522908848e+01 -4.326480777580301584e+00 4.220048300151290732e+01
2.212477922375234840e+01 -5.056953270804449119e+00 4.248332705357143624e+01
2.181803113983168885e+01 -2.539502066687539639e+00 4.449062538306276338e+01
2.052583839050534920e+01 -4.079961625508749634e+00 4.501798983425853606e+01
1.931676334342462553e+01 -4.618800847354923356e+00 4.531487656715223977e+01
2.000893395004642628e+01 -4.269176640269741085e+00 4.515523470431127606e+01
2.140997838893102667e+01 -6.930621980734346543e+00 4.142466057744796615e+01
2.178770306730753958e+01 -6.060347629798649827e+00 4.182522373449506858e+01
2.252148803375588315e+01 -3.339213434512757761e+00 4.296079240627341989e+01
2.247645086647908386e+01 -3.938295439567682354e+00 4.283635626260123530e+01
2.230055896843867203e+01 -4.497513213960243839e+00 4.265981393809601485e+01
2.122703530285329165e+01 -3.814378328668000417e+00 4.473229362835368761e+01
2.094781928381968683e+01 -3.831438912167694610e+00 4.485535833212264833e+01
2.229229504676490237e+01 -2.482510103242893784e+00 4.391970337325158624e+01
2.205698607540923462e+01 -2.849608667816649898e+00 4.416714051905938021e+01
2.172439107379736001e+01 -3.198786298939463091e+00 4.442617510903058786e+01
2.163069449644618913e+01 -3.858642083005066503e+00 4.436177208522816073e+01
1.989676818633348176e+01 -4.830251110033913164e+00 4.512835081117182057e+01
2.229592956810959592e+01 -3.159600752140326207e+00 4.384367297118123474e+01
2.238609666923433039e+01 -3.549211454018619705e+00 4.333974768036538450e+01
2.122283475471317615e+01 -7.128129183758640686e+00 4.089370076554543942e+01
2.221957898418480326e+01 -4.587361214650786501e+00 4.294264338108277457e+01
2.214842756496080867e+01 -3.841162900197209407e+00 4.367126217484556605e+01
2.208286861382410393e+01 -3.664465959608346868e+00 4.394083017706064709e+01
2.051180575917794613e+01 -4.952405961359646724e+00 4.492707103806587554e+01
2.194933386773148243e+01 -5.615888256131171374e+00 4.230713176878530390e+01
2.129224984947210686e+01 -7.153059662187940759e+00 4.167711134222238911e+01
2.159702500000000214e+01 -6.733131868502245432e+00 4.195537221987941479e+01
2.196291185622001763e+01 -5.235942044362008829e+00 4.304894010453723752e+01
2.185365344472566917e+01 -5.203506569204878751e+00 4.332702498464579577e+01
2.170642486152947725e+01 -5.884093531132717381e+00 4.315526025436819424e+01
2.200096252532375374e+01 -4.522651566873580720e+00 4.349899468418344384e+01
2.186984016754247762e+01 -4.169281251170129821e+00 4.403804725616878812e+01
2.165659696820442548e+01 -4.674629832631579163e+00 4.413543692049496059e+01
2.153687844540383267e+01 -4.519510182488562400e+00 4.429737542495307423e+01
2.093130280720230019e+01 -4.452427272389228641e+00 4.485348779305379452e+01
2.009216797344607741e+01 -5.452587940797495314e+00 4.500089105134977530e+01
2.055697545398770387e+01 -5.608764433958231876e+00 4.466037576088358918e+01
2.036964594002045814e+01 -6.187476959063588744e+00 4.456389089967500183e+01
2.102304294323441169e+01 -5.709012959577258073e+00 4.431095340972191821e+01
2.074413935948161125e+01 -5.030586684399087183e+00 4.475688125144208840e+01
2.177393385808696991e+01 -6.174441713516252150e+00 4.213119725261262261e+01
2.165196662663568361e+01 -6.308628332897402657e+00 4.255535673521634266e+01
2.157450714252049551e+01 -5.532443979187737781e+00 4.369431554654072158e+01
2.118721543078645908e+01 -4.816719857587027143e+00 4.454321485104263445e+01
2.144302334424093459e+01 -5.180783593235641860e+00 4.423305188056764337e+01
2.060247467211950934e+01 -6.238009481378671950e+00 4.438913094723336172e+01
2.120852598190433724e+01 -5.787120974076065849e+00 4.404804760105569983e+01
2.097413432720758664e+01 -6.393144738574965125e+00 4.386332512126480765e+01
1.992729846057834209e+01 -6.359378724473233824e+00 4.477136918048143599e+01
2.122233496517020157e+01 -7.261568310664402226e+00 4.203447667481985661e+01
2.121174804230312461e+01 -6.857940907858757207e+00 4.277004603201698529e+01
2.145914135253432420e+01 -6.370805433551292474e+00 4.296269364934309465e+01
2.130607868174711328e+01 -6.457705850154128235e+00 4.326805644938698947e+01
2.090563482034848519e+01 -7.031567810216547088e+00 4.338111562237319419e+01
2.096455357686307153e+01 -7.344899044545964095e+00 4.257755896427765663e+01
1.385884387377082838e+01 2.191324886945692718e+00 4.671537778775747540e+01
1.399545512851884510e+01 2.843061190872333999e+00 4.671209574517025231e+01
1.349159375592069843e+01 2.699331535011919136e+00 4.673223087397557407e+01
1.384890422930795673e+01 3.350550299303858726e+00 4.672124671899677395e+01
1.433856040619476602e+01 3.185068522766030696e+00 4.667520883474526983e+01
1.449750410146693369e+01 2.388579458591697957e+00 4.667162129622049349e+01
1.419754227167621607e+01 2.145526962604900056e+00 4.669947186004738882e+01
1.488758068101554066e+01 3.015079093759161388e+00 4.662716903693177528e+01
1.468197361005413271e+01 3.527169591113983760e+00 4.663907196924670728e+01
1.411843128482207455e+01 3.946589871360417501e+00 4.668908578901980633e+01
1.370263964927245404e+01 3.858235207506945041e+00 4.673040446730414033e+01
1.440049318839331960e+01 1.448245375888446818e+00 4.668685791914594319e+01
1.500106945961646865e+01 1.934278641074743899e+00 4.663142879925974427e+01
1.505248155398503584e+01 1.115652962134442872e+00 4.663238438492297178e+01
1.550050016792266305e+01 1.480144183733984153e+00 4.659146958908283409e+01
1.529697890625000234e+01 1.991604623916600092e+00 4.660336805977263452e+01
1.509345781250000051e+01 2.503238573393700150e+00 4.661526781266613995e+01
1.310280356431753823e+01 1.975576224532668679e+00 4.674662211662904809e+01
1.372239061890514300e+01 1.539699232567909304e+00 4.671901175895481373e+01
1.358610797533582115e+01 8.881642396779522164e-01 4.672298186453204494e+01
1.321818880947254726e+01 1.395750753394628285e+00 4.674015628148935519e+01
1.490401837738877688e+01 3.950564062499999807e+00 4.660607073846413329e+01
1.522664388874144770e+01 3.479136302499003630e+00 4.658375976138031405e+01
1.520059748695659785e+01 3.142919688483825080e+00 4.659358420822963609e+01
1.355661485728918336e+01 4.366154068456248538e+00 4.673956967566056875e+01
1.460211975517998795e+01 4.369506251425266719e+00 4.662809455208029163e+01
1.512606119649649017e+01 4.370662499999999895e+00 4.657353820422910218e+01
1.586479309621241640e+01 1.926900598673593201e+00 4.654699987926690596e+01
1.571478006307965813e+01 2.758777612516587041e+00 4.654835698392860621e+01
1.460446250000000035e+01 7.511672235117118346e-01 4.667425271983825752e+01
1.576778097003372814e+01 3.431289336681427660e+00 4.652911474806088421e+01
1.570325134390472677e+01 4.025047842742091930e+00 4.652254727948503898e+01
1.409615984539584055e+01 4.695907691115100313e+00 4.667492937423135402e+01
1.407906823730299983e+01 4.368349979231346936e+00 4.668339557643351156e+01
1.463570836740388970e+01 5.024622792388372616e+00 4.661131773671213807e+01
1.514993967851687273e+01 4.861999031372919333e+00 4.656107935152240174e+01
1.564262389393195285e+01 9.664655864126022733e-01 4.658557518641347883e+01
1.566747021859919364e+01 4.371857625744324238e+00 4.651796144632250218e+01
1.627688843690738452e+01 3.679041659842529732e+00 4.647181126626887249e+01
1.630921107884249821e+01 3.382457988367234325e+00 4.647496913554331144e+01
1.620659963655121061e+01 4.373053784319369086e+00 4.646292540093214996e+01
1.572140883155506330e+01 4.668029083808187707e+00 4.650694197118119178e+01
1.575715586616581199e+01 5.405248607432944219e+00 4.648851638049516311e+01
1.517525807731864163e+01 5.353337508157279601e+00 4.654864479607964967e+01
1.484462456098731664e+01 5.710182244344085944e+00 4.656755495487577434e+01
1.550187124422871676e+01 5.820649031221881486e+00 4.649935011174478916e+01
1.497350920887000036e+01 6.391711964558605352e+00 4.652924853447533593e+01
1.451454690872711772e+01 6.067024004264378156e+00 4.658672773081298857e+01
1.573118461589128891e+01 5.692030504684666425e+00 4.648497821296189159e+01
1.402704505378560285e+01 4.939283134022974808e-01 4.670023533409281669e+01
1.609525013782497638e+01 1.095775134573925502e+00 4.654091314963066850e+01
1.622949990032767786e+01 2.374334963160574130e+00 4.650330059417083106e+01
1.504526056840130366e+01 4.804739652277286721e-01 4.664052897715371415e+01
1.440511766088035017e+01 6.595681046566001515e-02 4.668719451810599708e+01
1.475046758473594721e+01 2.443083596508274780e-01 4.666512700679834325e+01
1.654013222269105299e+01 2.854530556699327981e+00 4.646196534294343650e+01
1.674491388622252686e+01 4.374250293657486743e+00 4.640840242934408622e+01
1.685042224954176149e+01 3.333096558599319081e+00 4.642134253373536268e+01
1.631761977610104708e+01 4.965706956138694395e+00 4.644117927793285361e+01
1.634034672828833124e+01 5.457209553780844935e+00 4.642907516835920489e+01
1.691428748035316332e+01 5.263458640997713545e+00 4.637621538467370641e+01
1.484408254670716509e+01 6.651054717427683727e+00 4.653504434388245414e+01
1.582877623744240658e+01 6.288146413612473395e+00 4.645039828316183872e+01
1.628766912673703260e+01 6.031062464072856066e+00 4.642208085407284557e+01
1.543256863951231139e+01 6.716464166959123183e+00 4.647245730025568378e+01
1.615604400586470391e+01 6.755957699688089235e+00 4.640178433300395255e+01
1.638312554202200388e+01 1.819617304034601313e+00 4.649903627469785761e+01
1.345000597232164097e+01 2.367044401000679144e-01 4.672727315006397220e+01
1.578474984308564188e+01 4.529123322132488361e-01 4.657970551064310882e+01
1.420577293857395773e+01 -6.192168408685979619e-01 4.670059070046728067e+01
1.363617627203372784e+01 -2.770596141449215288e-01 4.672299165358452200e+01
1.489647342281496378e+01 -2.624742908340338965e-01 4.665600484255870128e+01
1.706707797498862078e+01 3.854440292877259644e+00 4.638758906294334849e+01
1.692484642037908316e+01 5.509184256698388182e+00 4.637025748502831846e+01
1.739640607470154876e+01 4.968302654894409365e+00 4.633305923769400891e+01
1.750921654335630251e+01 5.561146817499775352e+00 4.631200078492647521e+01
1.728359369203633378e+01 4.375446735520893249e+00 4.635428512272103063e+01
1.684416916089559635e+01 6.370102922531789780e+00 4.635994474300897394e+01
1.666340506444207392e+01 6.796851657344493702e+00 4.635675520075861300e+01
1.737964389577444280e+01 3.343015625110175471e+00 4.636510522963730807e+01
1.745386388178404857e+01 6.135189300301797211e+00 4.630523070258216478e+01
1.740084471101818053e+01 6.709246862247114862e+00 4.629848935570512936e+01
1.589195471997522802e+01 7.041442896695602194e+00 4.641628078249360811e+01
1.517377897187591174e+01 7.235082718809045410e+00 4.648382381875318003e+01
1.635144788812850081e+01 7.366493509133665185e+00 4.636070452080623028e+01
1.592754337564741185e+01 7.592966116067321636e+00 4.639674582675217351e+01
1.632248973489574695e+01 8.047819619863734175e+00 4.634411914158839352e+01
1.550380447719328636e+01 7.819439725244828665e+00 4.643306450235687777e+01
1.583420190368891234e+01 8.404231076789898225e+00 4.638278729146438195e+01
1.679659539473810170e+01 2.389164553034538230e+00 4.644324118917828770e+01
1.739057277705680704e+01 2.876795509366381509e+00 4.637309553041848886e+01
1.548605824188809521e+01 2.098719068368030127e-01 4.660707668754413646e+01
1.679077651833128471e+01 1.955229085221400709e+00 4.645440548115873725e+01
1.653667952579969480e+01 1.265449646377937887e+00 4.649482742538057778e+01
1.736303848919984105e+01 2.404208884990906459e+00 4.638382253972415725e+01
1.790107839891500774e+01 4.736651706372061454e+00 4.628749737387069274e+01
1.766809187403357839e+01 4.037909192959717508e+00 4.632081861347167262e+01
1.790840663846910275e+01 3.352925688839496488e+00 4.630934978086659015e+01
1.805258866424669506e+01 3.700372896741424444e+00 4.628738776311118386e+01
1.780563585261198511e+01 4.376626029742743285e+00 4.630219088482026990e+01
1.805151394784138930e+01 5.527191643038921853e+00 4.625971344659865281e+01
1.769223638910149887e+01 7.188547429978546788e+00 4.625722482572044214e+01
1.710547257337536564e+01 7.200203674276281163e+00 4.630208981334501317e+01
1.800742022776855933e+01 6.664636157332135546e+00 4.624227877008768672e+01
1.794849932807864334e+01 7.023438164595869004e+00 4.623812493823476188e+01
1.648332498190731599e+01 7.223601363499889239e+00 4.635356606434073257e+01
1.681091111432179019e+01 7.691515625000000078e+00 4.630570647102536697e+01
1.861658159906996346e+01 6.619899771051237281e+00 4.617961885099193609e+01
1.739679390547884452e+01 8.003523179974125767e+00 4.624815934539987694e+01
1.851850184487911832e+01 5.097819688450998754e+00 4.622145053960491623e+01
1.859374072138055922e+01 5.493242473209802412e+00 4.620662351622603126e+01
1.807995936082550159e+01 5.899145070243379863e+00 4.625124524281589089e+01
1.832765347958489244e+01 4.377804732853096681e+00 4.625042178850765850e+01
1.671075954184550838e+01 8.397766042576895629e+00 4.629728840060585071e+01
1.865067777061172904e+01 6.237127999230883901e+00 4.618540473175725225e+01
1.849637426356413528e+01 7.336490737912512827e+00 4.617131223899103531e+01
1.798375992650113275e+01 7.667537975273370776e+00 4.621165797817649690e+01
1.714572489572354641e+01 8.284249183594061705e+00 4.625815443031784469e+01
1.632953481772510074e+01 8.670355006277421950e+00 4.632732551308129842e+01
1.827540050508913083e+01 8.145346658824413666e+00 4.616502125589484251e+01
1.748039493133792277e+01 8.875810242780335813e+00 4.620683944548881072e+01
1.682471250313718514e+01 8.936396405369899654e+00 4.627255108538304285e+01
1.798188928353650340e+01 8.313870757315449112e+00 4.618368876701310199e+01
-3.734945828463789752e+00 -1.591142892084228544e+00 1.987662909634237351e+01
-3.212753505026243239e+00 -1.055786472499073758e+00 1.985512327816122635e+01
-3.027260157619027670e+00 -1.834262191800629216e+00 1.981671188127794281e+01
-2.505614691667644944e+00 -1.415239606550082518e+00 1.979155805307149762e+01
-2.596718113609856715e+00 -6.768678164631184435e-01 1.982173463410165581e+01
-3.920971499735007360e+00 -9.292416816860198381e-01 1.991138506612917780e+01
-3.591465112548271499e+00 -5.551276102217873598e-01 1.989896801900372836e+01
-3.162156382608880101e+00 -3.197640912702622851e-01 1.987478287838773383e+01
-4.377709173959920541e+00 -1.519273992303108445e+00 1.997095402968093225e+01
-4.107339379384861822e+00 -2.675435357372658030e-01 1.994614121955862629e+01
-4.513024374156605845e+00 -6.957344556584260653e-01 2.000021685122778692e+01
-2.397345971400588915e+00 -1.970812831392208808e-01 1.986504857915382161e+01
-3.727848041884513464e+00 3.718030109069531131e-02 1.992783729885004007e+01
-5.064299932788200564e+00 -1.248772044772968659e+00 2.007397027995462935e+01
-4.965293104785726719e+00 -1.999937695415762606e+00 2.005083388586371385e+01
-5.499434165316124279e+00 -1.694860494771551318e+00 2.013207904506976931e+01
-2.489495615196165801e+00 3.741218461966496212e-01 1.992622752175688561e+01
-3.118451592153441698e+00 5.538619323103425307e-01 1.996297631953126483e+01
-4.728691803249437164e+00 -5.193567431243877736e-02 2.003900061294533685e+01
-5.163290165453117808e+00 -4.978823510399515428e-01 2.009710662049755925e+01
-4.431148957708888503e+00 -2.305111841226419322e+00 1.996959172813092209e+01
-4.294206341715582020e+00 3.939867814443930860e-01 1.998089755014507318e+01
-5.598433700134686219e+00 -9.438604446478826571e-01 2.015521540661662314e+01
-5.519805408257875357e+00 -2.497869901681806226e+00 2.019313121521348364e+01
-4.909706999779751335e+00 -2.610531486603965501e+00 2.008354601697445574e+01
-3.731418557540860270e+00 8.113649225625960693e-01 2.000722441863612033e+01
-2.529617575904819837e+00 1.033870201398754185e+00 1.999495964606677845e+01
-5.367749273951364586e+00 2.952272289477542722e-01 2.019103407794607108e+01
-5.751098234593792213e+00 -3.336455214618079812e-01 2.022667499208503727e+01
-6.033572021515157147e+00 -1.389879838709677573e+00 2.021332674480064640e+01
-5.776690917556206450e+00 -1.943747262115899765e+00 2.020322933069565252e+01
-3.168631196637326397e+00 1.228742703733133768e+00 2.003355135500571294e+01
-1.849889280166068017e+00 9.122539634100549355e-01 1.996268553925072098e+01
-4.432250832743496183e+00 9.673661190589699643e-01 2.008125365278692698e+01
-4.825699752890687755e+00 7.695080316047667734e-01 2.011310519554826826e+01
-6.185842866572908605e+00 -7.795904893077452158e-01 2.028478343841792153e+01
-6.047342547063861318e+00 -2.062753867456473156e+00 2.027349459732951686e+01
-3.872010945684149608e+00 1.490169596351348602e+00 2.012442530272531727e+01
-6.061092769192928387e+00 -2.736902636000174027e+00 2.033370992358641516e+01
-6.419399743376994927e+00 -9.588541669298356052e-01 2.034381764411684657e+01
-2.605843456787497292e+00 1.646120722116157564e+00 2.005987849890787089e+01
-1.946267577820382177e+00 1.487923501074860155e+00 2.002444545838816836e+01
-4.570296142277924467e+00 1.540674413682960209e+00 2.018160951895065480e+01
-5.927438070577442097e+00 2.150646387314520402e-01 2.029868493714117861e+01
-6.339018962238470500e+00 -1.694431153311216631e-01 2.035624168568431713e+01
-6.572014470253103369e+00 -1.450572418829452426e+00 2.040798068769403173e+01
-1.538294415907556667e+00 1.689338667864219934e+00 2.007169756434102936e+01
-3.205594170047072922e+00 1.973563466104401920e+00 2.015388693599987135e+01
-5.357190630219672123e+00 1.144960630415622793e+00 2.024531011610741160e+01
-6.805592168856310131e+00 -5.274791317657404610e-01 2.047443092718258129e+01
-3.819673492033213602e+00 2.097294726787841235e+00 2.021671370059162598e+01
-4.234778009133092880e+00 1.884361139184233425e+00 2.021230095239375757e+01
-5.924831852340394889e+00 7.928093144016677973e-01 2.033650873472122811e+01
-6.798761694739990702e+00 -2.014032328107748793e+00 2.053415677892001767e+01
-2.043056140221402472e+00 2.063498384833157839e+00 2.008620593216683048e+01
-5.270066613265357525e+00 2.042239604650665896e+00 2.035669358848170418e+01
-6.492472780435551982e+00 4.406562392422929131e-01 2.042770929792320445e+01
-7.193315668965902354e+00 -8.761173675578641795e-01 2.062036497415686753e+01
-7.191924506910919668e+00 -9.600707580792380846e-02 2.060509057676258138e+01
-2.556053363946742429e+00 2.358739836336587459e+00 2.016901208257660016e+01
-1.536539194713841372e+00 2.384430762094210010e+00 2.018042920081000702e+01
-3.494924843927175839e+00 2.432848606376915246e+00 2.024687835703383243e+01
-4.708343249457833224e+00 2.113922316138225455e+00 2.028196565641814431e+01
-5.888807247865936567e+00 1.520438712525935987e+00 2.037754441545925843e+01
-7.111169864253028550e+00 -1.511486508298725440e+00 2.060289950071103249e+01
-2.199926705212114975e+00 2.663163815132563617e+00 2.021389170833025162e+01
-3.069049998216629049e+00 2.653914967656672896e+00 2.025181809838037950e+01
-4.333087624459921905e+00 2.392466548864633946e+00 2.029955849965236325e+01
-7.337790065533026151e+00 -2.075017503645195216e+00 2.072901838064910507e+01
-3.957583154399883618e+00 2.670757212061518171e+00 2.031709380980120727e+01
-6.646068647586429456e+00 1.051220364778016503e+00 2.049924357178592871e+01
-7.649772181426197193e+00 -1.572677616149959379e+00 2.079762436706221962e+01
-7.930235059037316070e+00 -4.631512410001118463e-01 2.087735243640112515e+01
-7.112347138604549812e+00 6.933080915108494890e-01 2.061749442127556620e+01
-2.712989101877877118e+00 2.958582805730742837e+00 2.029675167805167746e+01
-1.672001549762966333e+00 3.064464633928125625e+00 2.032708473480013822e+01
-3.582079204850551868e+00 2.949048544098307190e+00 2.033462934377288889e+01
-4.846502609552075569e+00 2.687582228814964669e+00 2.038240332809849420e+01
-5.931665406979979238e+00 2.383443414402051097e+00 2.050377702635947585e+01
-7.789999668962475532e+00 -1.017710533609310408e+00 2.083748071228380638e+01
-7.578629795916972611e+00 3.353716631440271656e-01 2.073573865024286889e+01
-2.356927536173152316e+00 3.263251559841234162e+00 2.034168202442098305e+01
-4.471148894990049527e+00 2.966052485733883692e+00 2.039997741529251485e+01
-6.421300298361569681e+00 1.896474781297809109e+00 2.050999494099984943e+01
-7.503603189189204770e+00 -2.150180874743330417e+00 2.086669200766341348e+01
-8.043639121880893583e+00 -1.038208224928798940e+00 2.100603619318033921e+01
-8.070328594291883206e+00 9.066983673946937827e-02 2.091719595518227948e+01
-1.818354414242036921e+00 3.704722556907629638e+00 2.046435462639740521e+01
-3.226244721816079242e+00 3.254075939239510440e+00 2.037964731825537612e+01
-4.095795146086242511e+00 3.244521825150564975e+00 2.041755141871579227e+01
-5.458207336707155299e+00 2.822499183898151909e+00 2.049334298267595500e+01
-6.799677296037354601e+00 1.661753404093353259e+00 2.057078436032333713e+01
-8.019905727806447615e+00 -1.679576726859773217e+00 2.120712548507118100e+01
-7.265851659905545823e+00 1.303389177163104540e+00 2.068898260125269317e+01
-7.965364668604954623e+00 7.666602645716176223e-01 2.086637592007208042e+01
-3.687075835025281467e+00 3.491771437520532206e+00 2.044853391563636791e+01
-6.495677240502015337e+00 2.662827685919548326e+00 2.062757449146509359e+01
-8.437987115551795370e+00 -5.032765879256089203e-01 2.121470578945677232e+01
-2.870131686257889392e+00 3.558844171695279890e+00 2.042459709935862477e+01
-2.514018763013715851e+00 3.863613894099358959e+00 2.046954375697921336e+01
-1.075074842418177745e+00 3.455959709417793402e+00 2.044109956688008367e+01
-3.383440013403597124e+00 3.854175766249126056e+00 2.050747527471983034e+01
-4.609350820006359761e+00 3.539852068114523576e+00 2.050044760836711788e+01
-4.984749657029126091e+00 3.261551987907010286e+00 2.048290385527522872e+01
-6.953248910013381412e+00 2.272067994362103605e+00 2.064230837462483592e+01
-6.038167737773515675e+00 3.053534047963414100e+00 2.061283849062533591e+01
-8.599058394097129465e+00 -1.198548987239000940e+00 2.162044016036427507e+01
-8.210336737973428001e+00 6.440869799811701490e-01 2.095702636157736976e+01
-8.521115869190243330e+00 3.375060234477650911e-01 2.119006996456538161e+01
-2.023688402803089925e+00 4.288030478554262892e+00 2.058627446485113666e+01
-3.975030662571667595e+00 3.967621064533802144e+00 2.055738478019515725e+01
-7.419481502574467591e+00 1.913771003562073192e+00 2.076052445062407870e+01
-8.390038268239305097e+00 -1.785937500000000178e+00 2.161676518264675906e+01
-8.831822930330616828e+00 3.077472379974369524e-02 2.142310730172296118e+01
-8.808135924674640904e+00 -6.108059692860966505e-01 2.162412432112626703e+01
-7.885635810585431393e+00 1.555530491719240738e+00 2.087871335717735377e+01
-1.320599578230405413e+00 4.249729585925710040e+00 2.060847260577909879e+01
-7.080158050360819466e+00 2.906238808702730214e+00 2.079432821732745396e+01
-5.580505050564560143e+00 3.444369128264761493e+00 2.059809291677270693e+01
-8.703200464277392356e+00 -1.334089587534725396e+00 2.185005240162186269e+01
-8.351651571802326757e+00 1.197389969716344593e+00 2.099686020039212053e+01
-2.985453732926014236e+00 4.093019307519845995e+00 2.053725305551516556e+01
-2.671086235662453845e+00 4.463828499654742821e+00 2.059738548421979942e+01
-6.382830094112396102e-01 4.052570256681678806e+00 2.059412153294601211e+01
-5.122916251264507892e+00 3.835141104013417124e+00 2.058334536068370113e+01
-4.587751297561236008e+00 4.292547710659359694e+00 2.065078593574237331e+01
-6.651544150117380205e+00 3.282698521774428446e+00 2.078260706475829522e+01
-7.359071624471835271e+00 2.642194754254162614e+00 2.083099351590588100e+01
-8.607624032765004429e+00 -1.928799043589215501e+00 2.219848873586279581e+01
-9.016229600485122120e+00 -8.824214551265154860e-01 2.208325781736512994e+01
-8.787959427111411870e+00 8.810985195675560266e-01 2.131413226926184379e+01
-9.016855509986664075e+00 -2.323487625565549136e-02 2.162781045421820991e+01
-1.745638876325385835e+00 4.698691262414106617e+00 2.069062021985493161e+01
-3.352541832497135665e+00 4.509853361637098601e+00 2.063786583363370752e+01
-6.073459529258279588e+00 3.765872369489409621e+00 2.076189775875548449e+01
-8.011707283049751993e+00 2.140421865875157703e+00 2.099643053410624560e+01
-8.904641125857297723e+00 -1.369111268928242975e+00 2.229933131152252557e+01
-9.225646423143848196e+00 5.646286309636059375e-01 2.163150532326009667e+01
-9.329238312857107474e+00 -4.307720557807755424e-01 2.231646384697242524e+01
-8.477781860316607521e+00 1.782207114747201393e+00 2.111458372580814569e+01
-2.259005876210951058e+00 4.824425436975289472e+00 2.069636487685554016e+01
-7.090303599032815596e-01 4.707278934105825208e+00 2.073794585894984621e+01
-4.053359368659586792e+00 4.749293419941267302e+00 2.071812181857787394e+01
-7.206980089435718106e+00 3.539917789749742916e+00 2.094624550512415695e+01
-5.616073099178533923e+00 4.156826225844398870e+00 2.074723335146468273e+01
-9.029494171851906614e+00 -1.548039584252326017e+00 2.272268730793072322e+01
-8.741233684277080584e+00 1.673659027463809679e+00 2.125666140513099478e+01
-1.277977597203547422e+00 4.946177948624088216e+00 2.076664445421488381e+01
-4.678893479681010881e+00 4.979118819577645461e+00 2.084062102949355477e+01
-5.267370271078489097e+00 4.476680851757523172e+00 2.076660527085607200e+01
-7.764676764613605897e+00 3.012105943966580046e+00 2.101958091284883423e+01
-8.184302847394123503e+00 2.689583460129527204e+00 2.112595901285039446e+01
-9.233830943469357067e+00 -1.024739438742657827e+00 2.266495634999782638e+01
-8.825215983872734427e+00 -2.071405575943546129e+00 2.278039635518172901e+01
-9.434025790538800749e+00 2.919228280764505912e-01 2.209073644216835319e+01
-9.107048222560345963e+00 1.513604840404608520e+00 2.151982333335828557e+01
-1.846924793431956147e+00 5.185023197369635461e+00 2.079534299230703454e+01
-2.827958827233468142e+00 5.063241858883798407e+00 2.072506679408363794e+01
-3.519088162199849101e+00 5.205937620046720227e+00 2.078543545072024656e+01
-6.716813980056139499e+00 4.064688897499361353e+00 2.095162263867369035e+01
-9.642117442602577526e+00 2.104499131047040880e-02 2.254958802537081297e+01
-9.438042959881684624e+00 -5.016710014578553700e-01 2.260725587836269668e+01
-9.396756294319136060e+00 1.199823148769261216e+00 2.173297036694911810e+01
-8.603931383062736415e+00 2.367059553335021160e+00 2.123233265730982566e+01
-9.231339025099003504e-01 5.275398288638475819e+00 2.085813953384216290e+01
-4.144562013869641959e+00 5.435811722238095278e+00 2.090794651057052178e+01
-8.170444301246670094e+00 3.382147758761882006e+00 2.120824705458882065e+01
-6.108754960335409656e+00 4.478165562877581607e+00 2.091096179349603190e+01
-9.181038869476122244e+00 -1.555128054963374584e+00 2.310287059634355700e+01
-9.522706914622938612e+00 9.842906454949759132e-01 2.191480944663847197e+01
-9.131344861069456087e+00 2.150555959755036550e+00 2.151682809282529263e+01
-9.532832389108852666e+00 -7.158175885542710226e-01 2.307017575311097346e+01
-2.415873911155069109e+00 5.423820906337009973e+00 2.082404158079021883e+01
-5.411670832162920775e+00 5.117489147460394072e+00 2.094967034088200819e+01
-5.716732188581427287e+00 4.731705474535467637e+00 2.090653621342874757e+01
-7.955280594578702846e+00 3.963175437328192885e+00 2.124768571846171739e+01
-7.333836293597516764e+00 4.173709878060655853e+00 2.109820403540113176e+01
-9.536955964969695998e+00 -1.038663720987823780e+00 2.342546410408873925e+01
-9.019851967879269239e+00 -2.235933727425289064e+00 2.350627324673326157e+01
-9.835206540212277915e+00 5.764402792540022080e-01 2.260340024892218835e+01
-9.767516326604054555e+00 -2.496817480788559029e-01 2.314873520843492116e+01
-9.567712968803432361e+00 1.834468678730732716e+00 2.183438371658047927e+01
-8.730179465511843873e+00 2.952319937784261050e+00 2.135018101307094085e+01
-1.369171457242798651e+00 5.674284000930049920e+00 2.092905460269339457e+01
-3.404968656265839333e-01 5.193338957269090450e+00 2.086594023803058207e+01
-2.984823006889763874e+00 5.662574958666336755e+00 2.085274012808513788e+01
-4.821319198454195210e+00 5.731254805311318812e+00 2.105281858573390608e+01
-7.012550924858396151e+00 4.551545407434749002e+00 2.110848007117230196e+01
-9.351612410781600104e+00 -1.584641683038050086e+00 2.359801433869352039e+01
-9.819919387299242075e+00 1.404158532676576421e+00 2.219827787193119306e+01
-9.963906049191644243e+00 4.956550310859793029e-01 2.294287093696263824e+01
-2.055685006718290353e+00 5.899457799022087556e+00 2.094928004621058903e+01
-7.047807763604928555e-01 5.702389682717310393e+00 2.096577241722126317e+01
-3.556351025148491551e+00 5.938080581861878038e+00 2.098192708368560133e+01
-8.576724930995052176e+00 3.752640066465413149e+00 2.139715493938465585e+01
-6.601479096414952785e+00 4.799498404119646899e+00 2.107470276521314290e+01
-9.892901631485296221e+00 -5.221101671249027687e-01 2.374811388072458485e+01
-1.002800795495564756e+01 1.131469342981659354e+00 2.265715753785874398e+01
-9.521771634801730499e+00 2.627818886305276713e+00 2.177721731968975405e+01
-2.641352772553128947e+00 6.116199196163489837e+00 2.097218284653642684e+01
-4.128402973378380914e+00 6.213794363561500056e+00 2.111123127708149738e+01
-6.039119222530435316e+00 5.215396451443442771e+00 2.108125841086014418e+01
-7.917076622846738410e+00 4.494899051807959012e+00 2.133160094499199388e+01
-8.856390330042543724e+00 3.537370920703256427e+00 2.146800279964070768e+01
-7.460861081807845352e+00 4.808303432279324774e+00 2.125036704614836935e+01
-9.666724016660907637e+00 -1.148260499682763669e+00 2.390928590176557833e+01
-9.440546129196045300e+00 -1.774281987812355021e+00 2.407044247261910641e+01
-1.013090130444474823e+01 1.327731165474384523e-01 2.374163655507333104e+01
-9.189078059572068469e+00 3.082602540978426564e+00 2.162261507109311154e+01
-9.739055191543029011e+00 2.469769016092921987e+00 2.193592926617582606e+01
-1.011686468907470982e+01 1.823639627815733855e+00 2.248150916940589639e+01
-3.163235339066307716e+00 6.194149378377934667e+00 2.102508429167997761e+01
-1.011956242531312222e+00 6.287428100293595890e+00 2.108560375345808779e+01
2.803571050538845519e-02 5.679395994093805022e+00 2.099392668432962950e+01
-4.701102875422673577e+00 6.489779913966148506e+00 2.124068099699074708e+01
-5.556035472353091365e+00 5.758531350180202679e+00 2.113281511427348747e+01
-8.517914832800768110e+00 4.562623147398721990e+00 2.152481031909456632e+01
-7.094669461096820839e+00 5.121102386306289667e+00 2.123859723249773879e+01
-1.028530706413084594e+01 9.695441510891995573e-01 2.333571226372151841e+01
-1.022092921487170258e+01 1.687286203455589773e+00 2.271097275527657544e+01
-9.915069769999869109e+00 -6.706902826965005504e-01 2.425672893314199285e+01
-1.695497391715657720e+00 6.375093399110664194e+00 2.107451156731874065e+01
-2.953982504545546450e-01 6.242610310084476311e+00 2.110800992293729195e+01
-5.181287733525576478e+00 6.191664280942630327e+00 2.120975615635805056e+01
-6.658839849950687118e+00 5.520710390796824463e+00 2.126278845122524430e+01
-8.982696333426320123e+00 4.122830140226215967e+00 2.158592177215417252e+01
-9.688963475142456261e+00 -1.296668952287180598e+00 2.441790443039780811e+01
-1.036893450237056058e+01 7.879275186894901806e-01 2.373518362411410720e+01
-1.017767678256095998e+01 -1.196874055874362491e-01 2.412951006754118310e+01
-9.911943897692797378e+00 3.104746015408855975e+00 2.203744799700757540e+01
-2.297342445428186331e+00 6.570535928534515513e+00 2.109180724469089796e+01
-2.832935928746636467e+00 6.569158891513147580e+00 2.112124190453533856e+01
-3.735169330743456140e+00 6.470171644468604377e+00 2.115447241226676311e+01
-4.085164219513911732e+00 6.718572859792071306e+00 2.125721179613779910e+01
-8.052672592735817148e+00 5.002845189769530521e+00 2.146362693196487470e+01
-7.587846971501488902e+00 5.442665033790611950e+00 2.140248571804563227e+01
-9.447149005875420613e+00 3.613977696566235576e+00 2.181161288555635736e+01
-1.016184506072996285e+01 2.674092212019619108e+00 2.240104557075918379e+01
-1.029379224157781181e+01 1.373339453060868243e+00 2.308263787365487829e+01
-1.041387119159723973e+01 2.243191717834514876e+00 2.276481652267155198e+01
-9.462880225385276844e+00 -1.922509671515730600e+00 2.457917507021218384e+01
-9.937238157609947109e+00 -8.192686344856378033e-01 2.476533448464917342e+01
-9.594258992327967306e+00 -2.015559969926088879e+00 2.510315790470039943e+01
-9.711203489565878755e+00 -1.445078274358154502e+00 2.492652305814196723e+01
-9.345662494926475716e+00 -2.493304839914888049e+00 2.475537541550983178e+01
-3.341937609164423506e+00 6.726549782992615967e+00 2.119770672095202713e+01
-1.319131669869015200e+00 6.872408364355997890e+00 2.120543300940492415e+01
-5.700451261495946831e+00 6.399762486721958687e+00 2.131602533051564663e+01
-6.179645320660126728e+00 5.960235476208223915e+00 2.128941319145663158e+01
-9.054360001871193830e+00 4.683484798190204579e+00 2.175633220155726377e+01
-7.151978678477493467e+00 5.842314905308307438e+00 2.142668676146459106e+01
-1.019993077137729642e+01 -2.680762765440720119e-01 2.463804974951384352e+01
-1.041571711450684745e+01 5.353677265535629060e-01 2.412309518290879851e+01
-1.051045216702870100e+01 1.842270377805968806e+00 2.324704653082738304e+01
