1.654378463041054204e+01 1.533470219688620162e+01 3.593635477358665753e+01
1.729491606395503922e+01 1.426762642436194106e+01 3.527520663268261103e+01
7.410681618767478440e+00 2.164266919156206370e+01 3.621456015521308558e+01
7.597342697352726049e+00 2.146243058121591218e+01 3.722828838285207098e+01
1.367875585028293273e+01 1.795730215943411778e+01 3.725458126752523214e+01
1.300765630495992653e+01 1.833747513439715249e+01 3.754308673771985383e+01
1.233669670485697090e+01 1.871728429397219529e+01 3.783137912118038315e+01
9.882212945755233235e+00 2.014457489074543517e+01 3.804978808247354038e+01
8.221150000000001512e+00 2.114564118424472383e+01 3.751223462879526238e+01
1.703498937993075657e+01 8.542770282806435134e+00 3.037434678521266207e+01
1.777186754136856095e+01 9.329191495312327831e+00 3.174088086994985858e+01
1.695792999721821204e+01 1.488098144213638463e+01 3.564029223388219947e+01
1.746681704878198360e+01 1.371302935473638840e+01 3.496343693367855820e+01
6.974053398298675432e+00 2.177893345595977692e+01 3.694457170403343582e+01
1.043650709974810731e+01 1.981100508324791321e+01 3.822885226104892098e+01
1.437634681758327382e+01 1.747218199231802771e+01 3.734383789824890698e+01
1.491129528674244042e+01 1.705308883319346691e+01 3.697131795671351284e+01
1.166536772316042203e+01 1.909702554022732102e+01 3.811967206957015719e+01
9.328330795593963387e+00 2.047841024242822527e+01 3.787055248856624701e+01
8.774846155265009884e+00 2.081197652304703283e+01 3.769143254968196288e+01
1.744960216045959456e+01 8.529540837182537416e+00 3.084972265880114151e+01
1.713657053386256379e+01 7.793317977335052049e+00 3.029718336690202563e+01
1.820288066483920275e+01 1.099091640034640349e+01 3.321163943191040602e+01
1.782515478905900608e+01 1.300775310525974504e+01 3.482346168469327097e+01
1.809766981637973515e+01 1.218665247400647544e+01 3.438937263090036112e+01
1.604512042950603501e+01 1.588423250541105780e+01 3.638180109259987205e+01
1.571933173490870850e+01 1.623315998810925365e+01 3.662059376286934054e+01
6.937315572796514118e+00 2.184085236876633829e+01 3.645759083868733796e+01
6.964520698924324904e+00 2.169865269478155412e+01 3.748530922789434783e+01
7.588120208797446864e+00 2.138192228805642259e+01 3.776914410778562825e+01
1.099324372502497482e+01 1.947694592430550031e+01 3.840814741060396642e+01
1.370855022825257841e+01 1.784167332176667031e+01 3.767019641719092959e+01
1.304029424774887858e+01 1.821115319880761874e+01 3.799642742327645806e+01
1.795272941712369175e+01 1.013039471805196534e+01 3.240702935200385326e+01
1.800175048321089477e+01 9.551849024781144948e+00 3.221283652856988766e+01
1.813305754622848198e+01 1.175669312845789705e+01 3.396163675486386069e+01
1.834708008922375200e+01 1.117593198189232062e+01 3.369277988558218340e+01
1.821865090026037848e+01 1.038058013895019727e+01 3.294942292878627654e+01
1.733925783508223262e+01 1.434642594505527846e+01 3.579334137711163777e+01
1.770121418200271890e+01 1.367978110550850168e+01 3.536030524459594915e+01
1.547254273000200442e+01 1.652948396713232171e+01 3.697644881206955603e+01
1.493806112715548373e+01 1.694836060645761577e+01 3.734912707015320876e+01
1.238021206339112723e+01 1.854866589489054007e+01 3.843595564331114645e+01
9.683129996223613034e+00 2.015182328140116041e+01 3.834382305027883575e+01
8.442199582110928802e+00 2.083493222849995874e+01 3.814866136362061155e+01
8.980282959441083790e+00 2.054410730155706233e+01 3.821620588786421280e+01
1.788642961050137359e+01 8.559816664010188703e+00 3.156156421831671466e+01
1.803522924806120997e+01 9.030552634708076454e+00 3.202081711197348568e+01
1.703024946611417789e+01 1.490682883213093390e+01 3.609041550380390362e+01
1.656932717844798830e+01 1.540846653933550492e+01 3.646143307150729385e+01
6.341350691184586275e+00 2.201513904484554729e+01 3.720167291669410048e+01
7.959711892937976430e+00 2.110039592711921230e+01 3.807317471774375406e+01
6.954987949492200450e+00 2.161812255412519335e+01 3.802601560129048863e+01
1.035499889288309383e+01 1.972486203246822711e+01 3.863301144169853529e+01
1.440323013864584389e+01 1.736717684096271697e+01 3.772185002109627305e+01
1.373831509934745299e+01 1.772599730663631590e+01 3.808574437494830534e+01
1.168651701316347058e+01 1.901304190155457619e+01 3.842209663831023647e+01
1.307289967010196285e+01 1.808476922944526777e+01 3.844968680143522022e+01
9.190334646357978698e+00 2.030953702393294691e+01 3.862697579748106591e+01
9.718068275706201575e+00 1.997244278033566545e+01 3.885761260276379403e+01
1.773743961768850852e+01 7.926313571543845526e+00 3.102549588951477588e+01
1.823440981829273966e+01 9.770970972028814927e+00 3.268751551057816584e+01
1.825015879510086947e+01 9.161277831020228746e+00 3.242556882952774799e+01
1.850251858870326771e+01 1.034800532338548074e+01 3.335636539771496700e+01
1.849114699161159692e+01 1.136072071194101341e+01 3.417332781464765645e+01
1.830219613112785026e+01 1.236913797021452766e+01 3.497908970219034330e+01
1.603357699717311391e+01 1.600589154500615763e+01 3.698148330509488346e+01
1.550495867556657359e+01 1.640367252222738514e+01 3.742944956285763425e+01
6.331654939401879290e+00 2.193476045220485560e+01 3.774234812954988882e+01
7.326573432951714260e+00 2.133647510319830332e+01 3.833021620673446961e+01
1.094160839140519137e+01 1.930439503183037075e+01 3.879823877339671157e+01
1.163522152667496989e+01 1.884028366430159807e+01 3.881202031262855456e+01
8.524350150968029283e+00 2.063180716359262945e+01 3.866306969541985694e+01
9.082371641725455191e+00 2.022002855515335540e+01 3.908226094346058233e+01
1.849517540007652627e+01 9.878868673517407828e+00 3.312587077067558994e+01
1.755780804464354361e+01 7.119266372857358860e+00 3.060874883036942151e+01
1.826590448922663157e+01 8.550610390079055989e+00 3.216320643847958394e+01
1.868790729763805203e+01 1.055038732022082293e+01 3.394545248997358300e+01
1.863527158897448643e+01 1.154549515574966989e+01 3.465383657353876146e+01
1.810830582585827386e+01 1.309172941400864509e+01 3.544539781411278057e+01
1.772126808763546180e+01 1.381186659570398056e+01 3.594635526067960996e+01
6.862345035322073628e+00 2.153395998324083749e+01 3.844094259959610582e+01
7.698158447093518930e+00 2.105475263720990142e+01 3.863436387236971825e+01
1.029931054942358593e+01 1.953773199495281432e+01 3.905556617869072511e+01
1.443006702619544335e+01 1.726220940748410371e+01 3.809954883736963893e+01
1.496762909287844678e+01 1.683303213144162314e+01 3.776439266880503709e+01
1.284791599121090222e+01 1.802832700825327450e+01 3.883597928761671625e+01
1.212915897184828040e+01 1.840601780724304959e+01 3.901721081297898053e+01
1.803750961220996274e+01 7.842011921720639656e+00 3.146499210067970864e+01
1.851592401988507319e+01 1.250363503275316468e+01 3.553046188678837325e+01
1.794522593574628644e+01 1.342198545877163696e+01 3.575859079804875051e+01
1.738833018733383540e+01 1.442538990053732384e+01 3.631147193743534274e+01
1.709341497058376902e+01 1.493269593140893825e+01 3.654094707805316489e+01
1.659452909868591775e+01 1.548218051461691580e+01 3.698641453415640257e+01
6.322142097054152643e+00 2.185410125955677074e+01 3.828270003306521829e+01
7.036955243128061532e+00 2.133069441170689728e+01 3.880882514356752466e+01
1.376522913612244636e+01 1.762091113831463218e+01 3.846329402442459156e+01
1.088999013042030484e+01 1.913173075477412155e+01 3.918809755912096193e+01
9.547045486888833921e+00 1.979460298613458846e+01 3.938889756992437441e+01
8.002870594098354218e+00 2.077684813182875700e+01 3.903149056135274009e+01
8.446592765360364297e+00 2.046757559068534249e+01 3.930692180588088291e+01
1.828161869805608575e+01 7.939561384341711658e+00 3.190069837772196948e+01
1.802513523865608391e+01 7.323255553585782174e+00 3.120122772128272004e+01
1.865955301468008543e+01 9.341526697898384413e+00 3.311886831185148594e+01
1.880164254796795831e+01 9.706182074875401966e+00 3.350085352287759122e+01
1.868240802531250822e+01 8.703665484481719616e+00 3.285437045813967671e+01
1.887350205312334239e+01 1.075210420469319494e+01 3.453435189460381594e+01
1.877965226742126603e+01 1.173046392028299856e+01 3.513485096869278124e+01
1.553733549614368492e+01 1.627780831277931384e+01 3.788241826637447929e+01
1.607702621103330287e+01 1.583804487347696366e+01 3.758530650188055233e+01
5.698387291364839236e+00 2.217094947714619124e+01 3.799919114125820840e+01
6.183803758821221130e+00 2.171466977907483908e+01 3.894498797066387397e+01
1.262292061578050806e+01 1.797169474608861250e+01 3.922224197039037819e+01
1.148385044578682468e+01 1.868247233224738224e+01 3.929759156010905485e+01
5.688449999999999562e+00 2.209028551396244566e+01 3.853966334034066676e+01
8.931038201218058248e+00 2.009615922669116017e+01 3.948775462466825559e+01
7.436846491065895570e+00 2.100876336634987140e+01 3.919502912281038220e+01
1.870502490308590282e+01 7.952949184488236511e+00 3.253679795647576611e+01
1.803590847150957899e+01 1.343719672577688584e+01 3.630341195420908917e+01
1.833017869171870373e+01 1.292950817317269596e+01 3.607390964274247125e+01
1.892408247949544275e+01 1.191529714170679988e+01 3.561551609145570296e+01
1.774671426494786175e+01 1.394394807188985652e+01 3.653250888103193006e+01
1.661621512733496431e+01 1.539837092985500000e+01 3.728829951913942153e+01
1.499716697763172313e+01 1.671765341126663529e+01 3.817962460626785770e+01
1.445684652448303176e+01 1.715732470783662222e+01 3.847675581385555432e+01
1.323492712918716840e+01 1.770009340322453539e+01 3.897354925497307221e+01
1.384610508320509581e+01 1.742869645346111085e+01 3.872510679922682897e+01
1.024361954675686270e+01 1.935038355382071984e+01 3.947802073681084778e+01
1.201157717101674471e+01 1.824284083704912973e+01 3.947058656380726660e+01
7.811136277085759083e+00 2.071492759896724323e+01 3.953145301390050292e+01
6.679427148966662564e+00 2.133869955992597767e+01 3.935045852979252601e+01
1.829723942560720928e+01 7.329811862314177695e+00 3.163878341483392376e+01
1.789032642718094834e+01 6.492676157503913359e+00 3.083030560091247452e+01
1.900838942149366773e+01 1.003323332886011343e+01 3.424217385499390787e+01
1.889281101581317657e+01 1.119994137619735142e+01 3.495059034977815315e+01
1.862664886563878142e+01 1.242211095403264842e+01 3.584456318154291665e+01
1.745420124211748814e+01 1.445101261032192497e+01 3.676176122022818049e+01
1.715518508968609623e+01 1.495854325799508011e+01 3.699123502384216522e+01
1.366884432896507207e+01 1.732036686654711843e+01 3.930220293930991460e+01
1.083835711218574183e+01 1.895882818159609684e+01 3.957797233045472041e+01
8.978995200464392923e+00 1.987375577118424985e+01 3.986269115699453636e+01
8.377602333412211166e+00 2.023672565039876403e+01 3.982727232422348607e+01
1.620534779411777748e+01 1.576301386347969213e+01 3.807889857564756397e+01
7.175349615482139676e+00 2.096233927502314387e+01 3.975608698153097009e+01
1.855428475673710764e+01 7.478824588669519713e+00 3.209082841625628646e+01
1.831279949999999701e+01 6.720133796784396374e+00 3.137699056978943801e+01
1.910070235074233480e+01 9.064445234097156856e+00 3.364532889960589301e+01
1.905257698496365393e+01 8.187500644439058561e+00 3.316347643431347336e+01
1.910228827243972205e+01 9.478600241206629917e+00 3.399360892952928026e+01
1.903450162578508298e+01 1.132457060687927708e+01 3.537541727491828425e+01
1.820523776773862679e+01 1.350562311352010880e+01 3.681948326104135560e+01
1.842503748918042206e+01 1.311400780712071779e+01 3.663296640058305798e+01
1.508245459544006017e+01 1.666765962998055528e+01 3.850871556450653799e+01
1.663375189688751732e+01 1.540626921036814245e+01 3.769932651679241786e+01
1.464197565402388967e+01 1.687409184319340127e+01 3.894465277056756491e+01
1.139941835948115489e+01 1.851419070619243001e+01 3.971918713138012436e+01
1.274305542089935450e+01 1.779625566925268743e+01 3.950287369965229800e+01
5.733712725441618474e+00 2.178009117596449329e+01 3.934546887854080666e+01
9.580181703650804792e+00 1.951106491298523693e+01 3.989793858760069867e+01
7.776299539303770381e+00 2.059963963193163750e+01 3.979172841821922901e+01
8.695188746334839180e+00 1.979591550294465563e+01 4.034436273955913066e+01
8.187739291553082666e+00 2.018480656485070313e+01 4.014833143375986424e+01
1.858984775037335169e+01 6.931813009103187539e+00 3.188801387259902498e+01
1.925586830718412656e+01 1.014347806919313655e+01 3.489538423992025429e+01
1.914511164199157278e+01 1.073405485533550063e+01 3.513541164023999386e+01
1.875254397357543468e+01 1.249177755968265302e+01 3.627216072682800529e+01
1.904941312247271767e+01 1.198468052539375961e+01 3.604296197023013093e+01
1.761321847970183896e+01 1.440531507452813287e+01 3.705820791029126582e+01
1.018355237511605083e+01 1.914831825241528662e+01 3.993303170409687652e+01
1.219660940659879600e+01 1.795881552797922609e+01 3.993953457552258612e+01
5.913522295138708529e+00 2.155120333485541551e+01 3.974937210394438125e+01
1.729818712423229599e+01 1.487514639492400903e+01 3.753941028427975368e+01
1.570819006679284335e+01 1.617773217226268656e+01 3.854061861005835254e+01
6.544249389813788120e+00 2.125686742121158801e+01 3.975275551124025952e+01
7.681337598161153579e+00 2.057378074057415418e+01 3.995215319844694335e+01
6.973779437524837199e+00 2.080132358358370581e+01 4.027624090253965505e+01
6.580647625347321394e+00 2.116073637021251486e+01 3.995155277281701700e+01
5.985146436157273264e+00 2.135928329921346602e+01 4.014720148777383457e+01
6.139590609550293010e+00 2.094154517469122467e+01 4.082251028081020650e+01
9.205363411890610692e+00 1.940642788156657872e+01 4.054058121408445459e+01
9.764916231851657358e+00 1.921893160645063503e+01 4.027367419499977785e+01
7.570748284106587178e+00 2.040590630030400376e+01 4.038784020929170282e+01
8.152750278272621998e+00 1.983470534019595988e+01 4.085094979054156283e+01
8.843268193044480086e+00 1.943244628161120247e+01 4.087823543388404346e+01
1.914408734570893955e+01 7.355275152925486282e+00 3.291039510716020544e+01
1.886687378451804520e+01 7.143471971209746307e+00 3.239902839453587546e+01
1.936675251108259133e+01 9.552568830761336116e+00 3.465522555012921657e+01
1.925275069893755742e+01 1.127501296659898600e+01 3.572136592511505881e+01
1.807099696695940594e+01 1.385219530947177802e+01 3.712512491792070790e+01
1.886290797960068133e+01 1.261872871760791170e+01 3.676549090461881519e+01
1.423739567178608389e+01 1.693045666443504871e+01 3.944183824948359529e+01
1.290153912334600150e+01 1.754522077739797936e+01 3.992521104678870358e+01
1.078669937970287585e+01 1.878563501018048143e+01 3.996794135817113158e+01
1.050527039126049544e+01 1.870714963671006359e+01 4.045043812522121129e+01
1.134728304390507070e+01 1.837590390657941697e+01 4.010327044565780596e+01
1.149197563319363802e+01 1.837210232661026765e+01 3.995376960858349946e+01
1.681198568205048716e+01 1.528698849910238700e+01 3.809698261259267582e+01
5.283623040094315826e+00 2.184513571737969073e+01 3.974594464869605304e+01
5.390388683820381388e+00 2.155747254925521617e+01 4.034253560897499113e+01
6.772349999999999426e+00 2.063933151019258005e+01 4.079601868883198534e+01
4.795083436099233154e+00 2.175574268471879336e+01 4.053798323265460368e+01
5.506139006728611562e+00 2.124408471341178029e+01 4.084897266109737046e+01
7.461630188347279535e+00 2.023724832097138915e+01 4.082352396176779052e+01
8.432757774050514854e+00 1.929563545670706048e+01 4.113922890109288488e+01
1.855125362484476881e+01 6.112689289979582163e+00 3.159082448242996932e+01
1.928919215065145565e+01 9.012957591015812397e+00 3.403016362255302596e+01
1.939980818321989986e+01 8.422522696611261850e+00 3.378985495700613484e+01
7.604989586083976683e+00 1.973293555691211765e+01 4.114028948845037092e+01
1.852505330857487209e+01 1.329850787195964301e+01 3.719205632497946112e+01
1.518029522108238183e+01 1.646655283706395068e+01 3.892625908551397629e+01
1.360557561078534938e+01 1.713201473117579710e+01 3.991081192950761647e+01
1.134001985684417413e+01 1.817306190946884215e+01 4.050417931548268058e+01
1.190750220158107275e+01 1.796617796487693752e+01 4.023854901437444909e+01
1.633364750939905363e+01 1.568785218954363359e+01 3.857243343309774986e+01
4.494853944574709992e+00 2.203971401850711231e+01 4.017614175396234799e+01
4.872844047714003146e+00 2.154654662491274308e+01 4.087537156143793027e+01
6.129930092291321131e+00 2.086097434505657588e+01 4.092403727418372483e+01
9.714799825449841109e+00 1.901721688954792455e+01 4.073653712554539652e+01
9.533855198920127449e+00 1.903008151201026266e+01 4.090539358977370199e+01
6.815451448918279809e+00 2.006245864472881735e+01 4.124786065607673891e+01
7.188054894389972027e+00 2.018481174714597870e+01 4.096817381998315710e+01
1.942179028508730454e+01 7.567453639784172736e+00 3.342265310732376804e+01
1.947768129284137117e+01 8.961469537508357064e+00 3.441499047146763957e+01
1.947721817159693813e+01 1.032144511307217449e+01 3.541416355161162244e+01
1.950730884172327251e+01 9.767085397393355350e+00 3.505933868810475218e+01
8.021149148006680107e+00 1.928449497831016046e+01 4.131199876375533364e+01
7.772580327247998966e+00 1.920198747310477216e+01 4.149828780563172614e+01
7.108026282298757437e+00 1.957043427460683915e+01 4.151295315904742722e+01
1.246818200219935591e+01 1.755585832537657254e+01 4.037397130522895594e+01
1.942384066447410262e+01 1.129796107563013585e+01 3.621698715645195676e+01
1.917513641119084156e+01 1.205404805477425079e+01 3.647033815536775592e+01
1.770770339400890947e+01 1.437234904700167348e+01 3.755051305192332478e+01
1.482744056956958190e+01 1.659001994532605551e+01 3.941329291890262709e+01
1.087850381791052534e+01 1.824400070476251301e+01 4.090721689435029873e+01
1.744116836134204718e+01 1.479160122848116465e+01 3.808754600249432087e+01
1.695911514501906936e+01 1.519778598424530358e+01 3.860416990138987359e+01
6.218027563158762483e+00 2.064847301277391978e+01 4.104946092951662706e+01
5.486605453101834229e+00 2.108289938288359977e+01 4.105218381673934402e+01
4.239125761247851010e+00 2.184920806594988463e+01 4.090173564489220581e+01
4.200492057646481925e+00 2.195368060497956009e+01 4.073313504450081979e+01
9.028853396070498860e+00 1.906339455191181997e+01 4.107672995579157771e+01
1.891711820027611424e+01 6.353269142868766650e+00 3.225448573013311204e+01
1.941210538739526115e+01 6.950212188086068110e+00 3.323008994745389799e+01
1.925173108562421831e+01 6.494072343841660988e+00 3.283876583090930268e+01
1.963997695249516084e+01 9.208191796323703215e+00 3.488089902955265842e+01
8.437063835726853256e+00 1.883348770356533208e+01 4.148350275800802933e+01
9.032355905131398188e+00 1.876446678022160697e+01 4.129990296052811516e+01
1.022392803749326262e+01 1.862794431097538350e+01 4.093239219597403178e+01
7.777407057939270452e+00 1.891067184177728677e+01 4.161164074424333137e+01
6.442765262275995219e+00 1.993917629743631892e+01 4.152751993562708321e+01
6.201156567211609349e+00 2.033726440332928931e+01 4.131594381626860013e+01
1.218720522626615121e+01 1.747612666246655877e+01 4.085658999622171450e+01
1.302853343149604726e+01 1.714552476305609119e+01 4.050934213840775300e+01
1.897584538565311618e+01 1.274555285504403201e+01 3.725884599620183479e+01
1.930158868787390603e+01 1.212344892246399652e+01 3.689794891114424757e+01
1.804226419937638326e+01 1.401224217778961290e+01 3.785914756606157994e+01
1.568237397047621684e+01 1.604212793813282900e+01 3.905536215144279311e+01
1.430948522845687876e+01 1.671874279853012268e+01 3.989631623218491541e+01
1.153318808095531978e+01 1.785990930913778385e+01 4.088194391653829740e+01
5.665084710618090824e+00 2.066428594121855511e+01 4.130278847938304665e+01
4.844239681887009041e+00 2.130446836043096326e+01 4.118008896957225318e+01
5.061722714860353634e+00 2.096592819762935278e+01 4.134740387997450028e+01
4.202372150516918481e+00 2.152584269011324380e+01 4.130784762524959319e+01
4.560905469359479270e+00 2.100113545784348545e+01 4.155835255539365392e+01
1.958851845385405355e+01 8.370683014195115845e+00 3.417488648970599030e+01
1.969935439188059689e+01 7.779526681887366735e+00 3.393463230561524568e+01
1.980521640991486620e+01 8.604681923230346641e+00 3.472676053863373369e+01
1.976142153525317013e+01 9.557550236615508510e+00 3.535066887519089818e+01
9.628133854713388118e+00 1.869229422906890292e+01 4.111615162561048464e+01
9.081926240093153524e+00 1.847032815496357827e+01 4.144669896032505108e+01
7.116987412859506534e+00 1.899198708243199718e+01 4.173989957376547721e+01
6.008430382770434619e+00 1.960734028830680842e+01 4.176467869576811864e+01
1.958115432972454784e+01 1.063550016814193988e+01 3.582708484014287365e+01
1.851602391004909265e+01 1.337893647774947326e+01 3.756991388535332277e+01
1.949003025486307905e+01 1.154465206933857679e+01 3.670121333416319231e+01
6.456561052336206252e+00 1.907330001517178886e+01 4.186813391099570225e+01
5.830641916426016813e+00 1.940713943987239531e+01 4.191213487139693683e+01
1.501286060758222440e+01 1.630564169804398844e+01 3.988172131382386709e+01
1.565655267966972986e+01 1.590612386006992374e+01 3.957002272257501829e+01
1.394905855397567684e+01 1.672713616216482180e+01 4.027053105371789599e+01
1.074473496843968867e+01 1.813116345043246724e+01 4.101486192611736925e+01
1.023572348737796212e+01 1.811904324923136755e+01 4.121234186246982745e+01
1.758416491992132791e+01 1.470786003958258448e+01 3.863579103847164475e+01
1.630009322455187970e+01 1.550639781571010900e+01 3.925827174270050790e+01
1.694220567181671555e+01 1.510724521934426434e+01 3.894707176649525593e+01
5.111588682023606722e+00 2.067668383004736654e+01 4.155635652842389050e+01
5.777283287972298176e+00 2.030793211631995021e+01 4.154198559307970129e+01
4.012845072955726344e+00 2.132456425644157605e+01 4.156020965975506698e+01
9.726685065742556091e+00 1.810706608725450906e+01 4.140982158947712577e+01
1.037146089144969530e+01 1.774365417488835917e+01 4.137285865057147305e+01
1.126525289043827449e+01 1.763719411806160409e+01 4.109717653688402095e+01
1.026396942117172451e+01 1.740937210684474934e+01 4.149203814057825213e+01
9.583309509808726645e+00 1.766352350824909934e+01 4.156885608999904491e+01
9.010416903163360303e+00 1.824657301899519268e+01 4.152641301452091938e+01
7.196831269518010110e+00 1.867460455349011283e+01 4.181687191358185629e+01
6.927709847388538122e+00 1.861965093933682525e+01 4.190796386851726396e+01
5.560339139709875589e+00 2.014087242591524074e+01 4.166078790058432446e+01
5.070194417860765412e+00 2.010745905670781397e+01 4.183024392884457399e+01
4.473096227433281946e+00 2.091880104963379239e+01 4.160958371686263035e+01
4.517195689265838254e+00 2.069673001496559550e+01 4.173326923604260230e+01
4.580010060651424020e+00 2.007404683484995545e+01 4.199965772563129462e+01
5.205186250434018724e+00 1.974068808850095991e+01 4.195596951747694447e+01
7.936403567652708269e+00 1.827622475606865393e+01 4.176555362359712120e+01
8.676277749805235473e+00 1.787762037118919878e+01 4.171410366436290929e+01
7.398302584010349570e+00 1.816616049067873107e+01 4.194697259877595030e+01
7.868185337562300319e+00 1.771300014364059194e+01 4.198508483288160420e+01
8.631015265355671318e+00 1.750199527164677704e+01 4.186043041188126779e+01
7.217140990175795245e+00 1.803418041482026624e+01 4.203326642256415369e+01
8.555707534753983268e+00 1.738985248727466981e+01 4.196843029934353808e+01
1.284110076794645217e+01 1.709232979296270472e+01 4.083112769266283237e+01
1.990938166048810842e+01 9.996514008214994362e+00 3.593271555228496794e+01
1.942912999427680631e+01 1.219284267649199549e+01 3.732554466372176449e+01
1.967893156807025434e+01 1.099896493780532047e+01 3.654388986567192177e+01
5.841721000353902404e+00 1.915518322616413371e+01 4.198711919724456010e+01
6.566177371958466402e+00 1.835528629693765978e+01 4.208130279475508218e+01
1.358863384231025329e+01 1.673512231835638175e+01 4.064467371569979548e+01
1.349453806046848037e+01 1.670871427050491675e+01 4.080556117575579123e+01
1.795631062448098447e+01 1.420523903421928580e+01 3.837387575015776520e+01
1.637937111000850265e+01 1.535944932725058365e+01 3.989603849860398554e+01
1.101619185185734118e+01 1.738014296695707017e+01 4.133580813076641647e+01
1.178577133206310101e+01 1.714537307073381456e+01 4.117936715518276714e+01
5.227119540244338225e+00 1.923702908147733837e+01 4.210594527158015410e+01
5.915140014624750364e+00 1.867639537546314443e+01 4.212921060343348501e+01
3.923142151998908478e+00 2.071874707523651793e+01 4.191005097353084352e+01
3.835297955834573447e+00 2.116262924697046444e+01 4.166269176832690135e+01
3.198154520139361967e+00 2.140662427254936517e+01 4.171578061874009791e+01
3.954767195297117066e+00 2.040739706294068867e+01 4.204323181570989476e+01
3.329439744113800170e+00 2.074074999999999847e+01 4.208669906275585504e+01
4.185108213111813136e+00 1.979288202334386426e+01 4.217953329812197438e+01
1.015625841854124012e+01 1.708010000000000161e+01 4.161082617435225472e+01
9.416484934505080062e+00 1.747877554141626533e+01 4.166251218237938758e+01
1.087270586459224653e+01 1.693581679908044890e+01 4.149438497835756579e+01
7.225534161246056186e+00 1.789738968600814673e+01 4.204404015711376985e+01
8.406950133255969959e+00 1.721150341644122861e+01 4.215036190063636212e+01
7.668841232129035568e+00 1.747559991286485115e+01 4.222789194944812863e+01
9.393408036788850168e+00 1.729111102542576361e+01 4.173572807938780471e+01
1.236316013810050229e+01 1.704388829698025631e+01 4.102660635054332516e+01
1.978793920167375475e+01 1.054557922373034806e+01 3.628108085232016577e+01
1.906392554118530924e+01 1.269558072406567462e+01 3.758739110222273894e+01
1.961620130352957503e+01 1.161426528100960986e+01 3.712889534473275432e+01
1.832826171086816913e+01 1.370248738869760174e+01 3.811192723131410531e+01
1.458010372544292466e+01 1.631562279788218817e+01 4.033120760689404705e+01
1.569632907321533821e+01 1.583248177318730576e+01 3.988893070307732813e+01
1.414803673636604664e+01 1.632497262423607154e+01 4.077986043971167618e+01
1.717206562326478547e+01 1.486937238122377813e+01 3.949560062064131216e+01
1.166104138421993852e+01 1.701644934462877856e+01 4.129865541394622852e+01
1.158920669849090679e+01 1.679590711513357704e+01 4.137792401027464706e+01
6.582943676442976511e+00 1.808176179049019794e+01 4.210284228186404931e+01
5.939448229976052041e+00 1.826639204206575329e+01 4.216159164352511368e+01
5.263863552156371917e+00 1.899758991850277567e+01 4.217700741211482551e+01
3.757519283426964396e+00 2.026681476978783891e+01 4.213350565903343181e+01
4.612291974569933117e+00 1.931890000000000285e+01 4.222470259285208272e+01
5.295854609190614681e+00 1.845104949999999988e+01 4.222023055943257930e+01
4.954353972689073515e+00 1.888500844992343985e+01 4.222386455351546886e+01
3.917728930218060235e+00 1.967468753831199280e+01 4.226700583417628820e+01
9.242557716641307763e+00 1.706699472352385172e+01 4.195167779729730029e+01
1.091691934348525805e+01 1.667895672659764017e+01 4.159362277648177297e+01
1.061794087674354969e+01 1.642039913804368467e+01 4.191777667425822074e+01
9.929816357102966506e+00 1.674391593174403425e+01 4.193479787236987022e+01
1.230608484608208997e+01 1.665254035850256997e+01 4.126138947020617564e+01
1.870051914708800922e+01 1.319890395216012635e+01 3.784957538393917531e+01
1.980496713724865643e+01 1.103525394979708096e+01 3.693210194432128191e+01
1.904959958260066699e+01 1.288054771023671741e+01 3.804405005183927102e+01
1.559093503621791221e+01 1.578801520922900359e+01 4.010214789438901306e+01
1.512479727327623458e+01 1.591203706060619005e+01 4.040188453517770739e+01
1.292001349199054161e+01 1.654208858853853670e+01 4.110090578341014123e+01
1.786509378502141843e+01 1.445228870235319363e+01 3.906307054472723195e+01
1.805587561127264706e+01 1.420667478270033257e+01 3.869174815165816739e+01
2.830617519275985483e+00 2.074148252850129381e+01 4.218863194044319442e+01
4.628833237738752437e+00 1.873983262537726091e+01 4.226180249268720246e+01
3.950347434603913577e+00 1.941489688416438142e+01 4.227840432657898617e+01
1.126252607290471097e+01 1.618437101626551922e+01 4.182382797990641166e+01
1.167727589843313751e+01 1.627791087780122936e+01 4.157632144016678666e+01
9.143719748257760571e+00 1.694788548151877805e+01 4.207294257176774011e+01
9.880259501744236061e+00 1.668434679531733167e+01 4.199547337710303196e+01
8.343454455807922443e+00 1.721518375438150983e+01 4.221685867034413064e+01
6.878064805296611794e+00 1.780067552264351960e+01 4.222547434277449696e+01
1.999484720405859406e+01 1.045565613719243281e+01 3.673511734329380829e+01
1.977571445603595635e+01 1.161166586495249042e+01 3.742389707815743805e+01
1.959773182583533924e+01 1.219544959002808326e+01 3.785470254935871992e+01
1.880707164203503012e+01 1.325046093519800294e+01 3.833140413217568465e+01
1.353436123104205180e+01 1.643021840438045800e+01 4.094030138404143315e+01
1.293271471387196669e+01 1.628162829336058692e+01 4.124927744403765217e+01
1.403639317193977476e+01 1.593014730908564047e+01 4.105026946141293109e+01
1.355987721845391825e+01 1.591032737440960787e+01 4.123702048538853404e+01
1.706241046647240722e+01 1.488624297643913152e+01 3.990304093480091296e+01
6.087213336440654210e+00 1.812576534215039104e+01 4.222293073615544756e+01
3.222526494971438282e+00 2.003075170677772121e+01 4.230908278107599330e+01
2.526919324917017651e+00 2.038697214782800771e+01 4.235093451620197413e+01
3.288335515490647953e+00 1.951089587432278805e+01 4.233189492527141340e+01
3.962083042159603608e+00 1.902847392991341025e+01 4.230312358238666093e+01
9.690152837110034056e+00 1.669529840743038562e+01 4.219480934344264966e+01
9.016969060710112061e+00 1.695518186399738525e+01 4.220583583850964260e+01
1.275226996458570028e+01 1.606623664516949290e+01 4.140174876368278234e+01
1.243724368143295500e+01 1.587700393930216691e+01 4.155891836686254237e+01
8.254031725977091227e+00 1.721903999405761709e+01 4.231914055686458909e+01
6.894661742064687182e+00 1.760749893177293757e+01 4.225243104013416939e+01
7.805502239168009559e+00 1.713893315869751888e+01 4.244779406530213350e+01
6.997194541620744168e+00 1.735500843924975101e+01 4.241872947094493895e+01
2.211622391453119008e+00 1.652993788836817757e+01 4.257718997030941210e+01
1.353812563343149922e+00 1.627874687024745626e+01 4.250876567718177768e+01
1.952262561167543264e+00 1.545421158968612652e+01 4.304659461949184873e+01
2.510766769346379323e+00 1.611761682653755301e+01 4.284566055995890110e+01
3.069321629826409215e+00 1.678110106105896193e+01 4.264680085525844078e+01
2.487706940077188289e+00 1.707917858128072197e+01 4.248069786283653571e+01
1.906078336995485900e+00 1.737726288288396503e+01 4.231459125444306579e+01
1.439382200128974443e+00 1.697921721860565825e+01 4.234306511112784221e+01
2.136340312727844637e+00 1.775740498998191441e+01 4.219419003974413585e+01
2.948253646651262994e+00 1.783928256157256342e+01 4.223996525071605390e+01
3.820639879185026899e+00 1.739180495491045875e+01 4.248925193000222578e+01
3.888207294256609714e+00 1.688327661616715147e+01 4.266501042184721371e+01
3.641912025481869097e+00 1.650041573713305354e+01 4.288724910655135147e+01
4.708642238999844132e+00 1.698564777850569385e+01 4.268325440717335084e+01
4.572677196313300385e+00 1.800309981298034501e+01 4.233155054824719343e+01
4.214885486002740933e+00 1.621954568632496674e+01 4.312785681679739724e+01
1.852726472386102685e+01 1.370566325841034860e+01 3.874762193806113686e+01
1.478326554100179280e+01 1.590699972997978584e+01 4.077673423154954691e+01
1.774427003400824532e+01 1.441367241068569349e+01 3.990991356756004649e+01
1.616865441872312203e+01 1.527035698251767570e+01 4.032243250074893837e+01
6.120698299126043906e+00 1.773936177461891717e+01 4.227727691068339055e+01
2.625547980983272911e+00 1.960700059716899801e+01 4.238523116676201141e+01
3.294299239480141583e+00 1.931753896701850692e+01 4.234426804392958843e+01
4.609169821384119459e+00 1.854517476445853674e+01 4.222495221324872716e+01
5.346483389080721516e+00 1.787126559888153210e+01 4.230317681535255758e+01
3.922421023329983214e+00 1.863930848089763259e+01 4.222956073881472605e+01
3.898339704439122144e+00 1.827788171347076585e+01 4.229905374197402068e+01
1.190701512499596681e+01 1.594837496481538608e+01 4.172983571712012463e+01
1.121079043403128850e+01 1.617192074326621665e+01 4.189806153908808994e+01
1.036426859953114565e+01 1.643504493521035670e+01 4.218375973105533205e+01
9.422709155729386055e+00 1.670660045479223754e+01 4.250594888010475358e+01
1.319783466346007295e+01 1.547569956217429166e+01 4.154138421472001141e+01
1.255268062006659591e+01 1.571194523976961754e+01 4.163560724176108607e+01
1.394441970977585399e+01 1.525234910770977770e+01 4.142748924583362680e+01
6.189102352453969225e+00 1.757102145821785655e+01 4.238967288640927222e+01
6.347545925000407152e+00 1.719015207751166230e+01 4.271969680735836050e+01
7.116670062104590855e+00 1.706921371817290733e+01 4.266624146263454520e+01
8.838378109647587522e+00 1.696282920985018450e+01 4.241091223355400075e+01
2.241647575153262295e+00 1.507741390331157660e+01 4.327956477152412873e+01
3.760160042312170159e+00 1.792116009036217861e+01 4.228574043775923030e+01
3.223966100838548510e+00 1.855266759549664002e+01 4.226850434487495534e+01
3.090718753155465848e+00 1.536445817058785224e+01 4.330683985039727446e+01
2.549481033532015939e+00 1.882749945378233392e+01 4.223884192786479730e+01
5.163766204719745900e+00 1.773236511666723203e+01 4.246081488321395625e+01
4.788415609355444857e+00 1.593839999999999968e+01 4.336869999999998981e+01
5.527792085456080251e+00 1.708785905728113264e+01 4.270147069516439586e+01
3.939458538439045032e+00 1.565139184838601061e+01 4.333735166383838333e+01
2.018754476836202727e+01 1.055014350099036413e+01 3.718628710224316336e+01
1.928459689046242076e+01 1.274191202632247411e+01 3.838631620199380734e+01
1.994384769489102283e+01 1.161397395199843707e+01 3.795338566190070395e+01
1.541804943340738099e+01 1.548921523947378986e+01 4.077346894489839713e+01
1.457865765081525034e+01 1.581178820945654095e+01 4.091994478984859285e+01
1.418673377366901711e+01 1.553913114808844398e+01 4.122462669262445445e+01
1.814581141207612802e+01 1.419662701861674137e+01 3.948991290382834052e+01
2.228858213585756864e+00 2.017532232107085832e+01 4.239032404046299973e+01
3.235791554792468272e+00 1.873342624896075392e+01 4.223413794880101335e+01
5.208743804575203029e+00 1.783307871521632748e+01 4.235442115832028520e+01
1.135044156847090235e+01 1.611338713168105841e+01 4.189341753817878100e+01
1.120736220289507301e+01 1.616508796108737300e+01 4.199580188336730657e+01
1.016351832552916079e+01 1.644357971374123295e+01 4.241531955871453619e+01
1.208302943550947717e+01 1.580631684773847034e+01 4.186903472480467059e+01
1.380212082980268562e+01 1.517686551467324740e+01 4.161835450531653890e+01
1.281491747068887044e+01 1.549951696880644825e+01 4.184466036295169999e+01
7.029222393658654866e+00 1.688688598561799736e+01 4.296642200103623566e+01
6.393901447168824248e+00 1.619705306047724136e+01 4.334299378918088763e+01
7.196235803594374758e+00 1.632631631864470023e+01 4.333014731867660885e+01
7.199728351708957419e+00 1.584634746611997969e+01 4.374087095956601701e+01
7.106473978102896716e+00 1.701245253178501571e+01 4.276609583956484784e+01
7.885730050599532248e+00 1.694828352151915851e+01 4.261279005576596290e+01
5.381032422759889577e+00 1.778702530771790435e+01 4.236061609884623635e+01
8.614046592372211819e+00 1.692278559553827577e+01 4.247687016960595940e+01
8.787368264161599996e+00 1.687645040285186937e+01 4.248310339536743641e+01
8.654494224271005010e+00 1.682740137234498334e+01 4.255935017204550519e+01
5.568107608530838526e+00 1.656434829537313291e+01 4.304416173897709541e+01
5.755590789106034499e+00 1.746128998106276597e+01 4.259024130772395011e+01
5.591553205896293122e+00 1.606778906178908528e+01 4.335584076123517150e+01
1.976741799006141775e+01 1.219791235639714166e+01 3.838440803261616452e+01
2.012338630173677601e+01 1.102985219501395164e+01 3.752234241719396124e+01
1.899894390333883720e+01 1.320416274212773367e+01 3.880348198419806494e+01
1.828984332810245661e+01 1.399697853103854328e+01 3.907686448572565041e+01
1.674563294350565812e+01 1.475299895891503432e+01 4.054242068948791200e+01
1.605307531657455300e+01 1.507116261134863677e+01 4.077005019010684350e+01
1.103834042626851719e+01 1.617479769196941675e+01 4.217270275807086222e+01
1.090446154148636637e+01 1.618050722931290153e+01 4.232627313780884748e+01
1.179669109320534126e+01 1.590977657277549184e+01 4.207335362402468348e+01
1.440630899145874899e+01 1.487801784361941415e+01 4.169495993674470924e+01
1.354670094906513178e+01 1.519273722347750244e+01 4.182027063391095112e+01
1.238549540889526490e+01 1.565465000000000018e+01 4.215058192833180328e+01
7.173565076922905348e+00 1.682267115056693996e+01 4.301866447902506252e+01
6.400812039996272240e+00 1.523729922748849397e+01 4.416430149197807253e+01
5.594940914458288894e+00 1.558772708526616313e+01 4.376664022303145885e+01
7.865853432646980892e+00 1.683464443202040428e+01 4.281252296893281795e+01
7.998672322386777722e+00 1.645559949999999816e+01 4.331729849999999260e+01
8.722960998371888763e+00 1.637290376047130991e+01 4.323754937921960106e+01
8.625178582071313826e+00 1.665684780247051222e+01 4.285894281697251529e+01
8.765381467931227633e+00 1.680996466377496290e+01 4.255164235597097644e+01
4.230605748889382234e+00 1.531193388961137281e+01 4.364134571545418595e+01
4.756985637400650724e+00 1.464764235281107396e+01 4.417631969587047536e+01
5.578257986790488232e+00 1.494224215951293822e+01 4.416995659250122230e+01
3.672195095094720418e+00 1.468484576028541078e+01 4.391465981558113896e+01
2.253548611102984101e+00 1.442477995421365478e+01 4.372127228197758342e+01
3.935818100710122724e+00 1.435308279979585144e+01 4.418377870622237680e+01
1.869584320375263786e+01 1.357892791675366517e+01 3.924911811142862916e+01
1.500888086507246300e+01 1.530527917206516442e+01 4.105973149270851508e+01
1.668784539668823541e+01 1.465316717905821342e+01 4.076646558081939986e+01
1.787494908313997044e+01 1.408788250953580601e+01 4.033978776107493758e+01
1.171228508625912923e+01 1.591458829387010354e+01 4.216163956296197313e+01
1.083503310707313361e+01 1.620449565493954935e+01 4.253126686871976858e+01
1.012899664670877797e+01 1.645550874317489232e+01 4.251861091757485411e+01
9.383461724305231400e+00 1.647928820855056387e+01 4.290530227344397929e+01
1.469192300780722249e+01 1.502588317658342909e+01 4.131344267939269344e+01
1.481329317011571867e+01 1.516803144416488536e+01 4.121208771406976012e+01
1.304166818926809235e+01 1.538577738609805934e+01 4.205585967048758533e+01
7.170928444729971041e+00 1.537608119328142386e+01 4.412280367439092998e+01
8.695281599984166832e+00 1.630871068258100465e+01 4.336244007400725309e+01
3.114310026165556522e+00 1.405840000000000067e+01 4.419111222086362289e+01
1.947043109574137887e+01 1.270267107701945797e+01 3.885926753013765023e+01
2.010303094954981518e+01 1.152977492326176723e+01 3.830773536354243447e+01
2.027410737031907928e+01 1.103236803413043177e+01 3.799930376754576855e+01
2.047167171676561992e+01 1.044792627214986958e+01 3.762079151283748502e+01
1.842652487759745839e+01 1.394063617938766697e+01 3.991666647603986462e+01
1.606758017072725409e+01 1.460900319356104049e+01 4.105380752032932890e+01
1.543929578482432596e+01 1.479718254721651860e+01 4.119939849618606331e+01
1.669565043335722976e+01 1.442003754748592925e+01 4.090823489762080811e+01
1.164540812047580509e+01 1.591742862883422660e+01 4.223816000627073919e+01
1.016118089921081236e+01 1.641535210231401010e+01 4.275209700680566272e+01
9.448140136658441435e+00 1.629009983176656817e+01 4.315769815725663960e+01
9.393056311349388565e+00 1.616157265791720476e+01 4.340765705807842778e+01
1.427855159079610736e+01 1.488590478979432774e+01 4.179585894509703081e+01
5.830272055742338644e+00 1.472366457495770042e+01 4.449174596530404813e+01
7.100283328346948863e+00 1.498932031202281578e+01 4.460430603727371590e+01
7.021343999933432833e+00 1.448029484581392268e+01 4.507259406814484493e+01
6.243298125511163477e+00 1.421908886585209331e+01 4.509853850193743341e+01
7.941523083981647524e+00 1.551494997069427484e+01 4.408128016002290650e+01
8.740899700655791804e+00 1.612425075807452757e+01 4.365769652207717400e+01
5.260081871749870075e+00 1.421056354373257591e+01 4.482154900589190305e+01
3.901987291862592411e+00 1.387805858867303854e+01 4.467075266447684356e+01
1.993875781846048412e+01 1.220020715194321426e+01 3.891509425436269964e+01
2.018039058104480077e+01 1.161740489769466578e+01 3.869561218755259091e+01
1.943688344037152405e+01 1.278142860041555018e+01 3.924943535134413253e+01
1.501182276528526316e+01 1.457845000000000013e+01 4.177138117621258573e+01
1.732342003773482375e+01 1.423452505854800876e+01 4.076269927089871459e+01
1.666164859528073450e+01 1.405139483110839826e+01 4.129596657099418877e+01
1.154082550569507148e+01 1.595355703955547000e+01 4.254391906498172915e+01
1.009112750379125423e+01 1.601436762570170913e+01 4.345289388265723574e+01
1.078834961567844886e+01 1.586733727241027658e+01 4.349807463019865139e+01
1.017373248172346401e+01 1.620724474914142377e+01 4.307779313810969057e+01
1.089873300809632539e+01 1.612445100000000053e+01 4.299794949999999716e+01
1.014087047491891447e+01 1.630192613771735566e+01 4.295161144894586869e+01
8.712770532156108416e+00 1.565393808763079875e+01 4.403972096163346350e+01
1.224593718304158152e+01 1.570284688599672940e+01 4.255655974231565608e+01
1.369802953456309069e+01 1.511682111511237991e+01 4.196113731714989115e+01
1.313782885457102267e+01 1.533447726779347242e+01 4.215421023534281630e+01
1.295097142729596129e+01 1.545214924074292284e+01 4.256919959151726829e+01
1.605012179295824026e+01 1.442460080569030723e+01 4.124786435111738570e+01
4.689695378151260030e+00 1.369755000000000145e+01 4.515022185127300958e+01
5.466514962633588048e+00 1.395832127745926776e+01 4.512440142886045891e+01
3.967745395155704013e+00 1.333757109907368488e+01 4.516335835703720392e+01
1.893176129366855420e+01 1.336126583945048907e+01 3.958311651375359475e+01
1.576600808471044068e+01 1.427842827518833424e+01 4.162875666838182553e+01
1.729826724988707198e+01 1.395570140314211649e+01 4.105352448247106167e+01
1.025978442655228129e+01 1.572975334498618416e+01 4.388021867190008152e+01
9.483304500878380949e+00 1.579279999496250930e+01 4.399819949057355473e+01
1.038270921928820023e+01 1.571976973261532962e+01 4.386154104955166133e+01
8.641272737126872272e+00 1.526679500866182337e+01 4.452030348753342537e+01
1.158821697751561786e+01 1.589365618896669829e+01 4.289392376859203182e+01
1.435443059651683839e+01 1.484784193171297417e+01 4.186637268555677593e+01
1.464327616674658472e+01 1.469370889299974436e+01 4.216146965448122330e+01
1.389066972126945210e+01 1.501405919684454915e+01 4.215783995190236055e+01
1.302081166848123139e+01 1.542804370832626404e+01 4.236383240831779773e+01
1.227748403192780025e+01 1.566292167240187183e+01 4.278993316739014574e+01
7.798738965153114933e+00 1.474129999999999896e+01 4.504664079579961822e+01
1.651966878798944194e+01 1.397960024895929720e+01 4.148620082829891231e+01
7.004967502887714303e+00 1.414743660724666086e+01 4.556454044770175216e+01
5.447371234866819734e+00 1.362560319398678033e+01 4.561515790898575062e+01
4.109145651348545591e+00 1.304674306795184080e+01 4.565951745553746122e+01
2.042515014966141962e+01 1.103476014285888773e+01 3.847622049795444354e+01
2.032453166459896465e+01 1.156895166683029075e+01 3.902362358118609365e+01
1.940689414419613001e+01 1.294754046535343406e+01 4.006560681561793302e+01
1.891689212042658852e+01 1.344401358602341290e+01 3.999119469958883855e+01
1.868195240285791670e+01 1.355484770004640538e+01 4.023181015218435164e+01
1.794677750758193824e+01 1.375036444516452327e+01 4.079606650781899901e+01
9.246897689111909457e+00 1.497920185972466989e+01 4.493121316234815765e+01
1.009000347618361637e+01 1.550519060623456191e+01 4.440461551857775646e+01
1.153964627144440946e+01 1.584907155425718450e+01 4.329315478033805675e+01
1.022323708469995474e+01 1.563510842744175022e+01 4.406675867367674471e+01
1.558027324473092534e+01 1.431566394652865881e+01 4.197019598026459875e+01
1.365652555371558741e+01 1.520124999999999993e+01 4.258184999999999576e+01
1.296672252469573827e+01 1.543218576663415398e+01 4.268593851936882544e+01
1.727298822639484754e+01 1.367808552983080972e+01 4.134367197486574241e+01
6.213000000000000966e+00 1.355369999999999919e+01 4.608063303931130150e+01
4.874157020581117550e+00 1.297480267072836391e+01 4.613671236326538150e+01
2.008768315547871097e+01 1.211845113595078161e+01 3.934834734406381074e+01
1.981417297032703573e+01 1.246697124487021746e+01 3.971696574377224209e+01
9.971565560501918668e+00 1.509813943809785997e+01 4.487346946203201981e+01
1.128178997269649386e+01 1.564674842235459096e+01 4.372489936019047718e+01
1.148448792286188969e+01 1.572052412065202276e+01 4.354319520681229250e+01
1.165840908459590430e+01 1.585217314696393842e+01 4.302043053188447175e+01
1.096348907144821538e+01 1.547734651786213078e+01 4.413534629780563989e+01
8.522570270631609546e+00 1.486020983327484046e+01 4.498895630508437193e+01
1.241780291870856701e+01 1.557997733787490269e+01 4.304290517747896416e+01
1.218041202181709615e+01 1.557374999999999865e+01 4.358830050000000256e+01
1.539555948437223520e+01 1.437346172336362393e+01 4.216510238603807892e+01
1.427940961674349296e+01 1.491422892239152453e+01 4.247745256645923462e+01
6.930419790216382658e+00 1.375688703047701189e+01 4.604048895377271577e+01
7.646968769405827260e+00 1.395982743058630859e+01 4.600696749745382874e+01
1.614825788414381336e+01 1.405299982115929502e+01 4.216874549012871398e+01
5.543771697236612894e+00 1.326433225347020795e+01 4.610872888668023961e+01
2.049143237310602217e+01 1.147731886711615168e+01 3.951085882753955048e+01
1.893740029447489448e+01 1.316855737820225691e+01 4.054691640582374390e+01
1.857006260234604866e+01 1.326601457502158787e+01 4.082910627982827378e+01
1.791282170002887852e+01 1.338075941674510894e+01 4.118311951444410823e+01
9.889788740944677414e+00 1.479186658891368111e+01 4.537881376544528678e+01
1.069739979325298762e+01 1.521724893647260402e+01 4.481563354262294752e+01
8.438727126665661160e+00 1.455386109907783876e+01 4.549356502536817004e+01
8.363603075928603303e+00 1.416279268132118752e+01 4.597315442349589176e+01
1.317716935944108769e+01 1.530776940659001362e+01 4.306538004837618416e+01
1.286353479980536285e+01 1.535367884815262762e+01 4.345854532384385749e+01
1.490200126052137009e+01 1.462732971063467602e+01 4.237369199586431989e+01
1.552497544945686592e+01 1.431836549527105618e+01 4.216572889270130275e+01
1.428177607258365178e+01 1.488675019342706385e+01 4.257587292613749241e+01
7.025750091169342681e+00 1.346530044339810139e+01 4.644567571547049312e+01
1.671057499881745301e+01 1.386348672845885588e+01 4.175621977372685478e+01
5.808743531599107612e+00 1.301447161352145976e+01 4.654911516359528179e+01
6.619981890630038279e+00 1.292564113152849714e+01 4.691314168362628578e+01
5.404299583353077807e+00 1.247500069587691840e+01 4.701518620964272088e+01
2.071237187738149643e+01 1.093818203142890688e+01 3.913206275294297143e+01
2.067209644711222438e+01 1.045140418064079135e+01 3.825659334602432438e+01
2.088691710074164121e+01 1.037954166760616914e+01 3.874853793978947181e+01
2.023655601260215064e+01 1.203644361330828261e+01 3.978128421878416532e+01
1.989735737204449606e+01 1.245035629360258334e+01 4.014007116677852594e+01
9.081450000000000244e+00 1.436609999999999943e+01 4.593868099671697536e+01
