-3.808342963693695626e+00 3.125567929578433990e+00 4.585518492861055506e+01
-5.720366499993492226e+00 3.476918337442490986e-02 4.427979186825482572e+01
-1.039027021877178436e+00 4.429677212341076142e+00 4.702380279139647712e+01
-3.242153164472172389e+00 3.496430240626984709e+00 4.610024616716071222e+01
2.018869628048592713e+00 3.890179983873540248e+00 4.842249001365671290e+01
6.297611377319471515e+00 2.665358856511222729e+00 5.008572619607896570e+01
6.497864974890037892e+00 2.177452366878744439e+00 5.010048770420816311e+01
7.850377029790703176e+00 -5.150470466740059150e-01 4.968083757868987504e+01
7.994729605687237672e+00 3.396662307762530197e-01 4.992529310439541490e+01
-4.504520698097334019e+00 2.343026631011681182e+00 4.542446662864946916e+01
-4.159889573454008449e+00 2.878219876241450148e+00 4.568069426447952708e+01
-4.934658575223991761e+00 1.961530048235372359e+00 4.512188917361783069e+01
-5.783223364160371638e+00 1.473134225811054021e+00 4.449003352730106542e+01
-3.051079042134781094e+00 4.204577688320522810e+00 4.614847577216630725e+01
-2.331182891480482855e+00 4.522080776341853792e+00 4.646922032595114160e+01
-3.770078292839117218e+00 3.887466437188036306e+00 4.582815668109358853e+01
5.420074263016527283e+00 3.196234129059171813e+00 4.987473564903625345e+01
4.843631841412540773e+00 3.302386171399235071e+00 4.963852493863016235e+01
3.911478841353105640e+00 3.879653785872262617e+00 4.924414118577445265e+01
3.247496200147636181e+00 3.959742680477788657e+00 4.897348012227616465e+01
6.100510084904181340e+00 3.152795890231714804e+00 5.007098352429319732e+01
7.786877271147328194e+00 1.572183991628385291e+00 5.024264010818499315e+01
-5.523446368660200889e+00 1.754937295378948603e+00 4.472665738576758798e+01
-5.965071761963751662e+00 8.466274274249228071e-01 4.424677199696919416e+01
-5.531338117706134483e+00 -8.149832272770183295e-01 4.426536947785280063e+01
2.598001747971877551e-01 4.662131538908108830e+00 4.754492367433046240e+01
-7.449687791596915076e-01 5.082848361531135950e+00 4.707474032791578367e+01
-1.537751674974025429e+00 4.802558444700359530e+00 4.677210156965561794e+01
4.575013412085255027e+00 3.799648193805285512e+00 4.951462683760198757e+01
8.199553763444884069e+00 1.058659595564061418e+00 5.017168278995591635e+01
-4.490386291653714501e+00 3.569769867373343342e+00 4.550727976384024487e+01
-6.225800614234831443e+00 -5.715525458738021092e-01 4.380408366349464444e+01
2.607142549144500610e+00 4.240795657096904314e+00 4.865398907616653190e+01
1.968057023354411905e+00 4.521272185741695537e+00 4.833515881238918865e+01
1.328899973461064254e+00 4.801771533116077961e+00 4.801631047759663318e+01
5.239333802064419565e+00 3.719571382680269434e+00 4.978544499126808631e+01
7.015994670432694313e+00 2.840543641024762866e+00 5.033579913690216756e+01
7.314793646087246692e+00 2.230352829424320671e+00 5.028983910459378848e+01
-5.626003435390821927e+00 2.631928547432294430e+00 4.471256519996491363e+01
-5.058489573518594185e+00 3.100628433079552160e+00 4.510969126762253012e+01
-6.193609843557621453e+00 2.163003588197970117e+00 4.431542555072942235e+01
-6.375469932033402287e+00 1.542658236271676309e+00 4.407211719359671775e+01
-6.739070881682827086e+00 2.943806527666461004e-01 4.358574026237706533e+01
-2.951215909527752590e+00 5.041867052698312257e+00 4.606294376941202273e+01
-2.364638068815511307e+00 5.206929347813884057e+00 4.631733658981644197e+01
6.887589597645632500e-01 5.082698468437165218e+00 4.769698418128714934e+01
5.903578557382436642e+00 3.639518166671013244e+00 5.005626700006007468e+01
3.857789716140281211e+00 4.302890085218155747e+00 4.919027923893170851e+01
3.155153016630489748e+00 4.547073835996487290e+00 4.884418433501510037e+01
6.720792383832150385e+00 3.571745887515543671e+00 5.031371647047905071e+01
8.129151410948818324e+00 2.283202048489368252e+00 5.047953078486845158e+01
8.541848019597262365e+00 1.769768341328092465e+00 5.040853761042752268e+01
-6.557268464489456328e+00 9.152436296981080188e-01 4.382891690433332599e+01
4.881745037342520577e-02 5.363532662978952814e+00 4.737776838408689173e+01
-1.501657294321804059e+00 5.599532249241183202e+00 4.662932766777845472e+01
-3.810478147898640700e+00 4.775912575747803146e+00 4.566159365897964761e+01
-4.570297063499231704e+00 4.327823861944093409e+00 4.534161333272147942e+01
1.295328948229633959e+00 5.322871048062104649e+00 4.792255939773964712e+01
2.068935588895012501e+00 5.297794599036972585e+00 4.826064739125332892e+01
5.158823319711901334e+00 4.354377030557485817e+00 4.970463451853250803e+01
4.467628944044419015e+00 4.645821680371978069e+00 4.940692710159938628e+01
-5.062074583531414262e+00 4.020330105848830549e+00 4.502154792236521530e+01
-6.921136419903183956e+00 -3.278169341898055644e-01 4.334224288978704465e+01
-5.807204602081387224e-01 5.838744491850433427e+00 4.699816623918096070e+01
2.442335809714225814e+00 4.759982864269739267e+00 4.850378271807112185e+01
7.557844163463387499e-01 5.600446445762825576e+00 4.764722323967664863e+01
5.832206172948702694e+00 4.203908094908427096e+00 4.998444432164438922e+01
3.765209780148920160e+00 4.890736300204568288e+00 4.906083274697095931e+01
7.830508405217750045e+00 2.893314753392155936e+00 5.052565808761223565e+01
7.531725613070022085e+00 3.503887357356491261e+00 5.057182636841456258e+01
-5.771635243217007272e+00 3.433615974322667075e+00 4.452503166967985493e+01
-6.699149025712567429e+00 2.347732295398171853e+00 4.379990248444421042e+01
-6.339189666235776066e+00 2.964640228329172178e+00 4.412790286639934578e+01
-7.036450291352809749e+00 1.574894483475786311e+00 4.338072412250763676e+01
-6.992330186068877573e+00 8.444399098273447368e-01 4.336600238769560178e+01
-1.208880003407745596e+00 6.312904793748230325e+00 4.661942406993767918e+01
-3.570331354520508427e+00 5.560881913960115774e+00 4.565733516592823804e+01
-2.939455203136875472e+00 5.639839329369020327e+00 4.595043190082859041e+01
3.062598449073651530e+00 5.134921863993886504e+00 4.871477972050563210e+01
6.347734022142458521e+00 4.046954640244823764e+00 5.023516734988694310e+01
5.077939338257992929e+00 4.989065873210894786e+00 4.962375703630256396e+01
-7.180070052962089555e+00 3.171843766431866607e-01 4.312445932340637711e+01
6.288285352995651167e-02 5.969392017724400645e+00 4.724377575274468199e+01
-2.398175364699257184e+00 5.891860731593585143e+00 4.616546424941790150e+01
-4.650206565331330921e+00 5.085664691742881161e+00 4.517604727346260063e+01
1.462622092678673047e+00 5.837339592190485149e+00 4.791663517058077559e+01
7.697547086826361795e-01 6.206118493520483170e+00 4.751324915003480953e+01
4.375056291837743139e+00 5.234045385926346050e+00 4.927746239952335827e+01
5.760562063134492483e+00 4.768297820400887232e+00 4.991262536501123037e+01
7.386570730216910796e+00 4.182645146908902767e+00 5.058293754144369103e+01
-5.093342878873165169e+00 4.691479268432335203e+00 4.490409777751976605e+01
-7.471047618644222510e+00 -1.123366223429243110e-01 4.272838146263505621e+01
-5.660002328329165611e-01 6.443899851794995470e+00 4.686464770333427055e+01
-1.850329862219661559e+00 6.187746038804055715e+00 4.635423898791009378e+01
-4.158445068821989388e+00 5.411261383844582440e+00 4.537732764488829673e+01
2.169692564556874537e+00 6.074334658439995316e+00 4.818614390685927873e+01
2.969903571435816403e+00 5.723106912812102820e+00 4.858530629759793840e+01
6.245698114932412004e+00 4.537964618998993060e+00 5.015528408483360323e+01
3.672506614131478830e+00 5.478585987474476227e+00 4.893139051878286239e+01
-6.484831412409524098e+00 3.766692714557566379e+00 4.394038186912274568e+01
-6.059020478041719393e+00 4.118610579937327820e+00 4.423835209196655427e+01
-7.204624657253773989e+00 2.532467775036261859e+00 4.328449146293492333e+01
-6.844747067519579176e+00 3.149387695038392554e+00 4.361241526515058808e+01
-7.438785763981787369e+00 9.609827951549803071e-01 4.290689618831763852e+01
-9.805991976597533410e-01 6.961534474611084100e+00 4.656740668345477019e+01
-3.285204629619263628e+00 6.250904173721430368e+00 4.566044100299780695e+01
1.476168397497706009e+00 6.443041328094532005e+00 4.778247996911088791e+01
7.687528186055656021e-02 6.574898280479199109e+00 4.710987265432321891e+01
6.797690028020589637e+00 4.454420253869452395e+00 5.041435899298236478e+01
5.688819243365450085e+00 5.332688017559760851e+00 4.984081234354138701e+01
4.985489043046605673e+00 5.577511051289024913e+00 4.949435317310909710e+01
-5.633216622328147238e+00 4.470501486443123618e+00 4.453634471232823699e+01
-7.514622978064554815e+00 2.133951787779466258e+00 4.292526576426975282e+01
-7.697428792399016118e+00 1.607259804294535854e+00 4.268943189983112063e+01
-1.836893659464647444e+00 6.786947936707887763e+00 4.624079594343950106e+01
-2.431775121224780900e+00 6.576721509347984274e+00 4.601363622374564954e+01
-4.189514046674095660e+00 6.079952888877302009e+00 4.525173758655156320e+01
-5.416556385867180801e+00 5.312467645427259022e+00 4.457809647174759959e+01
2.877120425191957320e+00 6.311476591076685239e+00 4.845579911657609529e+01
7.834190763536621471e-01 6.811457118644384856e+00 4.737925251570270291e+01
1.489654135303456917e+00 7.048762886916306591e+00 4.764833218075537502e+01
4.282371806903366718e+00 5.822271908463818590e+00 4.914800193607717205e+01
-7.350301394318256243e+00 3.334142374184363433e+00 4.309699809735128895e+01
-7.891880690653341190e+00 9.351683273826438825e-01 4.237449099445366585e+01
-4.730094836295547722e+00 5.843143908936464292e+00 4.501061808158500810e+01
9.080304907604938580e-02 7.179831746015356231e+00 4.697610965425649709e+01
2.183600953310236736e+00 6.680007248729955549e+00 4.805218380311789161e+01
6.458757640561715085e+00 5.097771148266823538e+00 5.021708454893772711e+01
3.580036737007642689e+00 6.066767976615479618e+00 4.880204111520185961e+01
-6.990406363722566851e+00 3.951375114313893544e+00 4.342495918076998862e+01
-6.204398187980565638e+00 4.920732871420001153e+00 4.405117401643846620e+01
-7.710325730613995177e+00 2.717318480582455287e+00 4.276891635275620729e+01
-7.956379142273534377e+00 2.256773370933609524e+00 4.247174871753890812e+01
-7.523694735402166600e-01 7.610187273707434308e+00 4.651540076693594017e+01
-1.608931766152217335e+00 7.435769087052888970e+00 4.618862521160306756e+01
-4.028248456583606973e+00 6.820561795976542108e+00 4.518429122149235866e+01
-3.247420196915827617e+00 7.040803673934244777e+00 4.552283427472333699e+01
2.978519026490899613e+00 6.986954519182298817e+00 4.829977362181330847e+01
7.970356332867198912e-01 7.416811840508126252e+00 4.724526647475573782e+01
7.241666040030403373e+00 4.862585247001274702e+00 5.059407963508736117e+01
5.730940384781680663e+00 5.945151712638709895e+00 4.972711274582056262e+01
6.236104748121161556e+00 5.655744112945170876e+00 5.006039277092016704e+01
4.314180915384418391e+00 6.281521013612876736e+00 4.906284351624627504e+01
-6.630527364277108759e+00 4.569048168355332784e+00 4.375289365857738488e+01
-8.182981175908007998e+00 1.661210784844133981e+00 4.212981544180838256e+01
-2.465420676112854537e+00 7.261373936133253437e+00 4.586188394249806066e+01
-5.465697149490634565e+00 6.190357952029767574e+00 4.441854535817670779e+01
3.611533215972376976e+00 6.526113102347504302e+00 4.871673567296758733e+01
2.205963450468212628e+00 7.463202955363640534e+00 4.783080505721825659e+01
1.464827916037506172e+00 7.571664570728150245e+00 4.748362747095794134e+01
5.038453674017233652e+00 6.342955873075661444e+00 4.935239557491176043e+01
-7.855689276348812200e+00 3.518861193641447560e+00 4.258184654393905788e+01
-7.495980707773352236e+00 4.136062653815204548e+00 4.290963499365756206e+01
-8.442022768882541328e+00 2.310928972494217692e+00 4.191212105522078701e+01
-4.809944845690858450e+00 6.600073096636272396e+00 4.484537078815498745e+01
1.046893218979633444e-01 7.784715476904978004e+00 4.684237325975070121e+01
-6.120886229349689067e+00 5.780989778432714665e+00 4.399208486334935486e+01
8.731431178581008368e-01 7.922483439572510555e+00 4.712857940572855142e+01
7.293463466221993485e+00 5.582859534707987237e+00 5.054745882383461719e+01
-7.135949499897733972e+00 4.754019275849300286e+00 4.323772065496801531e+01
-6.776241415246722966e+00 5.371511050039082136e+00 4.356551479026208540e+01
-8.215551288964199728e+00 2.902032072368421201e+00 4.225392145397300681e+01
-8.371938355083228700e+00 9.761530881046300845e-01 4.181946051500860762e+01
-1.220188272025926723e+00 8.022718112518768763e+00 4.610513003360468076e+01
-1.982841893355746121e+00 7.905570975654288013e+00 4.579676730522879069e+01
-4.066683343490690383e+00 7.665254637140566984e+00 4.474869170164649290e+01
-4.438295869078200617e+00 7.132669413593397678e+00 4.479701150211781169e+01
3.712837176040480358e+00 7.201033723383342355e+00 4.856084820831257076e+01
1.642396118104710423e+00 8.060401000905889290e+00 4.741508799890933545e+01
4.345974747938138982e+00 6.740770231055919659e+00 4.897768927691399199e+01
5.773016392433788724e+00 6.557632547658226230e+00 4.961341366287258126e+01
6.781059603282826309e+00 5.978888989168517298e+00 5.028028971101657163e+01
6.233631732686919946e+00 6.196923492426025248e+00 4.993864642910707374e+01
-8.625168650450735441e+00 3.055146489096309814e+00 4.171690580238580282e+01
-8.668528242460530109e+00 1.715194093362044647e+00 4.157029627846824837e+01
-2.894410715027321057e+00 7.996204457627231754e+00 4.525681827879294872e+01
-5.069581611991305969e+00 7.279471973268273111e+00 4.414705857300804581e+01
-5.690817979760537604e+00 7.311913999540319509e+00 4.347838877718377404e+01
-6.052649250783208146e+00 6.665046472653139986e+00 4.350733212540250605e+01
-4.560409920004153683e-01 8.489785789127520133e+00 4.625450105066827433e+01
3.079699007901072871e+00 7.661297600694544130e+00 4.814402102417808749e+01
5.626027841572093235e-01 8.369862745789395930e+00 4.676982244984364456e+01
1.261684485999120753e+00 8.446066461533357383e+00 4.705393645811699344e+01
5.081077276645206808e+00 6.955637758989299257e+00 4.923888652258009557e+01
-8.029819764431424645e+00 4.199869829773016150e+00 4.234190162619311337e+01
-8.425569295788028157e+00 3.520715810668952894e+00 4.198126436403230599e+01
-7.634117608533198762e+00 4.879019379053517014e+00 4.270251080714430003e+01
-3.694671694115437610e+00 8.198442305151015574e+00 4.470036683787628107e+01
-6.414405852965423982e+00 6.018333075283780254e+00 4.353637881639794216e+01
-4.640015854704456544e+00 7.661038004437913607e+00 4.425420304540154604e+01
2.411724540550145957e+00 8.198337367868447245e+00 4.770163137520642493e+01
7.338004256747383103e+00 6.302765974975804042e+00 5.050088179044585246e+01
4.422015539191344935e+00 7.246992724610006320e+00 4.886080110911825614e+01
-7.274481846477874214e+00 5.496863585196645197e+00 4.303021225227955426e+01
-8.874246319118086035e+00 2.404851435274859117e+00 4.134098141096343682e+01
-2.181428780919001387e+00 8.451446631501353224e+00 4.541242652596220353e+01
-1.499766016262077173e+00 8.550501879139865480e+00 4.573160907281428678e+01
-7.093812897618326119e+00 6.089460918919796129e+00 4.309500772761585807e+01
-6.731832138233269980e+00 6.736394185146092894e+00 4.306604585802197960e+01
-5.329085717841226533e+00 7.958625488829149219e+00 4.344959588919789439e+01
2.812833820152982334e-01 8.890127314797938496e+00 4.639563908650253410e+01
1.843916435486697702e+00 8.599551453261328859e+00 4.724706855911728809e+01
1.020327365684849719e+00 8.954801920244671365e+00 4.669731659322735595e+01
6.573571482086920881e+00 6.736822355090906989e+00 4.999977606136333463e+01
5.815074768882094070e+00 7.170202810114977510e+00 4.949970437595749218e+01
-8.787344667843756341e+00 3.614402733465222450e+00 4.150681206545900892e+01
-9.034779154508381538e+00 3.208382833811062707e+00 4.117994799474964651e+01
-9.100920164719022765e+00 1.808665598915299988e+00 4.099891397446866392e+01
-3.991633360674157860e+00 8.473508110516172920e+00 4.425142313992893150e+01
-3.323241819286166798e+00 8.730828204238699541e+00 4.465217145511920904e+01
-7.772274843087027207e+00 5.622106982381751550e+00 4.249543659807837770e+01
-7.491776745447650043e+00 6.096822565640311886e+00 4.268629559529005491e+01
-6.369852903796324739e+00 7.383342775622014464e+00 4.303719374379241458e+01
-1.016968897421959284e+00 9.195127169542729462e+00 4.566651942594899793e+01
3.180933715338486678e+00 8.336260849661478289e+00 4.798813755000326609e+01
3.839765340225623103e+00 8.044612271663160286e+00 4.836618631630516774e+01
-1.851441827298139220e-01 9.310008843088612096e+00 4.598601097338938359e+01
5.156476824839167250e+00 7.461742393183191879e+00 4.912176412582401497e+01
-8.203970746818939119e+00 4.881130399288942989e+00 4.210200594788106798e+01
-8.635669414940549515e+00 4.140255708559060999e+00 4.170857578797829035e+01
-2.554980877166681541e+00 8.885492791859357808e+00 4.499005849921483247e+01
-4.660460176283713452e+00 8.216024590256514770e+00 4.385043644816175146e+01
-6.007995628376447961e+00 8.030138410707030161e+00 4.300847757364831381e+01
2.613418842824150712e+00 8.737315333492150060e+00 4.753378095094655009e+01
4.498032164799983690e+00 7.753215967380075568e+00 4.874391990007187303e+01
6.477377523774968893e+00 7.356225920602894597e+00 4.975727812046921628e+01
7.491002598219703046e+00 6.778131680389840596e+00 5.042485964291837774e+01
-9.358846587041993459e+00 2.563238252831515851e+00 4.070419870354347580e+01
-8.845785827807780777e+00 4.760013618084901310e+00 4.143594064911913932e+01
-1.786380285619054487e+00 9.040228212999943835e+00 4.532810485769704911e+01
-4.233663819450345756e+00 8.826846362772815979e+00 4.351321712943256159e+01
-2.650929801284963805e+00 9.136463831725119888e+00 4.467106050670703610e+01
-7.411317945857856415e+00 6.807279878203508439e+00 4.262476557507824282e+01
-8.269996126580428708e+00 5.747335893748960700e+00 4.196078771587144729e+01
-7.907010398029115095e+00 6.468470673341960797e+00 4.218618659433978024e+01
-4.781459391963218231e+00 8.392667580204587807e+00 4.348135471055339707e+01
-3.903017730308144806e-01 9.563069673216761046e+00 4.567512235018907063e+01
6.466288126750685539e-01 9.424885380655789291e+00 4.630549416265629503e+01
2.045424184104662757e+00 9.138709487126588371e+00 4.707906646396630634e+01
6.003166276971869664e+00 7.701666058885633603e+00 4.936527775525813411e+01
-9.093702175091980422e+00 3.996484972546086922e+00 4.110661122273030088e+01
-8.614658711132820557e+00 5.313321201821485928e+00 4.163363414105025839e+01
-3.686574630111612905e+00 9.260473865995935583e+00 4.354515745205416266e+01
-2.956733661145520387e+00 9.430366773699009997e+00 4.412986867192756790e+01
-8.456886982422947341e+00 6.457942071918979288e+00 4.162574582984772320e+01
-7.049194578098023634e+00 7.454471727347089960e+00 4.259593829350691863e+01
-5.791489930122568630e+00 8.681105932315897888e+00 4.300815192923577968e+01
-8.248558850721421365e-01 9.774864225483350211e+00 4.519686619603366040e+01
-1.305494965286073894e+00 9.948252309186157660e+00 4.470901510313802873e+01
-1.977993658177851888e+00 9.542486159985084981e+00 4.469001307427642189e+01
3.603276582852836363e+00 8.832247678272596048e+00 4.788372044191706323e+01
3.980703632179415141e+00 8.443006472203412827e+00 4.826540679850898385e+01
2.360705982315669249e-01 9.930846037243071578e+00 4.568373739212928797e+01
2.787810753026105814e+00 9.209429471672397227e+00 4.734177684584522439e+01
1.477990632206390043e+00 9.539707552713208472e+00 4.662483165817606334e+01
7.046320541796987413e+00 7.118874865675059560e+00 5.010520458894580997e+01
6.665609113920678119e+00 7.887373122811180082e+00 4.962307813628324737e+01
5.367870851480972760e+00 8.059058585920444884e+00 4.897068504508725084e+01
-9.443708096083515358e+00 3.361304854091839545e+00 4.064393480776156764e+01
-9.329709427462651306e+00 4.737521630895394686e+00 4.080067298977891710e+01
-3.138229419041586699e+00 9.695098152222376697e+00 4.357735340532128276e+01
-8.767608949208552716e+00 5.872539843111128199e+00 4.142630965283834854e+01
-7.729145020696006618e+00 7.525820539154866040e+00 4.215423621431044410e+01
-6.687075770563575716e+00 8.101673426152057544e+00 4.256725536544747968e+01
-6.337440543959374395e+00 8.629393081415477340e+00 4.267628127272334382e+01
-5.061308528518511096e+00 9.259829715575795817e+00 4.305082572302324451e+01
2.220167135362587807e+00 9.610631452389101881e+00 4.688733504497567850e+01
4.779610081496480589e+00 8.549638998027639047e+00 4.854238117242788064e+01
-9.055558307013239272e+00 5.378816752148417812e+00 4.116382576760864254e+01
-4.345077664176926646e+00 9.511743957091784551e+00 4.321281080458742707e+01
-2.590699415438600273e+00 1.012907790479119363e+01 4.360977184751602920e+01
-8.213149765467997909e+00 7.063926680624222243e+00 4.175251898957386487e+01
-6.329292360103573323e-01 1.035406787402575013e+01 4.472809911128616278e+01
3.351468271342277205e+00 9.310156683180832005e+00 4.751504648656910490e+01
8.629838003918771649e-01 1.029894629347906765e+01 4.569237918851840874e+01
1.483880575448517147e+00 1.010361139020299248e+01 4.616263338523086901e+01
2.041830955984385909e+00 9.879956602386426923e+00 4.661096563949868710e+01
2.962201247263639203e+00 9.681543653635957369e+00 4.714979185317248778e+01
7.139273467766312997e+00 7.542357644498329350e+00 5.001523453247573769e+01
7.643909463128021997e+00 7.253168291153885505e+00 5.034890203671720599e+01
6.190989364832214292e+00 8.232397580310113483e+00 4.923104296409625391e+01
-9.578934812446309621e+00 4.155122659390094952e+00 4.047054061264738323e+01
-3.278142779661909589e+00 1.012856531993712217e+01 4.336271071293340640e+01
-3.965401947079309153e+00 1.012805300055238611e+01 4.311572079883778486e+01
-1.938217815447499826e+00 1.020405638354577604e+01 4.398220788165436090e+01
-8.656541853424819521e+00 7.120921900863674381e+00 4.128743618196344300e+01
-8.961124587263583408e+00 6.559043036047532027e+00 4.108946326428173279e+01
-7.367373229988841921e+00 8.173340758235225323e+00 4.212524795677047251e+01
-1.285666179915102791e+00 1.027904758474510238e+01 4.435500227793258432e+01
4.407411568425102288e+00 9.036750522179531231e+00 4.810706184127332818e+01
2.605703865505929695e+00 1.022022862911691554e+01 4.659710749235237870e+01
5.579255332486926733e+00 8.656373918043367865e+00 4.881961698550890105e+01
-9.852678497290979109e+00 3.514221352046964508e+00 4.010792140308544873e+01
-9.514689433196044988e+00 5.414924626755838410e+00 4.056146522287166079e+01
-9.763773131208488110e+00 4.832669603162121241e+00 4.023150784601631358e+01
-3.122272273827625622e+00 1.060805932897152992e+01 4.319882738710167303e+01
-9.265381415733873638e+00 5.997787296854935946e+00 4.089171963484872663e+01
-8.352073914637415442e+00 7.682602924673349598e+00 4.148535279982093016e+01
-8.047243971157048037e+00 8.244966133365608130e+00 4.168352288902079295e+01
-6.923450735341162066e+00 8.800379211821569569e+00 4.227272404868153188e+01
-4.653253179680298501e+00 1.012754079298466969e+01 4.286852098367184993e+01
7.495426689177778212e-02 1.045841327193032910e+01 4.505249264618895211e+01
4.025252523130919080e+00 9.327813293004837192e+00 4.777940498093177268e+01
3.705002346315165340e+00 9.752530034446040830e+00 4.741252510258217967e+01
7.326842245679084265e+00 8.073283220204993782e+00 4.988070048551218605e+01
6.853166876360130999e+00 8.418187230667134813e+00 4.948870656535134316e+01
5.026579058581008397e+00 8.987986050262701809e+00 4.839670018315207756e+01
-1.001312638343845229e+01 4.249966992222939055e+00 3.990119357609160033e+01
-1.997676623600949775e+00 1.048479872745057051e+01 4.364855565228250356e+01
-1.404684388234647363e+00 1.084049975394513154e+01 4.368771168242358982e+01
9.264774912554701869e-02 1.068916069495614707e+01 4.475653094832212986e+01
1.489762826640463445e+00 1.066697647110843761e+01 4.570103918438459090e+01
7.826200684358773918e-01 1.056273099407796501e+01 4.537685818641936919e+01
2.237015315143194183e+00 1.074480365122691694e+01 4.599026286795245966e+01
3.437278973271396865e+00 1.015650974635167358e+01 4.699787152080247665e+01
7.796822305527299157e+00 7.728205721528167871e+00 5.027295730169264942e+01
6.378792568553908637e+00 8.763101725396404973e+00 4.909682166599697695e+01
5.734663253099452795e+00 9.116722439852170012e+00 4.862266766778018479e+01
5.090684372203848618e+00 9.470257586785509218e+00 4.814864785063053176e+01
-9.940347623517189035e+00 5.552832561996982719e+00 4.005467846862559611e+01
-3.653719443868543415e+00 1.108693280396748904e+01 4.278947979996681994e+01
-2.363717317106887261e+00 1.096307469032327653e+01 4.329632351099773757e+01
-9.252227699695124485e+00 7.278185525431188019e+00 4.073758227191422066e+01
-9.556450962677056182e+00 6.716128785966364312e+00 4.053991202561451246e+01
-7.603574272149996816e+00 8.871988515425213606e+00 4.183086880474773750e+01
-6.253772454423875082e+00 9.403402453675884232e+00 4.256731948152128098e+01
-8.117494413819977828e-01 1.119616484452715710e+01 4.372747934596088015e+01
-1.291925418107213175e-01 1.113086258079112234e+01 4.426486245059959401e+01
3.169553735107603742e+00 1.056048893437217551e+01 4.658326057891871130e+01
7.590445441516607161e+00 8.510584021066513571e+00 4.975508273516881985e+01
5.215079954659000983e+00 9.866279377050444666e+00 4.792159021542961739e+01
-1.025155782590935338e+01 4.990173743028212705e+00 3.965072007307460922e+01
-1.026261430929173457e+01 3.667491674764819187e+00 3.957070084268868015e+01
-9.691034082226146040e+00 6.135407893249190892e+00 4.038493466163136958e+01
-4.318982363719627848e+00 1.075031630793551152e+01 4.270343303948772018e+01
-2.982946876347984055e+00 1.117237054222363923e+01 4.298305518416302107e+01
-7.159839769659695818e+00 9.499112239344364994e+00 4.197863303338739627e+01
8.187571314693675717e-01 1.102450075706454413e+01 4.478505468570726578e+01
4.447293486925255834e+00 9.823469254934991568e+00 4.767508382299060088e+01
2.158235293240424291e+00 1.096332467823735257e+01 4.571018663304954543e+01
2.985583536189832188e+00 1.082277210700714321e+01 4.628001434696285799e+01
4.090274829325805328e+00 1.036203198689951677e+01 4.712224171615005019e+01
7.116462833028652568e+00 8.855458462902213057e+00 4.936296823344503792e+01
6.759193173264875121e+00 9.173901674816221430e+00 4.895158299560913662e+01
5.983314550169486878e+00 9.909118098956104959e+00 4.816824029188489220e+01
6.371254318473551059e+00 9.541510236231667719e+00 4.855990137787019023e+01
-1.054504615186334604e+01 4.421303341131926246e+00 3.926782800181324262e+01
-4.185634375206316093e+00 1.156623174525095088e+01 4.237781770634683198e+01
-2.664754605959249734e+00 1.168013715228769200e+01 4.285318638206621955e+01
-1.904561431996895537e+00 1.173707670655482360e+01 4.309079377171502045e+01
-3.425095053122973354e+00 1.162319059952353051e+01 4.261553284740687531e+01
-1.144329400933665752e+00 1.179402115650067984e+01 4.332841440005671529e+01
-2.184149905836364203e-01 1.155207627230547551e+01 4.376779973189985640e+01
1.880337593579039845e+00 1.118110152269542468e+01 4.527118589748282318e+01
1.544809508224616934e+00 1.135981546825156308e+01 4.481367494500135251e+01
3.733217197939835419e+00 1.090064267822697097e+01 4.656942748808357635e+01
8.193497672050980896e+00 8.383927758892610882e+00 5.008465730628304868e+01
-3.848071529209898811e-01 1.185091634746096112e+01 4.356581326057525416e+01
3.746212185690713792e-01 1.190780719557668021e+01 4.380318368750000246e+01
1.322539236416135688e+00 1.180146154048200557e+01 4.432353778018161705e+01
2.826384446932368899e+00 1.125953254497030542e+01 4.571934714934273813e+01
5.090345885438472884e+00 1.020914188507078357e+01 4.759142947892319597e+01
7.139035227750670565e+00 9.584101480241908888e+00 4.880656684541818180e+01
6.751073007399213566e+00 9.951929249357940321e+00 4.841474122675224834e+01
-2.102634749793483415e+00 1.248040485233360819e+01 4.258050163635555663e+01
-2.797127887921921907e+00 1.217561098585724189e+01 4.251296655310421357e+01
-3.491649211135995134e+00 1.187080365108909241e+01 4.244552544055646592e+01
2.270805916019065229e+00 1.169510536129133094e+01 4.484243490180610081e+01
1.142979073835223680e+00 1.226143773813772597e+01 4.386409171350062763e+01
1.911837662700774043e+00 1.261530372010696865e+01 4.392374650381653112e+01
-8.137377029675736395e-01 1.249258785356191481e+01 4.303329199452866050e+01
4.394284876233042425e+00 1.092070360439686993e+01 4.678311873500082640e+01
3.494459315021236190e+00 1.155570742964280662e+01 4.572853246159277063e+01
3.216865084981487044e+00 1.177370669486619903e+01 4.528968808316152916e+01
5.733356888820816621e+00 1.059478698276156550e+01 4.750779841583867835e+01
-3.940227374070184307e+00 1.238573307539643764e+01 4.206187973710400740e+01
-1.408242527316539983e+00 1.278515715162552446e+01 4.264805220827432919e+01
8.106159089272614304e-01 1.261221131391119776e+01 4.357564639256050043e+01
-2.190978733885193819e-01 1.219996407358520329e+01 4.341881520249909698e+01
4.331787232114502117e+00 1.116593150874062523e+01 4.655072219494260111e+01
3.948540563846141715e+00 1.137674220777428680e+01 4.615326409343144576e+01
2.992593422735987385e+00 1.202323888352122694e+01 4.485972218651387067e+01
5.055237220626430883e+00 1.094076217637927506e+01 4.699677489593103985e+01
-4.665896297770305345e+00 1.210680779561623410e+01 4.197244064140253528e+01
-3.517634823505492392e+00 1.298654013699890797e+01 4.190469860680219227e+01
2.663768726057737180e+00 1.223771053489999439e+01 4.458179970994029162e+01
1.246580591556847306e+00 1.331656752291928569e+01 4.334775806367871809e+01
4.163646430161021428e+00 1.185237857605348211e+01 4.573776115839662992e+01
3.715692263776564808e+00 1.235196865376414621e+01 4.487725800789554853e+01
6.948654836758133335e+00 1.048743722488472230e+01 4.804319949800940037e+01
5.715687907213984786e+00 1.096080516396311921e+01 4.721027277113004317e+01
6.377097522053977841e+00 1.098087746720605118e+01 4.742408460668777792e+01
-4.220237303854310618e+00 1.305361979388777982e+01 4.165710600085027693e+01
-2.814877859231870616e+00 1.291944783970399691e+01 4.215234815311242045e+01
1.375347586424758850e-01 1.340318308650673629e+01 4.288407690914061732e+01
-6.352616719415762336e-01 1.309420089225507233e+01 4.276607863784959562e+01
4.929410098365733184e+00 1.143080296244663074e+01 4.653205594077737572e+01
6.250612961455857430e+00 1.147049209916603019e+01 4.695947399904795816e+01
5.526577368446316640e+00 1.169546974261047723e+01 4.651342085398140824e+01
7.057199292122308343e+00 1.127175705445142384e+01 4.732967431826799753e+01
6.124074971862026651e+00 1.196028610289703842e+01 4.649478836094208134e+01
-2.111366867452869389e+00 1.285228294471720289e+01 4.240026707421949936e+01
2.680460353124195727e+00 1.296906384375452781e+01 4.398364861627599254e+01
3.056564155565897334e+00 1.278008243954445078e+01 4.431829877016055974e+01
9.104140191893360656e-01 1.371220857975787233e+01 4.300492084724781705e+01
2.565730051459103045e+00 1.367226150474543545e+01 4.358153874991721466e+01
-9.524838967757512931e-01 1.350952338767383054e+01 4.251777893036813794e+01
7.054927448927417188e+00 1.098165056542978846e+01 4.761221397781553577e+01
5.470423858847070164e+00 1.192430520170729835e+01 4.624234367287610326e+01
4.817303871790485914e+00 1.188835590975999956e+01 4.599013680463998810e+01
-1.955269927594161183e+00 1.320147672036950226e+01 4.229931796832278224e+01
-2.502573020255755676e+00 1.361800129010045524e+01 4.195042400016613726e+01
-3.050139163029023770e+00 1.403472584332076600e+01 4.160137253452956685e+01
-3.693699657113403312e+00 1.382317280344030763e+01 4.149151576547996711e+01
1.682561124120798945e+00 1.402095134039458202e+01 4.312863011728445173e+01
4.438136679928074813e+00 1.268040202717998532e+01 4.489513141551422848e+01
5.493898449871013057e+00 1.238741986642867055e+01 4.572509041701840005e+01
4.829187933273818345e+00 1.212006569311145121e+01 4.573140217722568934e+01
4.662394575720736789e+00 1.243087602208029985e+01 4.532379400941681524e+01
-4.967831108079305835e-01 1.423380003410737693e+01 4.239722768035828437e+01
3.449888896358577206e+00 1.332319469821814195e+01 4.404369606467039233e+01
2.505528392087359446e+00 1.426066100466906406e+01 4.322368324136498074e+01
-1.750287690453163458e+00 1.384892081648224149e+01 4.211437384545786244e+01
5.333672103836004652e-01 1.464552615689675186e+01 4.256117135186406131e+01
1.107929010226920585e+00 1.433325699920164986e+01 4.284499506902791666e+01
4.304912429532830487e+00 1.316611541606210700e+01 4.448166552894221581e+01
-2.297841925346332470e+00 1.426550169318386629e+01 4.176806331694476171e+01
2.196751520668034807e+00 1.459281361086593520e+01 4.305141991209349328e+01
1.593065888494819449e+00 1.534742282346362963e+01 4.258590662632352064e+01
7.763829324231823481e-01 1.515273083046923652e+01 4.243179370432072517e+01
8.719062360631724573e+00 2.351132009180709304e+00 5.025912160362915415e+01
8.644129555383177177e+00 2.758011505176039435e+00 5.023752177718633050e+01
8.246429968708287817e+00 3.571859538584850835e+00 5.029883868814061998e+01
7.969443933704701166e+00 3.901039226389448000e+00 5.037353438240915438e+01
8.529467067588043960e+00 3.202100567501729778e+00 5.023291567870069940e+01
9.308976451389741058e+00 2.419063377166563278e+00 5.003871523248483300e+01
8.407316715747262137e+00 4.298323722774993527e+00 5.017519261891176541e+01
9.159112850275674234e+00 3.232822674736709256e+00 4.999553175501783642e+01
9.528990994840631501e+00 2.859908103617832431e+00 4.990692171342926287e+01
8.960370038424988692e+00 3.639757765777032805e+00 5.002615553700101003e+01
7.921962002777483747e+00 4.939289950517682826e+00 5.032226684904289726e+01
9.674100819559900089e+00 3.707634782342577928e+00 4.975356542081525646e+01
8.602243540871059579e+00 5.015981231451997147e+00 5.005051502158256227e+01
8.845176815230001210e+00 4.695582232890374463e+00 4.997688128254288387e+01
1.008143226405134385e+01 3.131279539813985657e+00 4.967573685368516578e+01
9.478417438128989403e+00 4.400134997670568815e+00 4.976610487726096466e+01
7.803601102089731789e+00 5.640333806404674633e+00 5.034363535959906244e+01
8.312809117717469221e+00 5.697808069754281668e+00 5.013981853177129011e+01
1.025865355809183654e+01 3.834154460936460396e+00 4.951922814942412288e+01
9.282897810761786772e+00 5.092703261752821398e+00 4.977866164185887499e+01
8.797504884842318518e+00 5.395269776409020501e+00 4.995924925390560389e+01
7.827532021482242364e+00 6.000395387197056785e+00 5.032041560489933119e+01
1.015729520456203083e+01 4.047854969706036421e+00 4.953435132634825067e+01
1.072546113206234963e+01 3.463055241096884451e+00 4.939281005895945498e+01
9.362308516329230557e+00 5.597962931390914498e+00 4.972809897239934429e+01
8.796916899991151340e+00 5.951213752878046215e+00 4.993875541550602293e+01
9.984824942441308693e+00 5.171798033628946634e+00 4.949832366956857044e+01
1.031261285674413308e+01 4.779936302396950332e+00 4.940674160938135628e+01
1.084321278722928206e+01 3.960674147470953699e+00 4.928490140155885513e+01
8.066171279011278727e+00 6.404926389066048387e+00 5.020967447178448140e+01
1.064048925879155405e+01 4.388075096971452815e+00 4.931515956743523077e+01
9.442039454449911773e+00 6.103598292475197695e+00 4.967751244267383726e+01
1.154335644415201578e+01 3.447525736364919435e+00 4.908970842808409429e+01
1.068656380469330713e+01 5.250866073880843032e+00 4.921809887354503132e+01
1.112370172395558043e+01 4.728308711876247905e+00 4.909598650010886445e+01
1.142810069167231113e+01 4.087264976183985432e+00 4.905045757095754055e+01
8.219044537441035914e+00 6.880220342849252546e+00 5.013371042993816928e+01
8.794901824584938410e+00 6.507159671836714843e+00 4.991827365942957329e+01
1.007417940541820833e+01 5.740479422850453872e+00 4.944139044608172640e+01
9.523695400246838361e+00 6.609383190133673480e+00 4.962692504826705431e+01
1.016387059059777620e+01 6.309162233858114810e+00 4.938447744104845327e+01
1.207104311481539050e+01 3.894177468937610076e+00 4.883545817065091654e+01
8.371946889763293598e+00 7.355514340132447870e+00 5.005775977107784058e+01
1.080561240101553544e+01 6.009172312677641514e+00 4.914221684082811947e+01
1.138834084531030832e+01 5.329934303601898904e+00 4.893789598605018654e+01
1.163299018334494228e+01 4.530153439620841382e+00 4.892521888738291835e+01
1.201332754220330123e+01 4.213928005632964435e+00 4.881589492797478869e+01
8.947724255495007384e+00 6.982422549151370283e+00 4.984232819210816956e+01
1.160693508972984311e+01 5.068557950321270766e+00 4.887683733125206231e+01
1.211012788968810838e+01 3.083263934582177068e+00 4.897582375403616339e+01
8.907497242766499568e+00 7.464294657945663936e+00 4.983963387989677329e+01
8.405778410734368933e+00 7.804253058505675078e+00 5.002678311097306363e+01
9.760375458389706438e+00 7.083751354375694476e+00 4.951384882520472530e+01
1.011723075053615695e+01 6.616888505221167449e+00 4.939155964240416097e+01
1.259840728537989563e+01 4.340557423893505629e+00 4.858141117814969334e+01
1.235416762674723579e+01 3.711656938873045597e+00 4.877867003097045284e+01
1.071066884937036789e+01 6.624388881902055104e+00 4.915637815222332563e+01
1.144778043330170370e+01 5.709182052077450997e+00 4.889995769528316316e+01
1.209050220941485954e+01 5.409042651492254272e+00 4.865757870225029791e+01
1.234453844066028161e+01 4.874574439705657625e+00 4.861947186902214924e+01
9.387534952807017774e+00 7.482026058029457083e+00 4.964723434264658408e+01
9.014753628520905337e+00 7.880301752130927539e+00 4.978061816722214417e+01
1.035756231000507732e+01 7.091234891256134709e+00 4.927859260016727205e+01
1.282125706659653197e+01 3.061515765253202570e+00 4.875728346876211106e+01
9.997230643523369764e+00 7.558080879021560783e+00 4.940080475529142490e+01
1.310995082233262288e+01 4.113039413788792231e+00 4.846491851385064820e+01
1.322133854621933580e+01 3.473786275412107827e+00 4.855279315771348791e+01
9.624572630392863815e+00 7.956456161445054853e+00 4.953413228571410798e+01
1.277129840940337147e+01 5.485760011774085676e+00 4.838586391204092507e+01
1.311020275494973220e+01 4.773744139423212296e+00 4.833489705441866846e+01
1.362107967222865312e+01 3.885707274398066513e+00 4.834851570262689791e+01
1.344530363337174528e+01 3.283269812471372173e+00 4.852245104006726706e+01
1.379162893778141452e+01 4.470277523491525962e+00 4.817979621925391598e+01
1.362146997280095206e+01 5.206486105441270773e+00 4.808871488710249764e+01
1.345195989506089518e+01 5.562460617318254030e+00 4.811424955061588804e+01
1.376734315353952809e+01 3.303873864324459841e+00 4.841194812506159195e+01
1.415018874770917456e+01 3.989785333517206212e+00 4.814488701864848963e+01
1.413266191949410810e+01 5.639164026560631093e+00 4.784267132121847510e+01
1.391361002526522306e+01 2.722057055741176956e+00 4.847540359039480506e+01
1.449697983718587757e+01 4.608944449263792542e+00 4.790842214498368179e+01
1.396215137499666348e+01 5.054746958809606561e+00 4.801117985084150064e+01
1.431481421598174109e+01 5.124054277562687609e+00 4.787553434632665272e+01
-1.218261145601532291e+01 -3.742821218061206157e+00 2.943148375382931548e+01
-1.195409169695605733e+01 -4.061973901061546322e+00 2.875465911274879716e+01
-1.170404255350386080e+01 -4.401581798843347215e+00 2.951061403334113820e+01
-1.243234177696048981e+01 -3.403650103545467154e+00 2.867551063359785246e+01
-1.237292054010629272e+01 -3.282452961131629099e+00 3.001748319934626252e+01
-1.266065074127080869e+01 -3.084788809263129039e+00 2.935244117357969884e+01
-1.147570555634493239e+01 -4.720483711129072724e+00 2.883389372629077130e+01
-1.282691387237469094e+01 -2.619566583375791513e+00 3.005507221134486784e+01
-1.251332143582253664e+01 -2.812832858930117030e+00 3.084867734342182288e+01
-1.208476852569334525e+01 -3.480420325416808680e+00 3.068354529132885844e+01
-1.183002101191165778e+01 -4.005387631484745192e+00 3.018311187299089582e+01
-1.102184548580735424e+01 -5.287312342341293991e+00 2.883156280585682296e+01
-1.127153663996480759e+01 -4.948167733389713163e+00 2.807515117318592246e+01
-1.122592657829582663e+01 -5.059717635903716371e+00 2.958966839923908410e+01
-1.299318819571281303e+01 -2.154357053738721106e+00 3.075777570053369203e+01
-1.129673444063198851e+01 -4.763808676999230940e+00 3.019551426283597806e+01
-1.052499424300161124e+01 -5.571581883661287371e+00 2.971200703970530554e+01
-1.215766536842760814e+01 -3.187165008546360756e+00 3.126827549533335215e+01
-1.171080335468753120e+01 -3.965048530461990683e+00 3.083919348138028127e+01
-1.336536507987349864e+01 -1.439170804726465525e+00 3.064612820128124326e+01
-1.315947413561825918e+01 -1.689155782669418571e+00 3.146105998264242842e+01
-1.044459719002594866e+01 -5.728585390602204619e+00 2.873296823585837956e+01
-1.086543257699798026e+01 -5.207428404651611054e+00 3.014609027960408127e+01
-1.136756591363803182e+01 -4.467875694930066643e+00 3.080143889826793568e+01
-1.179693735623547823e+01 -3.678181434888348367e+00 3.134892697963114827e+01
-1.233463944798721279e+01 -2.782163994734192070e+00 3.173727196173160081e+01
-1.274728395478316934e+01 -2.235358807205373388e+00 3.159903271325569207e+01
-1.341998270474997490e+01 -1.065334154012831380e+00 3.134100471880449845e+01
-9.867350896153110895e+00 -6.169856611522446244e+00 2.863437354521217770e+01
-1.011503014223299779e+01 -5.928034421409117627e+00 2.920695210013237286e+01
-1.050487339806074694e+01 -5.355167071804958212e+00 3.070261634191064815e+01
-1.014438452524057332e+01 -5.502878167964029288e+00 3.125903830074042844e+01
-1.074602005316884856e+01 -4.856004999137255140e+00 3.140323525816559780e+01
-1.095423095697645088e+01 -4.928294600407429726e+00 3.065948725794170215e+01
-9.923469888744506306e+00 -5.818232175758813796e+00 3.063970828719045869e+01
-9.494252878023056397e+00 -6.383273780074488535e+00 2.929600451821000817e+01
-9.823100814908070078e+00 -6.084147093285624308e+00 2.983451941329258261e+01
-1.143843032543890459e+01 -4.171874251434422476e+00 3.140755226538007250e+01
-1.192186654701774984e+01 -3.329139404951146464e+00 3.187561134890445302e+01
-1.237942845874391651e+01 -2.426974274150083044e+00 3.228653830991495255e+01
-1.150932831171459725e+01 -3.875804179371076241e+00 3.201390414449111432e+01
-1.309322272420377686e+01 -1.225538963617430754e+00 3.196082073929412459e+01
-1.279196112675215602e+01 -1.880406118983196428e+00 3.214721459768726675e+01
-1.272566954597013833e+01 -1.416656199709145580e+00 3.264613850664344596e+01
-9.121529399150368533e+00 -6.596478002161823007e+00 2.995697183539425623e+01
-9.387780943328277061e+00 -6.574939640969396315e+00 2.859995303878207551e+01
-9.016813252859265049e+00 -6.801668960626284566e+00 2.915949083826343724e+01
-1.098719432731939349e+01 -4.356855457180785152e+00 3.210393059864713905e+01
-9.321814961401232225e+00 -6.064905274418086911e+00 3.156776973005787568e+01
-1.023809328571602606e+01 -5.217761838603257374e+00 3.177555095116252915e+01
-1.046550900969818443e+01 -4.837496448392452741e+00 3.219391866332634322e+01
-9.221663287130665410e+00 -6.330711047252951751e+00 3.076231027560046982e+01
-1.196705630216805538e+01 -2.973545489468674141e+00 3.242520156520252073e+01
-1.155441728153449610e+01 -3.520340868927912759e+00 3.256324892399419468e+01
-1.335389272763608126e+01 -6.010345972132468129e-01 3.184166772915382992e+01
-1.302692488699549678e+01 -7.615187934186037344e-01 3.246171895712569722e+01
-1.328763071157323594e+01 -1.370272024828162183e-01 3.234079638742337437e+01
-1.242424505807062296e+01 -2.071803409174882926e+00 3.283250779256899676e+01
-8.460242404163853536e+00 -7.096081347524248351e+00 3.004351642226886199e+01
-8.724416284933559140e+00 -6.765668947481245254e+00 3.048906708125919707e+01
-9.783291602360312922e+00 -5.650838154526105939e+00 3.181639769448849009e+01
-1.201194036703546075e+01 -2.618301733291339417e+00 3.297174707696711238e+01
-1.123077438834441821e+01 -4.055782733226925174e+00 3.261635891299031442e+01
-1.296070050597275980e+01 -2.979278410414959999e-01 3.296298726387101397e+01
-1.322159402164288444e+01 3.270260169706585285e-01 3.284286405390670893e+01
-8.494680899707597987e+00 -7.227529495909824853e+00 2.902586012566634466e+01
-1.076951584886331581e+01 -4.486530175957327060e+00 3.265387566234002747e+01
-9.944106688176265862e+00 -5.317879334254954848e+00 3.228388219779177604e+01
-1.235806945582922012e+01 -1.608061307329125889e+00 3.333545632739711806e+01
-1.205685245956840390e+01 -2.263077875568205943e+00 3.352174118384252210e+01
-1.159953126644218457e+01 -3.164941261336671641e+00 3.311072023057402447e+01
-1.265939009650191061e+01 -9.529144663938567961e-01 3.314922330372805703e+01
-1.289439109916301440e+01 1.663363244530056406e-01 3.346498213458566084e+01
-8.073200371761325655e+00 -7.474896585969050378e+00 2.953824848152931182e+01
-8.390201467971129645e+00 -7.432444031043647925e+00 2.822895897512181307e+01
-7.972549247658894167e+00 -7.653390883899221286e+00 2.889223150298289156e+01
-7.880013065577454512e+00 -7.863477696944228157e+00 2.823777553177210820e+01
-7.446534268146949742e+00 -8.152930103055631150e+00 2.862711619681293485e+01
-7.555446130280426331e+00 -7.874049552409146280e+00 2.955463259731400782e+01
-1.129157378861928507e+01 -3.721587330811636729e+00 3.306924253209299991e+01
-1.095196563049127114e+01 -4.235956148973030189e+00 3.321968169386779834e+01
-9.422062942550288867e+00 -5.798855306161139644e+00 3.237397251949446542e+01
-7.799386537917161633e+00 -7.595363354909794751e+00 3.013000157633578979e+01
-8.327314500732954983e+00 -6.934855572780550759e+00 3.102114536274370238e+01
-8.588680873003276872e+00 -6.572414874084619996e+00 3.172828430200116046e+01
-1.164467550197556633e+01 -2.809559985004456806e+00 3.365971302834042689e+01
-1.259295750350559651e+01 -4.893997769753033467e-01 3.365093749692711356e+01
-1.229190701686747822e+01 -1.144330905942305243e+00 3.383668098030447169e+01
-1.315297246431312495e+01 8.434403157916203764e-01 3.329381526458279694e+01
-7.067220248589248577e+00 -8.530775170105714622e+00 2.834829552722175094e+01
-7.091080278964431827e+00 -8.385160230681814042e+00 2.897185923175986844e+01
-7.114899380132464479e+00 -8.239783837034746483e+00 2.959440780905469737e+01
-1.030882468539918762e+01 -4.866836464556797637e+00 3.305247880205354960e+01
-8.850053726830456213e+00 -6.209971454573278926e+00 3.243542759802866016e+01
-7.798295099488973925e+00 -7.378061223513748601e+00 3.093064372024711517e+01
-7.929925850838202450e+00 -7.104165735228199274e+00 3.155360267578121736e+01
-1.199087084973227135e+01 -1.799261504293158120e+00 3.402245007577247549e+01
-1.112437185827516473e+01 -3.635135688241678320e+00 3.381284087770255553e+01
-1.223242453838809318e+01 -6.988252684430744655e-01 3.433103172203730935e+01
-1.253363199886696044e+01 -4.349337707083474058e-02 3.414521410913418009e+01
-1.283686626925438468e+01 6.753392660181821716e-01 3.393637363702882936e+01
-7.138701084959193643e+00 -8.094521699199683340e+00 3.021646077297909017e+01
-6.687746714960168148e+00 -8.687138528488990374e+00 2.878832276308496674e+01
-6.434460839609159599e+00 -8.714312030745965387e+00 2.945225142250997763e+01
-9.595653540379872837e+00 -5.543109459131546402e+00 3.303633173903106268e+01
-7.137204886511060664e+00 -7.877457070094460612e+00 3.101740984260844769e+01
-7.135702313038577493e+00 -7.660444429581472647e+00 3.181816484427196201e+01
-8.032670156781549053e+00 -6.905312996253250901e+00 3.206898779941819555e+01
-1.168985112863400211e+01 -2.454199284881204424e+00 3.420825061490409524e+01
-1.193111147286928109e+01 -1.354031877401884909e+00 3.451724697420625176e+01
-1.309559446332162125e+01 1.352661759387449480e+00 3.376505474827985154e+01
-1.277938201500705873e+01 1.184028436231286729e+00 3.440749821810138087e+01
-6.437700172920439279e+00 -8.542806326144351203e+00 3.026464539205990789e+01
