-1.741939319969241229e+00 2.156548885247747549e+01 2.846451980983196606e+01
-1.056712603320201893e+00 2.115509142782632068e+01 2.815834393538286307e+01
-4.008804392299397890e+00 2.344354291393438672e+01 3.027968704842723824e+01
-2.214961629016784173e+00 2.414315756916339595e+01 3.371231695319281130e+01
-3.838146896939067521e+00 2.436142171124623701e+01 3.201775371625419808e+01
-3.677927815801544487e+00 2.413343974972622874e+01 3.160913609743938935e+01
-2.692291034140471773e+00 2.426127421064359879e+01 3.312654406423487785e+01
-3.273995348538337957e+00 2.430185659850808122e+01 3.218385495816296071e+01
-2.637728806145870575e+00 2.413769403463536634e+01 3.245038680315912671e+01
-4.087374006051393671e+00 2.374482051204953592e+01 3.070723849153563734e+01
-3.282430703149898044e+00 2.307861307033952514e+01 2.997730648687275945e+01
4.246213093321911991e+00 2.101566555815784909e+01 3.672999343013007945e+01
-3.577543435285775175e-02 2.325266582491574141e+01 3.363555751213778677e+01
-6.958775862534445356e-01 2.351990087020135789e+01 3.378750709553388987e+01
2.443162700890533667e+00 2.212497126925071811e+01 3.493099321383763822e+01
4.167949480161255771e+00 2.126860896878533325e+01 3.589610681793750047e+01
-1.396675098842526275e+00 2.380986793853540462e+01 3.362864947861682197e+01
-1.789630126750949124e+00 2.397620778943246123e+01 3.334824510637330519e+01
-2.028551610090199464e+00 2.403531153675914922e+01 3.305530128251123045e+01
-2.001285017271789979e+00 2.397347865296978142e+01 3.271700284911107559e+01
-1.364013703667255495e+00 2.380904253277494576e+01 3.298397562178288922e+01
-6.998304641229546874e-01 2.353083491986337705e+01 3.330979822888093622e+01
-2.156063544411892519e-01 2.081066210380691217e+01 2.797204109918875758e+01
-2.880946359456932893e-01 2.018917808121508628e+01 2.721420000000000172e+01
-4.310560379204995129e-01 1.984208027419765585e+01 2.682701337588962787e+01
1.306389675334137523e-01 1.983370244277596939e+01 2.696960453690945059e+01
5.498576910378156768e-01 1.947783735731689347e+01 2.672473602336241072e+01
-2.556746662202879161e+00 2.272653972190905591e+01 2.967524401857050265e+01
-1.948475697325377620e+00 2.203674961740162530e+01 2.899059809660665010e+01
-1.953569021303814157e+00 2.240077119840613662e+01 2.943796000607106578e+01
-1.350008560600145735e+00 2.207561785678568356e+01 2.920056536003402314e+01
-1.063361574915301810e+00 2.219487374444688044e+01 2.949527149444701735e+01
-1.810456219907728315e+00 2.263528436130811272e+01 2.984499447072484912e+01
-2.635618979573933984e+00 2.301812223321935846e+01 3.010285519580493840e+01
-3.361393899119261341e+00 2.337896387663786513e+01 3.040497469829756838e+01
-2.714552925970359354e+00 2.331470220075160071e+01 3.053091798918980615e+01
-1.992838580769389800e+00 2.297466666650867140e+01 3.030491727163880711e+01
-1.064644642979428957e+00 2.254421979564382283e+01 3.001463584685031449e+01
-4.065124560441892854e+00 2.394348002794193420e+01 3.106655662025302433e+01
-3.517699817757331981e+00 2.390518031151788492e+01 3.120056589145348269e+01
-2.637955868918908209e+00 2.403820502544832394e+01 3.204003211589446920e+01
-3.113780295459819047e+00 2.407389009420903392e+01 3.177525778462013761e+01
-2.953556013431876348e+00 2.384562191303013989e+01 3.136670486538043079e+01
-2.793322181951054972e+00 2.361674928168759280e+01 3.095819940187188379e+01
-3.440348234532580651e+00 2.368082178934398030e+01 3.083271031410356144e+01
6.288378224884432210e-01 2.297424918721332787e+01 3.396159014540560861e+01
3.018081097421227543e+00 2.183952903280733437e+01 3.525269190819108189e+01
2.532565676312827030e+00 2.217537893873448596e+01 3.450131764783604638e+01
3.302139206138354321e+00 2.185217210290955236e+01 3.463410532143789311e+01
3.592948161232270010e+00 2.155410521519383238e+01 3.557436146516139530e+01
1.402124698287396720e+00 2.266986635187329924e+01 3.372455814520219519e+01
6.510086349540387118e-01 2.298590289979368251e+01 3.331157596807148735e+01
1.511770241035210738e+00 2.264345266358771624e+01 3.316109842685738585e+01
2.056770306955211680e+00 2.241916512602607980e+01 3.419673124795139785e+01
2.821919149175764030e+00 2.214182106094960645e+01 3.410607680152400434e+01
-6.171892499511970609e-01 2.351083757594477319e+01 3.288733198091734522e+01
-1.683196342783436661e+00 2.374205968339519046e+01 3.223466181225028748e+01
-2.001925109944747483e+00 2.377444455303631088e+01 3.189621636057012921e+01
-1.152090912445933757e+00 2.362160058189805056e+01 3.252526798691368271e+01
-9.402177823795261347e-01 2.343389946346851005e+01 3.206673606351186834e+01
-2.562522910093316675e+00 2.384521324750879501e+01 3.165057471847827486e+01
-2.105376442693378980e+00 2.349303780530949126e+01 3.117474829213846732e+01
-2.175326695840694047e+00 2.331993837297494920e+01 3.076490230810331639e+01
4.445777930760831387e-01 2.072952013539529759e+01 2.809654814025845582e+01
-1.793915072744666217e-01 2.112099726870898309e+01 2.834897236850354219e+01
8.490595989769851304e-01 2.036475380100526067e+01 2.780056346204095519e+01
5.933697021891739531e-01 2.008110251452820094e+01 2.738033628561630906e+01
8.869321108272936183e-01 1.977649888925968114e+01 2.714992237363247796e+01
1.473770373277793588e+00 1.997321410226876282e+01 2.754627143811244849e+01
1.383220493513091176e+00 1.948983016189011153e+01 2.700321136131501021e+01
9.690289094653118385e-01 1.912204003502008476e+01 2.647990839584446832e+01
-1.369434262326687524e+00 2.178066720368232367e+01 2.883097935718719640e+01
-1.556384046022920575e+00 2.302695580693786681e+01 3.057132804209309995e+01
-2.602183531808092698e-01 2.211122250416427804e+01 2.969828040836916117e+01
-2.017141658439358110e-01 2.177048244839072666e+01 2.921230549487871286e+01
-7.460942300276507400e-01 2.175184513473436709e+01 2.896307868222902826e+01
-9.426038113233475846e-01 2.149769961020850317e+01 2.859526689107968878e+01
-4.983954216028096962e-02 2.327220049764466125e+01 3.319752793293609727e+01
3.675420804693352750e+00 2.160582549769586436e+01 3.515166034126199435e+01
4.213578396558095740e+00 2.134839700746596591e+01 3.540335968810719436e+01
3.586372763033510491e+00 2.186473950875450356e+01 3.401551853541491965e+01
2.271209937000673307e+00 2.235568776215667697e+01 3.358605934209938937e+01
3.003936575980939327e+00 2.208517615135332335e+01 3.370127252453459477e+01
2.303878950569454798e+00 2.235949136648638103e+01 3.292950031073731765e+01
1.288744120376124069e-01 2.321292050591776501e+01 3.279079350246353641e+01
-1.365870109626905249e+00 2.351046091787187464e+01 3.175240319972356318e+01
-3.791240141317344103e-01 2.329999783769565624e+01 3.237146146346906761e+01
-7.283372620848094225e-01 2.324541123254359931e+01 3.160826135435149453e+01
-1.407954523289675353e-01 2.308832429863414504e+01 3.185565213010838903e+01
-1.417439165482703656e+00 2.336932797524102767e+01 3.139130965639636628e+01
-1.298129272169768367e+00 2.308023968720172903e+01 3.087008302564332851e+01
-5.918236629891194811e-01 2.297313597430673227e+01 3.113358767005701111e+01
3.637309658984158589e-01 2.211606892811700931e+01 2.998385900675943105e+01
-3.187152915435068623e-01 2.245333409914752920e+01 3.018431518969796556e+01
4.881331286634008060e-01 2.231323826157143486e+01 3.045475698344183613e+01
1.171254062734066403e+00 2.197569957033724108e+01 3.025443623361847401e+01
3.539220562831332240e-01 2.185843986356188395e+01 2.959305280034679697e+01
1.046449829397407827e+00 2.177924985628633436e+01 2.978339477717885941e+01
-4.552419011803179316e-01 2.271262711453440986e+01 3.065879563962733556e+01
1.159234504548411065e-01 2.267282959354110261e+01 3.098055167318106129e+01
-2.045665369438685877e-02 2.293894801666825600e+01 3.145523523088062134e+01
6.870908948970828600e-01 2.263315695740305955e+01 3.130231694951275756e+01
6.881221686047329644e-01 2.244970818769707321e+01 3.089966190285041847e+01
5.669203716031212537e-01 2.278217680752016250e+01 3.170265638274596043e+01
-9.375191988636135676e-01 2.273967610161641062e+01 3.037780171599121815e+01
4.807958157280831091e-01 2.103986748287191233e+01 2.847355964383561755e+01
1.104763995573792235e+00 2.064840628157899616e+01 2.822079024994221186e+01
1.729347292787544843e+00 2.025664894212769340e+01 2.796621521227700669e+01
2.080104930402856933e+00 1.913818227700638275e+01 2.685129631193013466e+01
1.943647374901642522e+00 1.877444782725929429e+01 2.642086571106592530e+01
1.460912716067676920e+00 2.087742282128269267e+01 2.867505917291922657e+01
1.784827546378682683e+00 2.051802800294789719e+01 2.833675367990287697e+01
3.349236308022728537e+00 1.838263413800526180e+01 2.655007309827860240e+01
3.691369563210252114e+00 1.866285284414502499e+01 2.697219224648046065e+01
4.137544194344070725e+00 1.826205669480504312e+01 2.672564829858327329e+01
4.813156421597745371e+00 1.847292911132688431e+01 2.725029328953336005e+01
4.698318201107768211e+00 1.816727332660361327e+01 2.686482372819647679e+01
5.507771383673865984e+00 1.806857558277387454e+01 2.716841948742383295e+01
5.531619450441212393e+00 1.759775114120221318e+01 2.667596798350333387e+01
-1.431591461754020966e-01 2.143140279475982624e+01 2.872603087345676798e+01
4.305111907083023048e+00 2.150795453262207957e+01 3.441767319378357115e+01
2.985794731057292317e+00 2.210239966737158923e+01 3.326109544782527649e+01
3.668602032709742833e+00 2.184493563934274718e+01 3.359312153585570115e+01
8.749211821480822326e-01 2.291497145050158935e+01 3.269426840185915495e+01
4.467560298884070136e-01 2.293115833669439851e+01 3.210304908651530553e+01
1.395422032273313739e+00 2.233276147649474908e+01 3.114927260410470922e+01
1.234654217475555038e+00 2.252544441876643333e+01 3.168307773533321736e+01
1.033827650709413293e+00 2.277404979749093172e+01 3.235023781020221634e+01
1.296064629235105903e+00 2.217298680585995996e+01 3.072556047135443080e+01
1.652123471987259951e+00 2.167386443890994485e+01 2.998635960947533619e+01
8.774443365253921101e-01 2.155101575931851343e+01 2.936411473840103525e+01
2.180814319031697313e+00 2.180017510073883003e+01 3.059254303747132653e+01
2.257804011420180945e+00 2.156849549537553301e+01 3.018932198520251120e+01
2.334850952499938348e+00 2.133788150583272625e+01 2.978589746738530408e+01
2.103743985175800635e+00 2.203281272396955259e+01 3.099627770421082218e+01
1.942889855845773894e+00 2.222114930349081874e+01 3.153030953467302311e+01
2.772855882839621255e+00 2.187430667893277914e+01 3.127206353028324415e+01
2.798823108446833796e+00 1.946489442605188103e+01 2.746555547831520272e+01
2.353066206283985995e+00 1.986552982301657266e+01 2.771199953898396728e+01
3.288256229954107823e+00 1.970699470130215047e+01 2.794366561512766367e+01
2.367732654067791653e+00 2.017596664141230889e+01 2.813039680113712393e+01
2.216583146413549699e+00 1.950188576060310197e+01 2.728168540077924931e+01
3.245140391323582563e+00 1.906380099368682579e+01 2.721882943489639928e+01
4.086566153906037613e+00 1.892112505211295570e+01 2.742721052568771256e+01
3.733993996036632623e+00 1.930617887115229081e+01 2.769700741280776413e+01
2.817502301441489276e+00 1.871864251215009034e+01 2.669652900473325730e+01
2.382433469095232237e+00 2.048658548742323049e+01 2.854898432614310622e+01
1.388230724221709789e+00 1.876625102759572883e+01 2.623507996951612498e+01
6.270404212573570391e-01 1.884393550360947245e+01 2.610856728799969773e+01
2.732638238493189764e+00 1.822762617413415498e+01 2.615337704323461310e+01
3.657895392605496454e+00 1.804462084263936461e+01 2.631631265311642665e+01
4.583552897854628050e+00 1.786157922457828917e+01 2.647929949999999977e+01
1.807219091183671189e+00 1.841068742177023765e+01 2.599039935730474937e+01
9.178124414503805450e-01 1.854106267382963225e+01 2.588240411518649609e+01
3.060539089279839864e+00 1.778878772162859789e+01 2.586398973225381681e+01
3.702202255162664102e+00 1.760657767912962512e+01 2.592561272692811514e+01
7.084389017413899037e-01 2.132338531579122076e+01 2.894490376725724445e+01
2.397149284860338625e+00 2.079708245492207652e+01 2.896642207183424489e+01
1.560185172660190966e+00 2.121535208464850442e+01 2.916381305652955902e+01
2.411870175520334225e+00 2.110733280884527829e+01 2.938270775862042683e+01
1.728839160693491195e+00 2.144362075096000098e+01 2.958310382441440112e+01
2.908305613364730480e+00 2.050001373496912294e+01 2.881514311999933398e+01
4.928011788626704082e+00 1.877845481305376296e+01 2.763559199698033453e+01
4.399354464291763911e+00 1.914408368895495016e+01 2.780769046716268633e+01
5.439536730682275945e+00 1.846734279099881704e+01 2.756106885887254876e+01
6.155967765655840473e+00 1.770601144786922987e+01 2.710861976561062647e+01
6.519907578358184352e+00 1.799526652436356855e+01 2.760457887290572998e+01
6.065928235320520834e+00 1.846131285472054628e+01 2.787184558317352412e+01
4.350996646197449635e+00 2.158759374740551351e+01 3.392494846437095646e+01
4.259294418288360085e+00 2.142817952326841890e+01 3.491059455140233325e+01
3.092664373168082292e+00 2.205608472284397692e+01 3.280465328053524132e+01
2.410817830371044579e+00 2.231306817775591966e+01 3.247289246265526685e+01
1.621502899701158018e+00 2.261671734890293450e+01 3.259768288775845946e+01
3.775355338527367266e+00 2.179872791007619171e+01 3.313643163399580516e+01
1.782222745131243347e+00 2.241840453977208014e+01 3.206384977413729587e+01
2.571216525088408478e+00 2.211445830120363709e+01 3.193928380808629797e+01
2.870815047730315150e+00 2.168001782701375291e+01 3.081792640798876093e+01
2.947727040897164308e+00 2.144797926170891955e+01 3.041452894568627840e+01
3.376257105717934692e+00 2.009045433097169209e+01 2.849345686189573001e+01
4.222863263666766009e+00 1.954856465461279313e+01 2.817518426106111562e+01
4.608689341563418473e+00 1.973352898487125984e+01 2.860256676794465847e+01
4.059337272993839285e+00 2.007703439703021786e+01 2.879828827797082269e+01
4.671016477945373779e+00 1.996168629544361295e+01 2.898267841573404269e+01
5.161390144615400466e+00 1.970061753259293624e+01 2.887660491266352025e+01
5.042945119108554586e+00 1.908404702605938752e+01 2.802096818685960500e+01
5.612128808693357840e+00 1.892571467745860758e+01 2.813921982107617836e+01
5.889395799479924420e+00 1.919845251320593604e+01 2.860727125901373569e+01
6.416130856797266802e+00 1.871263482852273441e+01 2.835970015016760826e+01
6.870038822163519576e+00 1.824682446852845530e+01 2.809237995503522001e+01
2.960841581104354248e+00 2.076399688096870833e+01 2.918859269609321316e+01
3.101938809837895050e+00 2.098800288593401575e+01 2.960795886630080886e+01
4.356542467533592422e+00 1.753293872391379438e+01 2.609254803684378032e+01
4.900957986291569313e+00 1.736324561706899061e+01 2.617206760500535268e+01
6.481648931658722468e+00 1.733107566161982049e+01 2.687287337259550313e+01
5.158073250984986480e+00 1.939004654514042869e+01 2.840685100000000318e+01
4.934214786105760808e+00 2.113244758746524354e+01 3.525329261644832002e+01
4.457956263456804180e+00 2.154136174855025132e+01 3.346836392531705684e+01
4.979760014468834761e+00 2.121235090191381545e+01 3.476038935782871420e+01
3.199545566757159065e+00 2.200960861755375575e+01 3.234825816255283826e+01
3.882365201362953044e+00 2.175231596555558866e+01 3.267994756246771004e+01
4.564927361545445983e+00 2.149505730436373341e+01 3.301182648181590196e+01
3.441114119279291117e+00 2.171607029281414114e+01 3.154749729435470584e+01
3.539488351212154438e+00 2.152154506290655078e+01 3.109365719336183176e+01
3.320326955722674889e+00 2.186012051049073790e+01 3.194785088814335694e+01
3.510420629389185976e+00 2.042029755058663554e+01 2.899386626325686578e+01
4.360948519787561040e+00 2.028597305469276080e+01 2.929016882666587307e+01
3.671855935497252421e+00 2.064410850750491733e+01 2.942478017420850733e+01
5.164769908656151820e+00 2.000862554908060531e+01 2.934576579041007705e+01
4.310141066042325164e+00 2.056874232206348907e+01 2.968934478109329334e+01
6.620286511667730522e+00 1.900336622226046757e+01 2.880756312188627177e+01
6.077477137820600284e+00 1.935360536687657174e+01 2.897106331892115705e+01
7.220238864093528441e+00 1.849881757125607606e+01 2.858018143053084614e+01
6.974927215526698809e+00 1.752929657354574289e+01 2.733723451526030601e+01
7.105164775546388256e+00 1.783926523008119958e+01 2.776475326443901537e+01
7.820842683578156596e+00 1.799725660411470685e+01 2.835279895002427253e+01
7.420173563218390278e+00 1.706395894068175778e+01 2.706960049999999995e+01
7.558537605831958217e+00 1.737501094494429310e+01 2.749737775065014134e+01
5.168204982292617267e+00 2.031625601815479598e+01 2.981553633686470306e+01
5.685106118953420662e+00 2.000182214995380647e+01 2.968910782733235010e+01
6.003710164342447086e+00 1.964259750709074837e+01 2.935989333849416028e+01
4.481509479073501723e+00 2.074521082984195886e+01 3.005827836436304068e+01
3.369792055837138367e+00 2.115651731686539705e+01 3.012380869092710611e+01
3.791487568512326600e+00 2.086654382953407705e+01 2.983304105353455782e+01
5.025392459302317150e+00 2.129220565501572437e+01 3.426748751677730098e+01
3.989384853636972483e+00 2.170562514488396744e+01 3.222351458991235518e+01
4.671911034312905109e+00 2.144856102643544915e+01 3.255534296756495394e+01
4.110089372814161202e+00 2.155772960036760111e+01 3.182322517850804644e+01
3.637650110801026404e+00 2.132757289782938770e+01 3.063973341717124299e+01
4.208167531409034545e+00 2.136314869449331866e+01 3.136938486405093229e+01
6.768978089253980812e+00 1.921078914531620185e+01 2.922317179142707388e+01
6.335187722851043368e+00 1.982050749284566749e+01 2.985447024445913655e+01
6.917728392041408547e+00 1.941845483231477232e+01 2.963877803263999056e+01
4.129143909955794278e+00 1.720374156375416774e+01 2.570511292179631013e+01
7.167223879254722263e+00 1.672566318302800781e+01 2.664386180292329698e+01
5.753728229441041897e+00 2.022199408236685869e+01 3.006947814354710147e+01
5.171677755499608509e+00 2.062405206690766235e+01 3.028356483638948404e+01
6.493260321643298028e+00 2.002307349636868494e+01 3.033444810323932117e+01
5.911687818482173284e+00 2.042452850018300836e+01 3.054846933500818196e+01
4.404588532243314702e+00 2.097547685734936351e+01 3.046161389116702622e+01
4.306432839993012962e+00 2.116892977717159852e+01 3.091555005396190126e+01
5.017464600369385685e+00 2.136304412616506454e+01 3.381096140296476449e+01
5.066124744039292693e+00 2.133748846857034920e+01 3.340642005479404730e+01
4.778912498008579313e+00 2.140148240835760163e+01 3.209888994967374742e+01
7.350941922444532928e+00 1.880926937857607939e+01 2.900777285304727826e+01
7.499549592592207325e+00 1.901734110788656906e+01 2.942340569833804409e+01
7.149347782537290641e+00 1.960159332215084405e+01 3.014531565640791300e+01
7.509328401055290314e+00 1.926087009596437838e+01 2.985038255878448865e+01
8.110736843715089961e+00 1.935029228645057486e+01 3.048920870917862302e+01
7.381006687040052583e+00 1.978666483270150422e+01 3.065185129879012749e+01
8.100943136899115160e+00 1.910656700395519891e+01 3.006198653558757172e+01
8.845454151211253446e+00 1.888166065235297353e+01 3.039091185118169491e+01
8.091263698057566955e+00 1.886301193631947370e+01 2.963493849411007730e+01
8.614568562421203168e+00 1.878831645609522383e+01 3.000933264440682180e+01
8.081759314772487102e+00 1.861960958402895017e+01 2.920800062483693438e+01
7.951190526689397409e+00 1.830842109380058957e+01 2.878042254329151461e+01
8.739052128309241496e+00 1.856703685847056207e+01 2.974942719160208782e+01
4.975218341667170030e+00 2.101038575182541379e+01 3.119137270253601457e+01
5.073435636537601212e+00 2.081659176815228918e+01 3.073747414087781138e+01
6.651363253216488580e+00 2.022593593332555528e+01 3.081325180982583234e+01
7.390777658919149395e+00 2.003047158548215378e+01 3.107794427213886479e+01
8.120597865186706343e+00 1.959389411090677058e+01 3.091611473134080157e+01
6.015450125571114803e+00 2.059758211421469198e+01 3.117231830998577280e+01
5.691911534843589138e+00 2.106756602993756289e+01 3.415356352426380937e+01
5.683854974534483517e+00 2.113849064517408749e+01 3.369704951942885884e+01
5.594398944024364440e+00 2.115349993078385893e+01 3.305472653584407539e+01
5.699965851133797834e+00 2.099666361085407473e+01 3.461011858804068453e+01
4.877071151762907952e+00 2.120472449293266237e+01 3.164505357011616837e+01
8.616852033656318355e+00 1.944435177144003291e+01 3.113559192056483482e+01
9.305672065972311557e+00 1.847760941400600032e+01 3.014004276827120776e+01
6.827861633863298252e+00 2.030452008166742317e+01 3.123776523483096312e+01
5.493543472900015878e+00 2.092944367681394979e+01 3.154452172948506217e+01
5.504958159851672583e+00 2.116823843944911232e+01 3.241247082904624222e+01
5.449200470936228058e+00 2.108916058503142921e+01 3.194751745959360179e+01
6.235394421161438494e+00 2.089513079169970666e+01 3.398849567783670977e+01
6.231694090645797601e+00 2.093380874795548507e+01 3.272635539014684980e+01
6.396262160438522137e+00 2.088913967893648760e+01 3.316965792795458157e+01
6.351747736081632567e+00 2.091339683998208798e+01 3.358294286177579124e+01
6.175456198679185604e+00 2.085536084042462690e+01 3.226129709979743865e+01
8.130521673684210526e+00 1.983778729651398365e+01 3.134275563704342815e+01
6.119220120737939084e+00 2.077676742496661788e+01 3.179628121462979706e+01
6.789557467382137723e+00 2.046402672566906489e+01 3.164505361900438274e+01
6.712034483608459112e+00 2.058777383896566349e+01 3.206232916326354143e+01
7.460069570251810944e+00 2.015099803714156224e+01 3.149386027339251726e+01
8.019692961056174241e+00 1.999389129758403172e+01 3.184553555569687688e+01
7.349202450189979530e+00 2.030726527449672858e+01 3.199680148273946756e+01
6.860308886800643435e+00 2.067371420421988759e+01 3.395388576631799538e+01
7.019226830130425476e+00 2.068840357732779722e+01 3.346897239298244386e+01
7.019159816858989487e+00 2.054864625242964848e+01 3.246966980326737229e+01
7.908843667690933721e+00 2.015021373054399234e+01 3.234854752362918617e+01
7.368868650116137786e+00 2.043401121801502640e+01 3.432482819162516563e+01
7.528076969064497526e+00 2.044859695344914030e+01 3.383964213211891803e+01
6.958999398516979795e+00 2.069875653098435819e+01 3.304049080239106928e+01
7.797907049875748342e+00 2.030679090257407537e+01 3.285209551857990817e+01
9.003247489227092615e+00 1.964409395025004912e+01 3.231844512512763856e+01
8.447567512174659399e+00 1.998564160818296287e+01 3.273544115413777433e+01
7.687136746500979889e+00 2.046322123773845902e+01 3.335499158479382231e+01
8.394080576223840851e+00 2.010399533853676246e+01 3.318158339563918702e+01
-9.168610958887715157e+00 2.426460058525264785e+01 3.816721885825303673e+01
-8.618229560112030896e+00 2.422353881935542574e+01 3.828272233543857794e+01
-8.540278573339801227e+00 2.422401182183709523e+01 3.826052163690417984e+01
-8.634239988580356240e+00 2.428732139176291227e+01 3.795382793110896102e+01
-1.004265859215754197e+01 2.435903596473312405e+01 3.780865282417043716e+01
-9.735087845892264724e+00 2.432167202268478334e+01 3.796868641865237493e+01
-9.451925503022764019e+00 2.429131022085976355e+01 3.808017216294968676e+01
-8.824789365622049075e+00 2.430972933599883490e+01 3.788509389983082087e+01
-8.244830622034047707e+00 2.420613330969298715e+01 3.833483683906592177e+01
-8.147790584395519176e+00 2.420558061252198101e+01 3.833132535759109771e+01
-8.440036947232309572e+00 2.428619377032929449e+01 3.794689722021058031e+01
-1.032175963647848249e+01 2.439530133304399584e+01 3.764111266609302930e+01
-9.391283713575857561e+00 2.436307338604013140e+01 3.771133091342066024e+01
-1.000615931875991826e+01 2.443781288321624601e+01 3.739114885244558195e+01
-1.057311799940586994e+01 2.443761390238438480e+01 3.740695101906462838e+01
-7.859496476466851789e+00 2.421411069083092116e+01 3.831114187828541873e+01
-8.556697981550350107e+00 2.438902608963397611e+01 3.744612619822808597e+01
-1.049426201179772811e+01 2.453137314022338344e+01 3.683276696900860969e+01
-1.081683170353955425e+01 2.448438516377894558e+01 3.712781751873652780e+01
-9.572060804065747774e+00 2.449625869136375300e+01 3.704741257798217902e+01
-1.100878888543422285e+01 2.453137969720371814e+01 3.682996882813699102e+01
-8.637655413909879343e+00 2.439397588153254048e+01 3.743322107380577535e+01
-7.857791425755722869e+00 2.425624825161200704e+01 3.813812460637494439e+01
-8.459571829133999188e+00 2.438843416245705242e+01 3.744279796583780495e+01
-7.274761611905483427e+00 2.422626125518816309e+01 3.832966200586118788e+01
-9.016381794634034108e+00 2.443185951859926774e+01 3.731195154495406996e+01
-8.732966019028870264e+00 2.440518912026584175e+01 3.739881336287380975e+01
-8.479105246411817731e+00 2.449076365418033063e+01 3.693823471467365493e+01
-8.641054318366110820e+00 2.450071146855390936e+01 3.691219274049991128e+01
-7.290345875903491368e+00 2.428011432935245395e+01 3.808670100661480973e+01
-7.230042069385254067e+00 2.432765998487812453e+01 3.783472845181257327e+01
-7.869661881979294726e+00 2.427446930974974038e+01 3.802229614179336892e+01
-9.264860053249060812e+00 2.445888883380249013e+01 3.720754495398206529e+01
-9.816211350180159556e+00 2.454300083878854366e+01 3.676842845429376183e+01
-8.174506599627859416e+00 2.438265941885728338e+01 3.748005535038306135e+01
-7.280762384463559833e+00 2.423537313875000621e+01 3.827174111626617758e+01
-7.919642823129157350e+00 2.439137721102240164e+01 3.745659506934146776e+01
-9.138512233127555007e+00 2.455462089636918677e+01 3.670417375081780165e+01
-6.710960033545576131e+00 2.428575785454746594e+01 3.815116696463773849e+01
-7.599937034760454679e+00 2.441798492017851530e+01 3.736272332855529044e+01
-6.925292480882874635e+00 2.444735879301147108e+01 3.736022220377387271e+01
-6.758287185831217236e+00 2.439124906746052446e+01 3.765398006956331045e+01
-1.115035085972904483e+01 2.458212449785680320e+01 3.649299545719788540e+01
-9.978797946791402751e+00 2.458407260710773556e+01 3.650910703067571461e+01
-8.507429046343469636e+00 2.463960582146324896e+01 3.620469821447272807e+01
-8.822934535102033848e+00 2.459712154803831297e+01 3.645438879018091427e+01
-6.681006224095606072e+00 2.430952625960976121e+01 3.802517762232077558e+01
-6.706873131302914182e+00 2.435973695597579436e+01 3.780339487444972946e+01
-9.463073243782428534e+00 2.463678804194236704e+01 3.618535323174290141e+01
-1.077707381259912367e+01 2.463286293412997452e+01 3.615879477085805149e+01
-1.011965357978710855e+01 2.463482738525025795e+01 3.617206197087196529e+01
-7.969591861955586332e+00 2.450825152610521229e+01 3.689102499325400686e+01
-8.238571783220130840e+00 2.457394398082131914e+01 3.654778275598498283e+01
-7.294830999211714406e+00 2.453767638508183424e+01 3.688828163484662781e+01
-6.286007106222759155e+00 2.445490211186102414e+01 3.747307501277032316e+01
-8.985226819776944041e+00 2.463819730360695814e+01 3.619501246843370268e+01
-1.125454239258490396e+01 2.463139944452392527e+01 3.614919276221971245e+01
-1.007386150385198320e+01 2.468472152300091338e+01 3.579821189225695832e+01
-7.772025198741921770e+00 2.461246649138912090e+01 3.646105519462793865e+01
-6.183219451618866103e+00 2.439184101061142229e+01 3.777207369274329807e+01
-9.976700382780034460e+00 2.472504893440594032e+01 3.549966727528187960e+01
-8.888298610058928517e+00 2.467855373307848765e+01 3.589627216959332401e+01
-9.268807682987031171e+00 2.471746428878735458e+01 3.558813695074400130e+01
-1.125325125059360687e+01 2.468018454174590204e+01 3.578789226740242668e+01
-1.068433113246001476e+01 2.473262995403599618e+01 3.541127569936408293e+01
-1.120676720707268714e+01 2.473006980263557963e+01 3.541411016567865744e+01
-6.620419491665606060e+00 2.456708259783275139e+01 3.688560025676333964e+01
-7.097455271185350689e+00 2.464191212997382507e+01 3.645817855323948464e+01
-8.040743753959835871e+00 2.467817629639986876e+01 3.611775944080546452e+01
-8.585597284957085407e+00 2.470634020893866634e+01 3.576595589293381749e+01
-8.663710866980709469e+00 2.477302556571010683e+01 3.532749693060316787e+01
-1.109440499591009477e+01 2.477598640865843294e+01 3.506807728788093925e+01
-6.455803969435372380e+00 2.469499553620351406e+01 3.633858559186908366e+01
-7.574350868807790071e+00 2.471671856520141830e+01 3.603090432588243175e+01
-5.981116546491056063e+00 2.457461614004320083e+01 3.699851712706978191e+01
-5.813687914415937463e+00 2.451855383871145833e+01 3.729219931562025181e+01
-8.258606286757800063e+00 2.471448743687479066e+01 3.585086489561513190e+01
-9.791957563766501949e+00 2.477092890030538186e+01 3.516452666370116731e+01
-1.091040056922568624e+01 2.482191500114082316e+01 3.473249515266223142e+01
-1.031567693712324640e+01 2.482445063761347726e+01 3.474045023085175643e+01
-6.158631513822570014e+00 2.462721083485617513e+01 3.671683932213324653e+01
-6.932399924904725452e+00 2.476978249590119674e+01 3.591139894582066461e+01
-9.369736838389515654e+00 2.479255810214594646e+01 3.509440933981505140e+01
-8.966238979002969955e+00 2.482957543864343108e+01 3.492078288666081676e+01
-8.771144448433039642e+00 2.486465705809301241e+01 3.472434684215830458e+01
-8.010202838525280811e+00 2.478923135583683290e+01 3.549765623913776125e+01
-8.370652352121494388e+00 2.488375645537251302e+01 3.476671798699607763e+01
-9.943598930405537217e+00 2.488359430789211757e+01 3.442365883091029843e+01
-9.470629947087664036e+00 2.486762086344234390e+01 3.460082417965526247e+01
-1.069619615757422437e+01 2.486334901344524440e+01 3.443234514109182953e+01
-5.696230259920330496e+00 2.468741103684438087e+01 3.654789883094954206e+01
-6.291323812651009817e+00 2.482276432158948509e+01 3.579212434555454792e+01
-7.267224011878323786e+00 2.479191442752457419e+01 3.570598386051167950e+01
-7.558168657419559899e+00 2.484019559280019962e+01 3.535067347306652152e+01
-9.268921793332868475e+00 2.488615079494388738e+01 3.451384975253699849e+01
-8.043813324204368342e+00 2.489189637286898460e+01 3.485159916590734497e+01
-7.668293945945055867e+00 2.489206569104319300e+01 3.501152303924724407e+01
-9.571576399348940001e+00 2.494271669156643867e+01 3.410694235178225853e+01
-1.040135226326971107e+01 2.489970107658254506e+01 3.420125571522321195e+01
-6.960312206788529465e+00 2.486704337001504328e+01 3.538132358160432034e+01
-8.878548480770930951e+00 2.495625165441555993e+01 3.412132057305559130e+01
-8.077408661352921015e+00 2.499451943696650957e+01 3.420564660199301699e+01
-1.002956881547847345e+01 2.495883473962554788e+01 3.388438516067857620e+01
-5.763276313707367926e+00 2.478520671860641755e+01 3.608527642797761104e+01
-6.472224898542809690e+00 2.488246238794307885e+01 3.542444764176742922e+01
-7.106089373730994474e+00 2.489115644959273865e+01 3.520370832634422698e+01
-7.326524282216285044e+00 2.499482244478626924e+01 3.452565382136781125e+01
-9.333041731206067837e+00 2.499680416335909072e+01 3.374421601010718064e+01
-8.956606781584866894e+00 2.502284430616835209e+01 3.368299373228864368e+01
-8.574883246734788855e+00 2.504240022193240023e+01 3.370422462998536872e+01
-6.990083019295321165e+00 2.496852437368284683e+01 3.479093016551841799e+01
-5.824788150577414392e+00 2.486136309640841802e+01 3.570540983768877652e+01
-6.653243373440348662e+00 2.494219365066660998e+01 3.505653006696552154e+01
-5.993962287756479768e+00 2.492244900749702907e+01 3.534892712795372205e+01
-7.802380467419176568e+00 2.507209940371543766e+01 3.384316877093292675e+01
-8.174088236912313121e+00 2.506157278613507344e+01 3.374620236314984112e+01
-7.427080290879879421e+00 2.507223441476357806e+01 3.400321423331677551e+01
-6.765698401186758915e+00 2.504927670357399094e+01 3.441111761857441564e+01
-6.174990028841802925e+00 2.498212432465986410e+01 3.498125635497783037e+01
-7.078046397098658460e+00 2.506951429863355330e+01 3.417240453327327998e+01
-6.428929668044464307e+00 2.502298832699573339e+01 3.467649663404170468e+01
2.301341362862685358e+01 -8.267677208804620648e+00 4.118056057127378722e+01
2.257805463457095030e+01 -8.390834992204787568e+00 4.234026925679077635e+01
2.263328016356672379e+01 -8.813701786871501298e+00 4.131536628069508765e+01
2.302489817414108231e+01 -7.972148872193489666e+00 4.173472981403303095e+01
2.234283491896606932e+01 -8.896105104750745340e+00 4.208866951221099129e+01
2.273671564965222913e+01 -8.691106466439956435e+00 4.087465488405194947e+01
2.287866433207506134e+01 -8.455816521263125551e+00 4.048356151635806555e+01
2.281330575968200236e+01 -7.885539366237463099e+00 4.259186750582725978e+01
2.225259011102172479e+01 -9.360574949181907911e+00 4.145036458167391658e+01
2.218978654566682351e+01 -8.738678354394394887e+00 4.268302192620792823e+01
2.245987474517715654e+01 -9.114760663755271608e+00 4.056856819044226370e+01
2.305464742316334892e+01 -7.909956495887735528e+00 4.031563567251735947e+01
2.210741149661430427e+01 -9.401836823239897001e+00 4.183681032095657315e+01
2.260682189729842051e+01 -7.919852554878766604e+00 4.300957614617094293e+01
2.177303818161735549e+01 -9.300798238168844989e+00 4.275663571599676516e+01
2.216547010360527636e+01 -8.458918736847245157e+00 4.317599530964002952e+01
2.211889948269027073e+01 -9.594047921277677915e+00 4.085199284123227415e+01
2.274381645440825039e+01 -8.644190287164787989e+00 3.978560133708200652e+01
2.187228739968406188e+01 -9.906938730278641358e+00 4.158523529987689216e+01
2.207611541145362821e+01 -7.857197733567566011e+00 4.348534446689786392e+01
2.172378341254354694e+01 -8.999000000000000554e+00 4.334255347479172116e+01
2.218272660179021827e+01 -9.538891559363904094e+00 4.026210740362302687e+01
2.182254690131160757e+01 -9.603858402662435623e+00 4.217102535979951483e+01
2.140819036432892020e+01 -9.437103069266790101e+00 4.308051266395012391e+01
2.189998283634374587e+01 -8.427946894975134384e+00 4.341390996979531991e+01
2.179097363804817178e+01 -1.006692148156177602e+01 4.093977156262018724e+01
2.260915572768312742e+01 -8.832384834215737612e+00 3.908822027315695635e+01
2.281987968898441821e+01 -8.312769291680407235e+00 3.936916535620142810e+01
2.228240959862095139e+01 -9.350369801500427513e+00 3.927526534451558149e+01
2.129678838796267115e+01 -1.033643996524805608e+01 4.173373259629919119e+01
2.148428549709368340e+01 -1.022274687450994435e+01 4.121418735613562490e+01
2.281959547024509405e+01 -8.234751795999144974e+00 3.890141852023693048e+01
2.109219679245632761e+01 -9.876935954995881062e+00 4.281810245666306969e+01
2.113123834250117028e+01 -9.463189989039523908e+00 4.351680230079396239e+01
2.145145181491087882e+01 -8.464709005596176894e+00 4.406665427614073138e+01
2.190585930661018921e+01 -9.962597796605566103e+00 3.995593510244538749e+01
2.170984537438972239e+01 -1.022674526328062861e+01 4.029486880364628831e+01
2.303014777292095516e+01 -7.636829746869141289e+00 3.871453547694329700e+01
2.077640703283531565e+01 -1.031667888106126618e+01 4.255582634601167769e+01
2.118084925124237472e+01 -7.930500000000000327e+00 4.479061355506391351e+01
2.195569192108498768e+01 -9.868333947685712815e+00 3.946230161455171981e+01
2.109636126440550541e+01 -1.053849236483488383e+01 4.084319668282311255e+01
2.241991015851495561e+01 -8.910695888633778594e+00 3.852553997747872216e+01
2.226006242097548693e+01 -9.177833147008232828e+00 3.869075902193635130e+01
2.065756608079551881e+01 -1.012115847521135947e+01 4.312339174887230087e+01
2.072062498884321613e+01 -1.076649553671237314e+01 4.188240002189885303e+01
2.087195471371071065e+01 -8.545988170464260847e+00 4.455916041825435769e+01
2.165536646379628394e+01 -7.335139301647549459e+00 4.442667023650646030e+01
2.255270882983075964e+01 -8.396026228612775810e+00 3.818869303314527031e+01
2.280464466357308240e+01 -7.949829547676776187e+00 3.839361326645242656e+01
2.178561481534607225e+01 -9.880486879523289190e+00 3.882024921200385847e+01
2.046045558268774656e+01 -1.075668614256786881e+01 4.229336823725614636e+01
2.056357251659767726e+01 -9.160914704965422928e+00 4.432785477903723859e+01
2.162875492033437652e+01 -1.038667162846558867e+01 3.964947703105125498e+01
2.296305045954977686e+01 -7.460218482046824917e+00 3.818965217897785180e+01
2.001263297560839760e+01 -1.065808201165750546e+01 4.325425149140937009e+01
2.056768160709522064e+01 -1.092240721821064398e+01 4.117058931882830564e+01
2.053898806555817202e+01 -9.927219044827140237e+00 4.369094756064942686e+01
2.025530571269325364e+01 -9.775936448400354806e+00 4.409645061679338340e+01
2.053339677787030482e+01 -8.330484031810904355e+00 4.495800752150853441e+01
2.139176919166703783e+01 -7.222035668944034370e+00 4.476178591523082417e+01
2.070825940501714157e+01 -1.085438350748210823e+01 4.047200875228514150e+01
2.223078395530217577e+01 -8.988963811918356583e+00 3.796312637860991401e+01
2.324072666195668191e+01 -7.038859839743678570e+00 3.852764514298742426e+01
2.268554279896827808e+01 -7.881317592206508849e+00 3.785184989108085318e+01
2.007849213825627999e+01 -1.092716141360559945e+01 4.264297099485968801e+01
1.994713823714943146e+01 -1.039099958835510940e+01 4.386497031904301735e+01
2.014467205987405052e+01 -1.119645539934835199e+01 4.203101827894212050e+01
1.988561872634641858e+01 -8.730772126627025287e+00 4.512546830242396823e+01
2.088796660557745355e+01 -7.317832267235213628e+00 4.514435363635757170e+01
2.160270622565941068e+01 -6.507333149924781068e+00 4.473383921224402116e+01
2.191070229480711617e+01 -9.523543270463685317e+00 3.829298251881895965e+01
2.240781166612147501e+01 -8.302752383650815915e+00 3.751376200163516472e+01
1.991729920117812469e+01 -7.916036313327138529e+00 4.539540922381153365e+01
2.143737455043013185e+01 -1.043002300469186494e+01 3.901229246227393332e+01
2.106303754695250774e+01 -1.075319073017420202e+01 3.967638777299991659e+01
2.298106502636305848e+01 -7.106819496751024978e+00 3.793014913937792443e+01
1.949955256204183840e+01 -1.072995566719619909e+01 4.353420844592006489e+01
2.007388515355505376e+01 -1.129287383328142269e+01 4.126383008855091816e+01
2.025660883550327895e+01 -7.308989196769680063e+00 4.544684229483235072e+01
2.107204387072087570e+01 -6.162095867369643543e+00 4.522549547412092608e+01
2.118617330739475335e+01 -1.065172014177378479e+01 3.916495259443620114e+01
2.175008388122134662e+01 -9.512780548761087474e+00 3.756918164009574923e+01
2.213019147294554401e+01 -8.724015676970079625e+00 3.717579651101721794e+01
2.329233759231766143e+01 -6.304348597470697868e+00 3.826037640678882212e+01
2.272161368338739251e+01 -7.174727723604484630e+00 3.733311848426419743e+01
2.156165131946537628e+01 -9.868946476618159380e+00 3.789554967512676598e+01
1.905221781510718060e+01 -1.106927182353757821e+01 4.320358928525115516e+01
1.905549963654981838e+01 -1.059105705415532306e+01 4.392346011367059333e+01
1.919193147904277907e+01 -1.128149172621673557e+01 4.264734856563986654e+01
1.963915406048819534e+01 -1.141740169760598356e+01 4.157452585980221471e+01
1.959170354078553800e+01 -9.760587363342670741e+00 4.457899218018290100e+01
1.957799091745093278e+01 -8.524024991145653374e+00 4.534401709708220807e+01
2.059608984901266382e+01 -6.702242814095313861e+00 4.549849683930978728e+01
2.124596018925137386e+01 -1.047338607165033864e+01 3.837493515477387973e+01
2.032019951602468666e+01 -1.117024084298001618e+01 4.010084557262145211e+01
2.000325177342485006e+01 -1.138925326926880999e+01 4.049692360620704790e+01
2.249656554455189905e+01 -7.702729305736226273e+00 3.722013527571922964e+01
2.204172277929464485e+01 -9.067208238248628760e+00 3.740081837904025264e+01
2.294989655796029737e+01 -6.466352790780484305e+00 3.751112693053629243e+01
1.933201891576113240e+01 -1.149400440789552569e+01 4.209110626056546067e+01
1.923890700898486372e+01 -9.130500597316057565e+00 4.529263520560223100e+01
1.995237884957470342e+01 -7.160007521005380404e+00 4.585058225578232793e+01
1.935735318276119088e+01 -8.111778571748525124e+00 4.583349141265100712e+01
2.080853679671693612e+01 -6.058522849500326046e+00 4.545261771912643667e+01
2.049776331784254779e+01 -1.111945939869693767e+01 3.970330998809888001e+01
2.224700652596654038e+01 -8.112321681011295027e+00 3.694300286050364690e+01
1.913440371532903228e+01 -1.163804506433108443e+01 4.111869314078057158e+01
1.874931263459904685e+01 -9.595369315518544440e+00 4.497969206963346522e+01
2.030737690497192460e+01 -6.179330572025733659e+00 4.582469392078413506e+01
2.074369276424402031e+01 -1.091671459681803036e+01 3.868056519648838076e+01
2.266546707214731882e+01 -6.787753553413017116e+00 3.698883260980495891e+01
2.121232643152075070e+01 -1.021461944697274227e+01 3.749779575263293907e+01
2.185237309107020920e+01 -9.145577251585969236e+00 3.683757838220219583e+01
2.196933709385003652e+01 -8.533494162694090335e+00 3.660481816352439211e+01
2.246229078420892478e+01 -7.242605017988423377e+00 3.673636538731153678e+01
1.860476747547555476e+01 -1.140898710445087083e+01 4.287285184838131613e+01
1.838491928063123027e+01 -1.109927855918540018e+01 4.342740705160706227e+01
1.852110411604232354e+01 -1.179114032667172296e+01 4.215112114838162682e+01
1.892368401665517652e+01 -1.167784939118333298e+01 4.164914692018208342e+01
1.864075230169897424e+01 -9.325480442550404092e+00 4.536828275788280251e+01
1.930870540350277409e+01 -7.618125004309836079e+00 4.620329081155919937e+01
1.895199803114820369e+01 -8.603318216306528043e+00 4.592419834366619114e+01
2.024981630960393630e+01 -1.124524420044947881e+01 3.890275305342052548e+01
1.993275220611888088e+01 -1.148559937202742809e+01 3.973025422384969829e+01
2.334392363898649947e+01 -5.570319598005615269e+00 3.799330101890851097e+01
2.268031174698252528e+01 -6.320438365584531759e+00 3.677483711981673764e+01
2.135788652039172675e+01 -9.852670352036316359e+00 3.696885369428468948e+01
2.208620921886022970e+01 -7.921884795363811627e+00 3.637224954397483856e+01
2.105447964017123752e+01 -1.051676724046033051e+01 3.773730154802264281e+01
1.825898909101373491e+01 -1.006101291842843715e+01 4.466626474803011604e+01
1.842555596452448441e+01 -8.933058494922665460e+00 4.584214851092995957e+01
1.866555007801867916e+01 -8.076102042944688364e+00 4.655585254139163709e+01
1.968099980587795983e+01 -6.261209628185639531e+00 4.625140317937195533e+01
1.862970007538450545e+01 -1.185870143734330284e+01 4.066288178671725007e+01
2.291874318812371314e+01 -5.825835952992364675e+00 3.709210099113195724e+01
2.001910083532861861e+01 -5.657585566649658837e+00 4.615044668139066175e+01
2.049414035360343433e+01 -5.149126098521059625e+00 4.587219628743825695e+01
1.934253771998099936e+01 -6.865693347081010423e+00 4.635283071258262311e+01
1.802058711417066306e+01 -1.143051545441406347e+01 4.307463340047133471e+01
1.816624984812026611e+01 -1.079100113094008151e+01 4.398198243347349745e+01
1.804194568317184988e+01 -9.520694500795654491e+00 4.544399356594822592e+01
1.821058887170704921e+01 -8.537365658050115158e+00 4.631608160225709980e+01
2.030129550848558040e+01 -1.118166589540171074e+01 3.819628577654195567e+01
1.916172359585405260e+01 -1.175705678194270831e+01 3.973682466388589773e+01
2.244153781099650047e+01 -6.815742054232460490e+00 3.645711595365712299e+01
2.220303925690710400e+01 -7.310466611345145971e+00 3.613976006775015293e+01
2.144240255070267054e+01 -9.425166941519004027e+00 3.638180766133112343e+01
2.086318501070303810e+01 -1.056010979977959074e+01 3.710024220412967111e+01
2.152316942568599956e+01 -9.141714063701074977e+00 3.619250516304501275e+01
2.175270598720084081e+01 -8.285906415204078002e+00 3.599582873620980905e+01
1.940508298223961603e+01 -6.058563252906460583e+00 4.639159936232412207e+01
1.776904094259698397e+01 -1.052637238977163747e+01 4.435306619662632954e+01
1.815760342116573511e+01 -1.174861489097611233e+01 4.254228006479585389e+01
1.832944527723476824e+01 -1.191974542351858801e+01 4.136021276994365792e+01
1.900412808806566289e+01 -7.470436233775341606e+00 4.645432489139252397e+01
1.775521562574800427e+01 -8.997344549218659893e+00 4.607601289504493991e+01
1.760587844170646221e+01 -1.012121940656308539e+01 4.493613255396374484e+01
1.976041829788357873e+01 -1.156111334352979370e+01 3.889660423301168635e+01
2.258729290737625206e+01 -5.694147444105266409e+00 3.638662196160348827e+01
2.102701664318211883e+01 -1.003017404994777628e+01 3.651241312281964468e+01
2.186951060031447369e+01 -7.674434928824950042e+00 3.576325811839649305e+01
2.020135399274022703e+01 -5.051314640137545275e+00 4.603895332713184985e+01
1.742181964882633238e+01 -1.135519869800551973e+01 4.343153635048030026e+01
1.770986445904098971e+01 -1.208874585211519914e+01 4.221124057435588384e+01
1.842121258275911089e+01 -7.467847452461827906e+00 4.671542566336393776e+01
1.791092133628865923e+01 -8.355904482949501499e+00 4.667947185105545316e+01
1.879106673450203857e+01 -6.459606188647735614e+00 4.663321819184506722e+01
1.744271326184978932e+01 -9.716064631384499606e+00 4.551973519660059253e+01
1.940523428928289462e+01 -1.167652633228301973e+01 3.922310804176798626e+01
1.812427698095980233e+01 -1.207970872092276338e+01 4.020638875943073032e+01
2.241217440246748893e+01 -6.219205354601130331e+00 3.620582701326669195e+01
2.279477993633609501e+01 -4.990794748693107685e+00 3.657461240309478967e+01
2.103228428867955913e+01 -9.704857873563502935e+00 3.592589037276945163e+01
2.059798683519748863e+01 -1.055599786604527246e+01 3.646492580603568001e+01
2.140635370386383585e+01 -8.595150225450755244e+00 3.555309493820706024e+01
2.219992616324250179e+01 -6.588421941389577263e+00 3.590045984134525980e+01
2.013897281140183537e+01 -1.113629800338479647e+01 3.716324899451930719e+01
1.969093527972812296e+01 -5.136738929013314525e+00 4.633432260820111992e+01
1.857222687898319080e+01 -6.112326345599849553e+00 4.675602829717006159e+01
1.896741090347223135e+01 -5.364172770982737148e+00 4.663712028118036557e+01
1.728014322866151176e+01 -1.099080002095634256e+01 4.404053017345551524e+01
1.729985334181739276e+01 -9.454046944231313532e+00 4.583588023601006967e+01
1.773317410894644652e+01 -7.373058797618980975e+00 4.688789220754767939e+01
1.817705050810054601e+01 -6.860724734264138647e+00 4.687488238483414449e+01
1.958789995963748254e+01 -1.163670886206742949e+01 3.806208012183056155e+01
1.764904451414713549e+01 -1.223014889124354632e+01 4.056927947314741800e+01
1.839004696466161803e+01 -1.202888400742375019e+01 3.974342471269634558e+01
2.183926522026228767e+01 -7.325994595604939263e+00 3.554516690783591315e+01
2.153607551584071089e+01 -8.038301822397411200e+00 3.538685614252518263e+01
2.119391657541737573e+01 -9.137844053710256986e+00 3.554734418738168245e+01
2.038388310411328064e+01 -4.444948974512147544e+00 4.592897358720422574e+01
1.936279897097782055e+01 -4.615896425164239147e+00 4.651829485466984693e+01
1.756507391195849621e+01 -1.171987509091511193e+01 4.282209204438630934e+01
1.706224283221199300e+01 -1.045154027452320022e+01 4.481679716865209429e+01
1.767929528098164838e+01 -1.215952145643368532e+01 4.138952588103933294e+01
1.712727392222748435e+01 -9.064916847830204460e+00 4.635336491001540082e+01
1.728932837606171091e+01 -7.886111063245998309e+00 4.690082377153068904e+01
1.789869305008456379e+01 -6.283273023195073748e+00 4.704952342405348986e+01
1.715627206415670258e+01 -8.635212559149637812e+00 4.680298067606565837e+01
1.684394342251221488e+01 -9.911300000000000665e+00 4.559539274743136161e+01
1.887747094041161589e+01 -1.186754479254708272e+01 3.871574138343297733e+01
2.037074506586178302e+01 -1.076237910048671687e+01 3.662229234372949094e+01
1.872128559405561532e+01 -1.191701759835536478e+01 3.926089689721330700e+01
1.985865739726309087e+01 -1.144676909168541457e+01 3.771176849181743762e+01
2.249428139232710677e+01 -5.067835943575296653e+00 3.599840082987673640e+01
2.219681869608874081e+01 -5.866160242634911093e+00 3.566109270599503844e+01
2.072705403086537146e+01 -1.016357894832995079e+01 3.604794727973514767e+01
