-6.349772611912194442e+00 1.396885843695921636e+01 4.187382497466302311e+01
-1.307238617862348384e+01 1.535565459742365491e+01 3.956116998169620302e+01
-1.121414424780168240e+01 1.571619867332180931e+01 4.031195330024180379e+01
-8.464057014603884710e+00 1.555196032987840660e+01 4.099581002384066863e+01
-7.258880115666478616e+00 1.514802214285903048e+01 4.132931083967896058e+01
-5.842233696774210117e+00 1.339218785439282478e+01 4.220773773361990777e+01
-1.267812903021442672e+01 1.572879401520659215e+01 3.980862376163189964e+01
-1.183990897118045105e+01 1.598323292847436150e+01 4.003382806883412570e+01
-1.038041316536124370e+01 1.588068748708797173e+01 4.063078642085030623e+01
-9.814769329213367755e+00 1.666052069979354044e+01 4.051960097188149490e+01
-6.804507770884247186e+00 1.455867582527196014e+01 4.160146048128161311e+01
-7.713253124999999599e+00 1.573736962890625080e+01 4.105715796306373022e+01
-4.969033124356633024e+00 1.139852111870467155e+01 4.318226260400515315e+01
-4.827857533388304034e+00 1.223964308739577156e+01 4.287500323131893509e+01
-5.335197394490857725e+00 1.281608888040991268e+01 4.254128539900752770e+01
-9.114631751774796342e+00 1.635296525335681395e+01 4.069903525222591156e+01
-6.886882862264495309e+00 1.555736548810334696e+01 4.123062645488477074e+01
-5.602345835726991297e+00 1.389098912032266497e+01 4.203831260105445722e+01
-6.205126007512125952e+00 1.467310779565234746e+01 4.163900990662336454e+01
-5.656656333570685646e+00 1.418612616963808470e+01 4.188661138950929796e+01
-1.246580054711099450e+01 1.625032219737269301e+01 3.975467875447211696e+01
-1.079799472038817143e+01 1.657844924037877732e+01 4.039509218620320041e+01
-1.309178712999880290e+01 1.651745212617141334e+01 3.948557225455007824e+01
-1.184054775251260416e+01 1.702307648713951593e+01 3.993493380416185801e+01
-8.414465793708551189e+00 1.604539733991804340e+01 4.087811504713478428e+01
-4.855726896569616535e+00 1.381320652228432344e+01 4.220233212178720805e+01
-1.246584734741983347e+01 1.677039526224748656e+01 3.970776673753022834e+01
-1.051500479579119940e+01 1.696811914683313915e+01 4.033970628387484680e+01
-1.357265092607427448e+01 1.603235426432226163e+01 3.918590306344285779e+01
-1.121529330969247518e+01 1.727574163549668995e+01 4.015926757104951861e+01
-8.351898980807597184e+00 1.661266453560616441e+01 4.079808153970064666e+01
-6.851643577613039326e+00 1.591475007483319537e+01 4.110558791651243382e+01
-6.060477868310495175e+00 1.537735511138303757e+01 4.140381096674830985e+01
-5.233340494366782281e+00 1.519718467103497161e+01 4.157691233873246262e+01
-4.964074323499974462e+00 1.440322567380936114e+01 4.189889114856339347e+01
-9.732363845267716584e+00 1.741726529619576169e+01 4.041434974636771926e+01
-1.248031378607445063e+01 1.796451294806621846e+01 3.966851117210176625e+01
-8.990613671874999824e+00 1.748805576171875131e+01 4.053816526723373670e+01
-1.047363042006747946e+01 1.734652337626032548e+01 4.028854533158556706e+01
-1.285951057322701452e+01 1.746317312405929201e+01 3.954076795402539091e+01
-7.445795275987366679e+00 1.700103092953302308e+01 4.080276300428307934e+01
-5.989958189451136228e+00 1.609214613417867668e+01 4.115295547878521631e+01
-4.271961310157763592e+00 1.462017566983660721e+01 4.191077774891029151e+01
-4.406513574218056561e+00 1.501708230518614329e+01 4.174975342097214792e+01
-1.184758509251739333e+01 1.762000781949841510e+01 3.991427739264410235e+01
-1.352065985161316064e+01 1.734409175979360995e+01 3.929402463732036210e+01
-8.218285726563619775e+00 1.724456797803300745e+01 4.067047577387149460e+01
-6.673998957951035926e+00 1.675771173209608378e+01 4.093488565379080768e+01
-9.634621263206636144e+00 1.784070498168918206e+01 4.036693809779674780e+01
-5.126625078962785409e+00 1.626988105891490477e+01 4.119965612387023413e+01
-4.610899862352553669e+00 1.579208430981982403e+01 4.144068526755947346e+01
-1.187806495976345467e+01 1.859245720195973917e+01 3.984227963116935456e+01
-1.311333973120104091e+01 1.830917680199678799e+01 3.942191258625284433e+01
-1.027935669161408327e+01 1.819374975111462689e+01 4.019545251790330553e+01
-9.508424288261053903e+00 1.836476984289213021e+01 4.038575833522087777e+01
-1.154649223497608723e+01 1.793373173187897152e+01 4.000178661099182165e+01
-1.092274353091744032e+01 1.854605755678151269e+01 4.002425742509605300e+01
-8.145500464123044182e+00 1.758026971185715226e+01 4.063412479062029803e+01
-8.597953195885954969e+00 1.865137231409659790e+01 4.046863728955369766e+01
-7.299837786491282898e+00 1.767254361702600107e+01 4.072943081384968878e+01
-5.900829507948132324e+00 1.651396011538124853e+01 4.106720139806567005e+01
-3.580065844856773705e+00 1.483706113676135097e+01 4.192235314611654928e+01
-4.095422612838049758e+00 1.531451763743458372e+01 4.168156443572175363e+01
-7.883591776818344776e+00 1.835608061458469820e+01 4.058710679172808966e+01
-6.453430859374999606e+00 1.776489873046875090e+01 4.082428190406864132e+01
-5.790504262480273390e+00 1.701792654107909897e+01 4.101206183674566574e+01
-1.220931992187500015e+01 1.925056513671875180e+01 3.968170077024867481e+01
-1.293237340883762698e+01 1.916645979046180059e+01 3.943661425802856257e+01
-1.394984358871157326e+01 1.817132939963342864e+01 3.910941560589856181e+01
-1.156608357192406444e+01 1.889833718288555531e+01 3.985300346727094478e+01
-9.312083008021717845e+00 1.894656961885837987e+01 4.035020536195291641e+01
-4.362294187365047371e+00 1.648403249440946539e+01 4.124264809839652912e+01
-3.846855943036012526e+00 1.600630613738070096e+01 4.148368061206738133e+01
-1.002646015624999976e+01 1.924186916406249992e+01 4.023173158066966693e+01
-1.374602926838065109e+01 1.865365819082634857e+01 3.917459033909231891e+01
-1.075454983529752440e+01 1.924476966182345450e+01 4.004981514368266460e+01
-9.196891872740584617e+00 1.929758017656422098e+01 4.036536884782861279e+01
-7.168272654658648158e+00 1.806039219551611552e+01 4.070573431568922018e+01
-3.076398875204427341e+00 1.560026392852418375e+01 4.173895919764428442e+01
-1.365599692367410611e+01 1.908228813874810115e+01 3.918633166736528040e+01
-1.148204347476277931e+01 1.924766840325650818e+01 3.986668959092418874e+01
-8.367320261392123371e+00 1.935329141255241225e+01 4.049889116763397112e+01
-5.737800588696033266e+00 1.790460955361491813e+01 4.089153109630224492e+01
-4.614502117496757094e+00 1.695461377542534720e+01 4.116460306003126135e+01
-2.794485160916670541e+00 1.512911742219790412e+01 4.193602844733032953e+01
-1.269283017160039506e+01 1.975785232709196393e+01 3.931654731238251088e+01
-1.332707218563101925e+01 1.966516114633398971e+01 3.910856248083279496e+01
-1.058092834081873157e+01 1.958764442642108250e+01 4.000765247741167485e+01
-7.538347481886529700e+00 1.940896092321385424e+01 4.063222106224735342e+01
-6.996085315009044514e+00 1.858722860509161379e+01 4.072837675733027396e+01
-5.965190308415285969e+00 1.839153967594005579e+01 4.088162099333062827e+01
-3.598287724414477751e+00 1.669809480712170568e+01 4.128548407736840176e+01
-1.168930489564765018e+01 2.027884129077675013e+01 3.955964064155709536e+01
-1.250369609387469971e+01 2.011066481617385548e+01 3.939766327795184964e+01
-8.787436886913948086e+00 2.001396570585811929e+01 4.032169556859818726e+01
-9.411581135082634830e+00 2.031626893100201414e+01 4.016653247495356283e+01
-8.162611107437871993e+00 1.971132730623335050e+01 4.047702822633660702e+01
-5.022452976582543194e+00 1.804426417486933687e+01 4.095873282812876681e+01
-4.102743607415739291e+00 1.763885591201819381e+01 4.112910037949161790e+01
-2.572679843564449342e+00 1.636354425928510992e+01 4.155507371440169351e+01
-1.113493808586898304e+01 1.993313250745547194e+01 3.978373198028126723e+01
-1.373823910067069853e+01 2.001171561288508371e+01 3.882823265628609022e+01
-1.437883867187500009e+01 1.899820742187499789e+01 3.892619066018589535e+01
-1.317639329846030805e+01 2.026518907920362977e+01 3.895135406940757861e+01
-1.034411138179407352e+01 2.008167597115877001e+01 4.004389159084897898e+01
-7.940474316431008539e+00 2.021221574596873793e+01 4.052423657866718543e+01
-6.228459008249711104e+00 1.899141171008302109e+01 4.083069305661631887e+01
-2.008648912934611896e+00 1.542126875459638491e+01 4.194947605174618133e+01
-1.430008776481258614e+01 1.975824229412487298e+01 3.870030086159945171e+01
-6.689142122988603667e+00 1.948726862363482581e+01 4.075333285478366463e+01
-5.477435701284411707e+00 1.901755692823439858e+01 4.093873381866151107e+01
-2.833644535055134472e+00 1.691233434838017402e+01 4.132824302594138288e+01
-1.137450001626680951e+01 2.093797580394384639e+01 3.960778837435466215e+01
-1.224361235592225228e+01 2.062451578363918259e+01 3.933554596914337509e+01
-1.279785624896781471e+01 2.097014989932791096e+01 3.911145032139612709e+01
-1.003667710046657469e+01 2.061903788267197868e+01 4.001113213857339446e+01
-9.116062909881227583e+00 2.098533125427898582e+01 4.021916200801643981e+01
-7.091665498354747577e+00 1.994041599146803634e+01 4.070305999034999900e+01
-8.341880278564950402e+00 2.101705201416040225e+01 4.039309427022784149e+01
-4.306285774901300378e+00 1.818408105120658291e+01 4.102599276609354462e+01
-2.829030225291235379e+00 1.772457911540837472e+01 4.123223790554897050e+01
-2.223490833502571817e+00 1.468401421168953469e+01 4.224755852491307451e+01
-1.253490936998935101e+00 1.656579179189345297e+01 4.167340698973173829e+01
-1.066190234375000045e+01 2.092186796875000354e+01 3.985569975125891062e+01
-1.422131298153044199e+01 2.051851600765382244e+01 3.846349323001162901e+01
-1.365944468116515864e+01 2.077199188259931617e+01 3.858654651223638865e+01
-7.270610061863195916e+00 2.051677720306748753e+01 4.063728043121272293e+01
-7.623884213470827120e+00 2.101245247791364434e+01 4.053278932352935016e+01
-4.290196915641238284e+00 1.898421396229943880e+01 4.104450986170640192e+01
-5.839539472444304380e+00 1.956561147397697198e+01 4.087450129852416580e+01
-3.590436808777941025e+00 1.832383406420032301e+01 4.109320665550472285e+01
-2.069155462662828349e+00 1.712653078165122977e+01 4.137089915287877773e+01
-1.208618070875857775e+01 2.095406291136422894e+01 3.935983607917272309e+01
-1.324594041277999601e+01 2.107301168527881785e+01 3.881596051389793445e+01
-1.473362765015898646e+01 1.998084138388258424e+01 3.806662427804114657e+01
-9.889442722756587756e+00 2.095358072261863924e+01 4.004238742107927607e+01
-6.645161487571908943e+00 2.047165822189051099e+01 4.076209928019290629e+01
-1.629435855183605231e+00 1.496778494836554785e+01 4.222884853019217388e+01
-1.223236240330263458e+00 1.571326261384280798e+01 4.196273091753549522e+01
-1.056060280150920683e+01 2.175336350558518461e+01 3.973155409089675771e+01
-1.162625614520302619e+01 2.177761636932957856e+01 3.935899205952777180e+01
-1.221620001896644325e+01 2.137379205501353141e+01 3.924154773829575760e+01
-9.409891785604791892e+00 2.144923066078185059e+01 4.008084123317762248e+01
-8.615802543927237878e+00 2.177537312296248118e+01 4.021479591042643875e+01
-6.905420512109405884e+00 2.100784893001612730e+01 4.067266738024555650e+01
-7.791103302424237320e+00 2.174279556379590872e+01 4.041791666340057532e+01
-4.989341768175910907e+00 1.964400973552038465e+01 4.099575459828583490e+01
-2.824393339661046110e+00 1.846472566328624509e+01 4.114441291294978242e+01
-1.391157811201768402e+00 1.433651727451173485e+01 4.256336862063827198e+01
-1.242238531426873127e+00 1.732891556314680770e+01 4.140487170551634932e+01
-1.102775037934902436e+01 2.218120851736179944e+01 3.947970524952521032e+01
-1.248111364816347724e+01 2.154674941214737061e+01 3.909419002173277136e+01
-1.413716043540895662e+01 2.127883256569138126e+01 3.821358478915729506e+01
-1.369421164932049884e+01 2.117591641269205383e+01 3.851905422080468355e+01
-1.213711919774927850e+01 2.212411562475691795e+01 3.907078886537365747e+01
-1.008740071457505572e+01 2.145926866051813775e+01 3.992317023278359045e+01
-5.593534999314512923e+00 2.032327449463629065e+01 4.091018297489533495e+01
-7.174522389343614748e+00 2.145830994134377079e+01 4.056911490514516316e+01
-3.165713710879643372e+00 1.885259433527056672e+01 4.114668180179903345e+01
-4.380188431140228378e-01 1.600518502076213068e+01 4.197583156149141814e+01
-1.296531314234995236e+01 2.199036871127150050e+01 3.863195204241274894e+01
-1.458628375635355923e+01 2.086300640063197065e+01 3.785227041838436435e+01
-1.355109394862797956e+01 2.163441654473236397e+01 3.842176685658910174e+01
-6.188116516610956630e+00 2.100325234375000250e+01 4.081240432846288968e+01
-6.539060682382903167e+00 2.149127756502567621e+01 4.068920969749167682e+01
-4.098446320821262923e+00 1.973286121496167667e+01 4.108165255748481570e+01
-1.556036636192066558e+00 1.771324493838612213e+01 4.134664215046713309e+01
-2.059535297315047586e+00 1.860539816763897747e+01 4.119552409510345825e+01
-9.145028391694324243e-01 1.517099846503188765e+01 4.226968100937099138e+01
-1.043069149506476911e+01 2.258486870480608033e+01 3.960240517412980665e+01
-1.111310179864021563e+01 2.264353040595172928e+01 3.932794320064145666e+01
-1.503560843497367827e+01 2.044700208180533352e+01 3.748233014666116958e+01
-1.238036454782647589e+01 2.234629091761169306e+01 3.884272315018823463e+01
-9.490362284868290033e+00 2.199728073237182002e+01 3.997899471443038522e+01
-8.068370209460974607e+00 2.250120856708078776e+01 4.024469108450508514e+01
-6.891865552027402586e+00 2.197983619483987638e+01 4.056812201316582644e+01
-5.878138029740648918e+00 2.170928380418243364e+01 4.076327148465806971e+01
-6.408668715175418029e+00 2.244176468330097762e+01 4.058450707356309550e+01
-4.485179382547450189e+00 2.034047903262511525e+01 4.104370473539871966e+01
-2.740705979239066892e+00 1.938170711238908694e+01 4.120013672074875188e+01
-4.140297544676153074e-01 1.753161780517301693e+01 4.143883515186733746e+01
-1.452442915623723252e+01 2.120729845963342797e+01 3.762200502206987807e+01
-1.363465857400364278e+01 2.184670890206891869e+01 3.826063333883671902e+01
-1.179608240201918257e+01 2.270223408203125359e+01 3.905371035227941690e+01
-9.661924292350972721e+00 2.255974224992193911e+01 3.982139637428515755e+01
-8.892801837179771240e+00 2.253460078124999910e+01 4.004040484825937796e+01
-5.442237830324419434e+00 2.101481444076909710e+01 4.090272598185595143e+01
-7.245239139617607904e+00 2.246786017968749860e+01 4.044890472136126647e+01
-4.696376739842710535e+00 2.102638128392587547e+01 4.099339777684231478e+01
-3.206996971921846296e+00 1.982176565236504118e+01 4.116253377675303682e+01
1.288055890899116041e-01 1.566057072187707533e+01 4.224489484885155832e+01
-1.042869805078017853e+00 1.830001229526268247e+01 4.132223678460989191e+01
1.223876290072467565e-01 1.664922326629039873e+01 4.181958024436453059e+01
-1.424767835113063441e+01 2.167437044157471604e+01 3.768144444831893480e+01
-1.313499707558002427e+01 2.241486907230977010e+01 3.831407004693500085e+01
-1.221672480860941690e+01 2.284280812803790184e+01 3.871085675542331472e+01
-5.572001906140103600e+00 2.241566272714157293e+01 4.072027623686863507e+01
-4.490979180895616096e+00 2.149710871998994222e+01 4.096162961083662424e+01
-3.406935208619037425e+00 2.066213133782159517e+01 4.113440875115113471e+01
-1.294189334736108865e+00 1.874616042594763243e+01 4.124665362377839273e+01
4.137670993295941013e-01 1.625535315199923758e+01 4.198538988991489163e+01
-1.491214143911839862e+01 2.113576190124316412e+01 3.703059624851747600e+01
-1.363091486770850480e+01 2.217499771247825890e+01 3.794413119773306420e+01
-1.263730124858292925e+01 2.298324208328443419e+01 3.836954188842059210e+01
-1.121422615910874931e+01 2.316807129449599856e+01 3.910650604061567037e+01
-1.024084128509758607e+01 2.334195639154975765e+01 3.940567089410539126e+01
-9.797838465921074658e+00 2.329699172908411242e+01 3.963966216923481767e+01
-7.552678439509229236e+00 2.295272692873995979e+01 4.031546508129063966e+01
-8.530023532417562393e+00 2.322865321749295831e+01 4.004414811443425037e+01
-5.031122151118399444e+00 2.195627215055050385e+01 4.084040634945285575e+01
-6.082478996160680218e+00 2.289834693983907599e+01 4.057641188859339820e+01
-7.174510556726490407e+00 2.316575901339341570e+01 4.036855051093895241e+01
-3.951512931071619494e+00 2.103793713281249822e+01 4.108425763441241685e+01
-1.720455582550563189e+00 1.956934360397594475e+01 4.126246359594796331e+01
4.154337579401894409e-01 1.773462680123337520e+01 4.147279660307692950e+01
-1.321223205354287877e+01 2.267881336829113081e+01 3.796576882998264324e+01
-1.147570276522644406e+01 2.320747397809886081e+01 3.891617933914375271e+01
-1.203746275930996923e+01 2.339429075572546424e+01 3.846154148786195037e+01
-7.860710963422881115e+00 2.343774991883836023e+01 4.018333699093285816e+01
-2.315841784333668496e+00 1.991064337247657789e+01 4.123849540183608298e+01
-2.863301060217001481e+00 2.028643551405765777e+01 4.118572361888309530e+01
-5.297191133986518530e-01 1.888676325658964927e+01 4.129771167947619404e+01
6.826655404060798515e-01 1.729311575119134758e+01 4.166320081400468212e+01
-1.436224638714599955e+01 2.207003280367190357e+01 3.715784268639404075e+01
-9.029410356875272825e+00 2.327215326265040929e+01 3.985848833224107324e+01
-1.378722520130454221e+01 2.237440472262069591e+01 3.756187169757568256e+01
-1.219350975747201993e+01 2.345369053034120554e+01 3.824567956560001392e+01
-1.063368906775942868e+01 2.363367949871452822e+01 3.915998141128421395e+01
-6.593876570556817640e+00 2.338165625923890545e+01 4.043329672324821189e+01
-5.879981065152175113e+00 2.312073282840561461e+01 4.057823958916154794e+01
-4.820043713209448022e+00 2.240122650982802810e+01 4.079352547458132960e+01
-4.008896556721207816e+00 2.171232382308408759e+01 4.097346177480756069e+01
-3.265858268705642775e+00 2.104165120046271653e+01 4.112615034798930225e+01
-1.124517060028164872e+00 1.922772723744805745e+01 4.128300234738374996e+01
6.098575794589457255e-02 1.857036944596856287e+01 4.136732922650703870e+01
-1.480463140749795947e+01 2.171063398150073454e+01 3.671913766800721390e+01
-1.387387603222374644e+01 2.253229294709489494e+01 3.724719128108851862e+01
-1.530050307573104362e+01 2.106417003261039866e+01 3.643891811190093222e+01
-1.276718101429453434e+01 2.322057625014898008e+01 3.789763687585194418e+01
-1.338521910949908822e+01 2.299530504024604483e+01 3.733662985638152776e+01
-1.115685098560368793e+01 2.371212427810879220e+01 3.878012773449754036e+01
-9.610737433460130319e+00 2.405439151834525902e+01 3.944750745735181141e+01
-8.169235628584711861e+00 2.392298757421874811e+01 4.005226068653193749e+01
-5.481703348715695867e+00 2.334599869534332583e+01 4.058068102818879908e+01
-7.104924686941733292e+00 2.386444845568571438e+01 4.029112696149882566e+01
-7.637512731565524682e+00 2.389374183715890609e+01 4.017159377477974402e+01
-1.474467392385719444e+00 1.994150972654383480e+01 4.126553329042248208e+01
1.243108901675521238e+00 1.793719863369546985e+01 4.150663828881994988e+01
6.517868643742196211e-01 1.825392316334879794e+01 4.143695482468646674e+01
1.264577392375020093e+00 1.650523632058481383e+01 4.199484778827401499e+01
-1.458896082084568135e+01 2.202020190727016669e+01 3.661074399783773714e+01
-1.524678458754020483e+01 2.135166368238758494e+01 3.628199827577077485e+01
-1.143799200161858032e+01 2.380537555063676081e+01 3.855339800070404266e+01
-1.005355295979640395e+01 2.409962119140624992e+01 3.921395286590438900e+01
-9.167771682168176284e+00 2.400914612843646267e+01 3.968116380631896334e+01
-8.668436193846558169e+00 2.396606140233649640e+01 3.986673897679747824e+01
-4.775001735734160313e+00 2.286640952375456948e+01 4.072348114297344068e+01
-4.068380031082078574e+00 2.238679508577302357e+01 4.086688258118271477e+01
-3.343817235785413011e+00 2.194112250937051556e+01 4.098070495662532409e+01
-2.105050664141062899e+00 2.047985733837393951e+01 4.122157194261163937e+01
-2.580134884408529228e+00 2.104536655344973539e+01 4.116833160369122879e+01
-1.679653836520274002e-01 1.944469881549829537e+01 4.131386380256168422e+01
2.020825599829065011e-01 1.893492995598220929e+01 4.131255570509897979e+01
1.353195571147969734e+00 1.722245286131850861e+01 4.176135517023129040e+01
-1.425338311707373506e+01 2.238138496947737721e+01 3.677537133498132960e+01
-1.481554304197234018e+01 2.197039921565541931e+01 3.606398775059994932e+01
-1.376508365799985256e+01 2.284374160968195611e+01 3.686511618986072136e+01
-1.175032226469041419e+01 2.392410772154436316e+01 3.812186291105432190e+01
-1.044666540714047009e+01 2.415799253669429092e+01 3.892924747385498563e+01
-6.188549551458428333e+00 2.382562414453125044e+01 4.043839143306671247e+01
-4.620729881549849871e+00 2.276170611360071661e+01 4.075473332352041922e+01
-7.662624207087366024e+00 2.437981205762212866e+01 4.014045983019054376e+01
-2.619261120718652691e+00 2.149534386670414321e+01 4.109526785814796312e+01
-6.283518409252906167e-01 1.997240420663167981e+01 4.129327393944174673e+01
-1.447801298882711762e+01 2.228567467825526904e+01 3.633731434247719960e+01
-1.568948495566228196e+01 2.099251906047397043e+01 3.584691640575256599e+01
-1.289738153694525558e+01 2.345796413952567150e+01 3.742592275776355848e+01
-1.083917557510467944e+01 2.421627392027377468e+01 3.864508499292147548e+01
-1.210231221040225513e+01 2.392624002545008111e+01 3.771212476723343343e+01
-8.477712395534641843e+00 2.443891289855523752e+01 3.991154412798889695e+01
-5.561799770360724260e+00 2.380916804426676947e+01 4.050376292235993247e+01
-6.926383963863841586e+00 2.433598557280855701e+01 4.028366822098937661e+01
-4.566066795651556376e+00 2.286093812558752703e+01 4.074517129327626463e+01
-1.190522405260280081e+00 2.070051250182150682e+01 4.124694033799411841e+01
9.338837508122497244e-01 1.898309591584067491e+01 4.132547050203092454e+01
1.817215698205979946e+00 1.762622336538320411e+01 4.167566169797773057e+01
-1.547846381123614101e+01 2.143173530242893676e+01 3.540738265125201423e+01
-1.327721702560812211e+01 2.330627890911059552e+01 3.695447935900796921e+01
-9.949559297716186634e+00 2.460843112035416169e+01 3.909343062831123916e+01
-9.256112979796121465e+00 2.451944458028964391e+01 3.955987554883085977e+01
-9.699087745698129481e+00 2.456424987663645254e+01 3.932650824668705525e+01
-5.063875619801552652e+00 2.333505262225436638e+01 4.062416638692169357e+01
-7.384709497501467546e+00 2.435544307818870635e+01 4.020996087775382932e+01
-3.467347802835253567e+00 2.238174811641434303e+01 4.088563805153791719e+01
-3.540456681774427405e+00 2.273504395017789292e+01 4.080397447699294133e+01
-4.214459886933594746e+00 2.309321584710929542e+01 4.070368354397304955e+01
-2.380106361301214335e+00 2.171338137610182883e+01 4.105615683992956377e+01
-1.894166827557596244e+00 2.104908544921875091e+01 4.121078148962523358e+01
2.161736992264164381e-01 2.000326728515624808e+01 4.132155128074016659e+01
-4.871944043443693362e-01 2.035197935561042826e+01 4.128382018105008200e+01
2.042584351814847210e+00 1.801014649216612895e+01 4.150533725910648286e+01
-1.414498674220987695e+01 2.269217948895733272e+01 3.639358499268950453e+01
-1.504206838103903721e+01 2.192061169015311961e+01 3.551738484698773846e+01
-1.463123712693418454e+01 2.229802443918796939e+01 3.586437303651371877e+01
-1.365699199441468181e+01 2.315463302000818047e+01 3.648314568545783487e+01
-1.240095091633047097e+01 2.385182352564599384e+01 3.734989718259294023e+01
-8.786759256161325027e+00 2.495536270247477262e+01 3.977170151174607327e+01
-8.219679115126888647e+00 2.489445921464028899e+01 3.999071975035637649e+01
-6.080286479485256024e+00 2.414440304710419127e+01 4.040649185761588313e+01
-4.888125237013171365e+00 2.345119556134054406e+01 4.060363478141577787e+01
-6.653151773028639582e+00 2.432048751741589143e+01 4.032510653338471940e+01
-7.664748887315261605e+00 2.484667141015625091e+01 4.012929653000739449e+01
-3.435987945718856906e+00 2.267952731397844701e+01 4.081953741893475041e+01
-3.974294708090320150e+00 2.309538094124475904e+01 4.069060931087248179e+01
-2.866160014543723822e+00 2.237670224609375325e+01 4.090451682768019737e+01
9.472750545536821054e-01 1.969506949860492995e+01 4.132715402500942048e+01
-1.308768769819441680e+00 2.102899911035890668e+01 4.120862256396648604e+01
-7.239004285220520529e-01 2.100892622453878289e+01 4.120665051650064470e+01
1.820886772449281210e+00 1.850800876291223318e+01 4.143194199665914823e+01
-1.034237838385347885e+01 2.466658455406605555e+01 3.880935898028445763e+01
-1.526850235715025228e+01 2.187084572188913256e+01 3.497101879582423578e+01
-1.277102313104606779e+01 2.377997268280423171e+01 3.690155800571628930e+01
-1.130770575408130441e+01 2.439443652016597497e+01 3.799807714466699338e+01
-6.061407127040494558e+00 2.430711187695312603e+01 4.037322559524789511e+01
-5.081632077205562759e+00 2.381345671660045582e+01 4.047783827675986146e+01
-5.821330788358888064e+00 2.430925647775893594e+01 4.036029568881555463e+01
-7.117456381200011784e+00 2.481497380831211785e+01 4.021221257509295555e+01
-4.527975403925426079e+00 2.345443523717731438e+01 4.058410961250474713e+01
-3.420311608169416928e+00 2.273610929084379961e+01 4.079741224730652505e+01
-1.503051119217917231e+00 2.168295845723352855e+01 4.105411150848981094e+01
-8.209818797252579348e-01 2.133579541478964714e+01 4.112936066431003468e+01
3.913979679539325574e-02 2.049620971002004666e+01 4.126126533225905035e+01
1.666492230260621987e+00 1.903131438004680476e+01 4.133255573011568629e+01
-1.053363342719520901e+01 2.471544165820874994e+01 3.851174248357002483e+01
-1.485782407663153748e+01 2.224817867213718259e+01 3.531777828534175256e+01
-1.557141317867750985e+01 2.138357778181302749e+01 3.451328291389930314e+01
-1.574470736790022762e+01 2.104209434208891949e+01 3.471869951479479965e+01
-1.444716615046972841e+01 2.262565015201693797e+01 3.566480312626112692e+01
-1.334073452117698366e+01 2.355224028468274255e+01 3.619486797567636671e+01
-1.403682269381764947e+01 2.300297992709608508e+01 3.601177543695182237e+01
-1.135802162700244189e+01 2.451703011455367331e+01 3.759801575251876216e+01
-1.190480943778891820e+01 2.424562722611045729e+01 3.727374174103314886e+01
-9.344762585074608552e+00 2.502929885944037380e+01 3.943979101743902760e+01
-9.846111903589424230e+00 2.511678063947397987e+01 3.897373679157726656e+01
-6.598873171583187869e+00 2.447969375228164068e+01 4.030930485985058453e+01
-4.529963017834574224e+00 2.382822734374999740e+01 4.037025331658126959e+01
-5.014520603308913138e+00 2.416051738880803867e+01 4.031276043935235975e+01
-2.184983942772040333e+00 2.203003112052101642e+01 4.097914860718178431e+01
-3.141518146403340150e+00 2.295389949385236150e+01 4.068253077318675537e+01
-3.788368322059380233e+00 2.324048651127843712e+01 4.061421175025724750e+01
-4.434998633021736580e+00 2.352697266935411946e+01 4.054598988959165951e+01
-1.277108907536999904e+00 2.191625543471493387e+01 4.094724631061704656e+01
9.335995530664554787e-01 1.993797634113084172e+01 4.129423376829031866e+01
2.406823544669215220e+00 1.907955384552600364e+01 4.134011455828319725e+01
4.872082837514587483e-01 2.069357099845441894e+01 4.121339476431305826e+01
-1.394142206669737039e-01 2.098886408593750019e+01 4.120485004076314794e+01
-1.490974267346613935e+01 2.224121910503961530e+01 3.458703457140134674e+01
-1.457426966501372867e+01 2.253395122812707640e+01 3.513413937477958626e+01
-1.532141513438185321e+01 2.165910002734172579e+01 3.429663266495297336e+01
-1.587502768234910633e+01 2.089526029870150836e+01 3.405475104438578171e+01
-1.420783749627102033e+01 2.287295485706720655e+01 3.540941403492160333e+01
-1.076819235767714744e+01 2.480441895830710308e+01 3.818820571429894528e+01
-5.532632920530930143e+00 2.431927826584692554e+01 4.033780082830451619e+01
-2.356289781757684665e+00 2.237834850992526015e+01 4.086201440862091516e+01
-3.188851312386081105e+00 2.310454523634929203e+01 4.059450788896531037e+01
-2.494007655130735746e+00 2.266701624743945942e+01 4.075099731391106417e+01
-2.517884244151940898e+00 2.274247070457905551e+01 4.070690700752975744e+01
-7.082573669445059172e-01 2.145261846051065646e+01 4.107561132720656616e+01
-1.846195569207605303e+00 2.237999646093750172e+01 4.081957730111093952e+01
1.677494475637558047e+00 1.938717127337153912e+01 4.133332081222483367e+01
1.650500335611067237e+00 1.987270043437766986e+01 4.126730263462012260e+01
1.113799488759833700e+00 2.039827828517509900e+01 4.122220084283419794e+01
-1.022831437227092088e+01 2.521485993749999821e+01 3.837848784850591954e+01
-1.559924549895341883e+01 2.122110083916167866e+01 3.391887262008921766e+01
-1.372817836248825785e+01 2.338498233963848350e+01 3.552254886671388334e+01
-1.202639342900032737e+01 2.437077674584239873e+01 3.678773976944982849e+01
-1.264491755735542355e+01 2.410158693572907040e+01 3.637775347712157270e+01
-1.140841967308038107e+01 2.463979094140624682e+01 3.719739855323967248e+01
-1.087131265480893560e+01 2.485601801725161053e+01 3.784369418065719515e+01
-3.859400233089629317e+00 2.346638657126392857e+01 4.048231704025455713e+01
-6.561044821981757202e+00 2.480505683114851223e+01 4.024280262282807996e+01
-5.983644829055620562e+00 2.482509787449383509e+01 4.019776293611515428e+01
-5.499080896094262982e+00 2.449280732430614194e+01 4.025526382703966988e+01
-4.962654137826195466e+00 2.435555863541594945e+01 4.020479470602423788e+01
-2.684450290246824800e+00 2.311166077254524254e+01 4.047567689554785630e+01
-1.193976401269879917e+00 2.208123007986394271e+01 4.086656647839038214e+01
-5.421164290337998626e-01 2.178262479149438136e+01 4.091363074801184752e+01
8.960924488862656023e-01 2.092078656532775582e+01 4.110515275084213727e+01
3.782896577625862178e-01 2.095483028202154685e+01 4.115495156930391119e+01
1.099455615047073009e-01 2.148392158849450340e+01 4.096081761980009617e+01
-1.437912483803918029e+01 2.274272246437176292e+01 3.480610580825811695e+01
-1.404512635620569583e+01 2.308719563540996589e+01 3.501364015637798133e+01
-1.092139927088747875e+01 2.497906327686764172e+01 3.744313219107228718e+01
-3.914788740177888027e+00 2.358937188349154468e+01 4.040536344018970993e+01
-4.050943835762331524e+00 2.377843482564054511e+01 4.034929743040160588e+01
-4.179732427924673921e+00 2.411339115761306573e+01 4.023200487140690740e+01
-3.299618159103248516e+00 2.335051636884588788e+01 4.044050428462314528e+01
-3.571925080888359361e+00 2.372864239333500791e+01 4.032834073434528932e+01
2.367501483536651463e+00 1.980738867986705287e+01 4.124069770767516019e+01
1.740300054031537202e+00 2.010300923926530814e+01 4.123128982777985385e+01
1.890435642078764467e+00 2.034740749048170372e+01 4.114681983411909272e+01
-1.129241916119550559e+01 2.479989583339355264e+01 3.676466275938294359e+01
-1.191056526009877992e+01 2.453076371926973209e+01 3.635506813829781692e+01
-1.510722120152864711e+01 2.185736690507840052e+01 3.396085017178439358e+01
-1.537435507119413991e+01 2.144734844786815842e+01 3.362222662082476177e+01
-1.580251507354853580e+01 2.082168224390715849e+01 3.327182609217008746e+01
-1.303221575677641120e+01 2.393443704068733879e+01 3.570506973244626181e+01
-1.091810491599267330e+01 2.503057859891033843e+01 3.707991530451626261e+01
-5.395348088902761852e+00 2.488288923958099019e+01 4.003931050501811484e+01
-2.069284766882689031e+00 2.287280366405216370e+01 4.051088331147756350e+01
-2.888661367910316802e+00 2.339525147804835115e+01 4.039150503627475786e+01
-1.342296839573488887e+00 2.238753365571583487e+01 4.070041393027081256e+01
-8.388865414515674912e-01 2.239506367187500047e+01 4.058140175218672141e+01
-2.760666795414934427e-01 2.201819955616504743e+01 4.069947908665083247e+01
2.866296570795828780e-01 2.164140269689016094e+01 4.081777343889485365e+01
7.619507506286112841e-01 2.118524081028575523e+01 4.100811344879920739e+01
1.413492556049595006e+00 2.088676728515624603e+01 4.105549622832888446e+01
-1.238671594660848463e+01 2.436770381032015109e+01 3.593246147602202001e+01
-1.117650610515877219e+01 2.495988757421875093e+01 3.633221458939006254e+01
-1.484272001610053060e+01 2.215349891803979432e+01 3.378414224452181003e+01
-1.455054559861092578e+01 2.261238879297965809e+01 3.420233421966783993e+01
-1.513528558092283127e+01 2.169407318266926765e+01 3.336547765046636727e+01
-1.542733153948404912e+01 2.123554868378733218e+01 3.294766992486139401e+01
-1.448586590237334271e+01 2.240544985764764618e+01 3.360057467201271209e+01
-1.476151814114295568e+01 2.199502866485653740e+01 3.325675585606027340e+01
-1.341938799738472810e+01 2.376736271433446746e+01 3.503268662287077717e+01
-1.379625581262480516e+01 2.338247234069198655e+01 3.475602864404174852e+01
-1.417362730755688993e+01 2.299715433433194889e+01 3.447901213133102516e+01
-1.043430000127838220e+01 2.531847597123642757e+01 3.768892382034247390e+01
-4.787540296642327498e+00 2.449814076850649514e+01 4.013566101570145861e+01
-2.205407416348236449e+00 2.306186254107186429e+01 4.045473279164932023e+01
8.501639472489720406e-01 2.126402735279291534e+01 4.093650990858613170e+01
-1.454123994212736637e+00 2.263394960173429382e+01 4.054612220048310434e+01
-9.799158746287242594e-02 2.207744513035462219e+01 4.060815453032292766e+01
-1.165230497472098037e+01 2.479694623985070834e+01 3.590973413471510156e+01
-1.489205177678616643e+01 2.161336404338314310e+01 3.267240582262044057e+01
-3.992397663047526191e+00 2.414652742001185715e+01 4.012891820883036331e+01
-4.412870222908628293e+00 2.456441195332243055e+01 3.992948797914447567e+01
-4.833342539742984556e+00 2.498229648437499861e+01 3.973005028662351634e+01
-2.857464843475865823e+00 2.347183785146261670e+01 4.033466108760773494e+01
-1.522160634164158699e+00 2.272847219024128407e+01 4.051802914756458307e+01
2.133448720169956569e+00 2.052415959370367915e+01 4.104409550495991255e+01
6.428353169350750074e-01 2.175985491121301152e+01 4.063497315732267623e+01
-1.042766403186924506e+01 2.542154453125000302e+01 3.696230496360915652e+01
-1.212846240480049609e+01 2.463390752257263117e+01 3.548697140164397723e+01
-1.277386576128192885e+01 2.420061985278201888e+01 3.525989138713625692e+01
-1.442115813937333790e+01 2.219841106465420211e+01 3.299852249432166218e+01
-1.404256263087833290e+01 2.292655782777840656e+01 3.388305764370534234e+01
-1.297247985543261706e+01 2.400271927696883267e+01 3.467696214487534689e+01
-1.347717563498881077e+01 2.350399121014162773e+01 3.429836619844381573e+01
-1.353498507710249932e+01 2.324055468750000131e+01 3.356386264888040216e+01
-1.416258099690551653e+01 2.256910733624505383e+01 3.331493456993303681e+01
-3.666198572121917909e+00 2.429893844660575297e+01 3.998111412809210208e+01
-3.035490188389308397e+00 2.367211323554828439e+01 4.028025148762275620e+01
-2.143006569165669895e+00 2.321503368180497162e+01 4.034100005150985879e+01
1.897726906474979103e+00 2.086018528834063801e+01 4.094217675149151603e+01
1.383659748234043807e+00 2.144226261076954643e+01 4.066186523395414554e+01
2.381741588420419387e+00 2.083361413721717881e+01 4.082895674817849141e+01
-7.140914337406187862e-01 2.270142441317865334e+01 4.035373692449312699e+01
-1.428548784650568892e+00 2.295822934746786004e+01 4.034735834602292215e+01
-6.201445292406553011e-02 2.229143702730682364e+01 4.047397273124253303e+01
-1.143427954418251247e+01 2.493241109650992726e+01 3.554657695624846525e+01
-1.095865694777861421e+01 2.509522468264314909e+01 3.596953492592016488e+01
-1.435649483510782609e+01 2.199150373418141413e+01 3.239685104127374871e+01
-1.455020793072672802e+01 2.150172281234562277e+01 3.188868128389735546e+01
-1.174191863600414187e+01 2.479209362522535187e+01 3.516532922597853883e+01
-1.380858402880978630e+01 2.282451444788184958e+01 3.317515299067665069e+01
-1.408249590725253597e+01 2.240804837118956883e+01 3.278604004410070161e+01
-1.303012716615175570e+01 2.373944166883361362e+01 3.394266955058385093e+01
-3.082626773471917936e+00 2.395725968593679411e+01 4.010664122725345493e+01
-4.249770735512868214e+00 2.464061843189572087e+01 3.985558267989817693e+01
-2.499055004618589315e+00 2.361558070137280652e+01 4.023216493357799095e+01
1.431669715615701666e+00 2.172757222453030224e+01 4.048273125066020839e+01
2.124506055067181265e+00 2.112466121218493598e+01 4.068883341923507402e+01
3.631155203482616667e-04 2.244462072298573574e+01 4.036013585023622596e+01
7.148176481692517514e-01 2.218781623437499917e+01 4.036655659330318002e+01
-1.213498912284531217e+00 2.304447568841363747e+01 4.028585662691481417e+01
-1.020014598470503664e+01 2.551966233590827926e+01 3.626440388800433823e+01
-1.232703021915661878e+01 2.443599151202633735e+01 3.490407473390651205e+01
-1.410648509325684508e+01 2.177678791070046671e+01 3.175982432535657551e+01
-1.074034738203865125e+01 2.523751113150951042e+01 3.560608822003509744e+01
-1.363404091890060954e+01 2.268770621295107404e+01 3.270727812170637350e+01
-1.336852886077590874e+01 2.305843434961281346e+01 3.302571719784933180e+01
-1.252563009671492189e+01 2.423807417056552893e+01 3.432116869029974993e+01
-1.285408704245465827e+01 2.344184138951849761e+01 3.326200758828127135e+01
-1.369594072061310541e+01 2.234282017138581722e+01 3.217304890581547738e+01
-1.320193444846009712e+01 2.287616213981614877e+01 3.248712776309654515e+01
-3.893256043416188472e+00 2.474355152979586236e+01 3.949708403886919683e+01
-4.358244803925678923e+00 2.511974684574981609e+01 3.925191890945053075e+01
-1.856275584781746479e+00 2.333002819207869294e+01 4.025900066439159275e+01
2.148501578220608277e+00 2.126732725396951906e+01 4.059916232916463485e+01
-5.707238810131320950e-01 2.275892248275671292e+01 4.031273394849590375e+01
7.204841554612068100e-02 2.247336931093749968e+01 4.033963355143557550e+01
-1.104814359724876027e+01 2.509984195180725308e+01 3.522472911430569553e+01
-1.234926855177185878e+01 2.394203423700038158e+01 3.364125261934208311e+01
-1.366168490344515618e+01 2.196258802569895252e+01 3.152842585952320320e+01
-1.303553683561535337e+01 2.269529287928493133e+01 3.194917746892235400e+01
-1.322559508046384380e+01 2.224600013937805798e+01 3.146140799180129122e+01
-3.428501017041869936e+00 2.436754456760345988e+01 3.974212431170762727e+01
-2.963785888496816234e+00 2.399156959257251742e+01 3.998714142252794801e+01
-3.731853070324686161e+00 2.476450352173797143e+01 3.939403255214150334e+01
-1.808349187240974265e+00 2.337662895322234036e+01 4.020640680256095578e+01
-1.852800345902607893e+00 2.369884054208241864e+01 3.982033383544150240e+01
-2.479368792938462462e+00 2.405418498204237210e+01 3.967818661509524958e+01
2.019118008192047231e+00 2.167570999184181346e+01 4.030449018863163246e+01
2.865331165853076900e+00 2.080706640625000148e+01 4.071588244371802290e+01
2.671782920263787720e+00 2.141945432381040249e+01 4.027348553786813312e+01
1.366938510995391765e+00 2.193177553093834220e+01 4.033550722856001158e+01
1.255381448583771764e+00 2.210602389909569254e+01 4.026178715034065192e+01
9.549463167031335686e-01 2.242065318909451577e+01 4.010345333234160137e+01
2.641026330147023260e-01 2.265965468801981686e+01 4.012917716111971345e+01
-4.269371412804403576e-01 2.289872338296862964e+01 4.015491876960818729e+01
-1.117642573675210915e+00 2.313767662760056254e+01 4.018065727491266159e+01
-1.430432985459891171e+01 2.133906866494996635e+01 3.133629028316175180e+01
-1.194063754458441196e+01 2.459722519527979046e+01 3.458251098182938676e+01
-1.135558960981036769e+01 2.496187345619673081e+01 3.484383554181768261e+01
-1.292360092076496869e+01 2.315488734849800423e+01 3.275807228678991834e+01
-1.385654199584528889e+01 2.156212054974921699e+01 3.112292878781328298e+01
-1.265615869653937331e+01 2.238187024410256143e+01 3.133037208389366768e+01
-1.274801112934781067e+01 2.301244677257452764e+01 3.228583869870598022e+01
-1.219640037119746800e+01 2.280562666196053456e+01 3.168356456613708616e+01
-3.105441317262668033e+00 2.440924747102838310e+01 3.953615013501196529e+01
-2.399337086387496765e+00 2.409509767152970738e+01 3.952020686941318672e+01
-1.155105360310639817e+00 2.340638539638232629e+01 3.985888469203131024e+01
-1.157004476949604843e+00 2.346398429337506641e+01 3.976284432478083630e+01
-4.575791588878184157e-01 2.311400085029082163e+01 3.989743287941808347e+01
-9.770579962196741519e+00 2.562108167787519974e+01 3.565758810925328959e+01
-1.072171301034745916e+01 2.519325051500428359e+01 3.496276175214432413e+01
-1.132950493086731036e+01 2.476838883839977612e+01 3.430849937552486750e+01
-1.191478535292425533e+01 2.440503526327619355e+01 3.404689492043990384e+01
-1.217249300729976902e+01 2.364614690979769307e+01 3.295972431285121473e+01
-1.246032973345516837e+01 2.332896525198261983e+01 3.262268875577426996e+01
-1.190050260375326552e+01 2.340569603845833413e+01 3.244564896413994859e+01
-1.143506581708900072e+01 2.381212563755695300e+01 3.273133534698394698e+01
-1.173796363291948452e+01 2.411105986615766383e+01 3.336601909774402230e+01
-1.341590292205451007e+01 2.179617685674871908e+01 3.097305525388288672e+01
-1.208109230788741861e+01 2.239885948807958371e+01 3.107129309958301988e+01
-1.153671453480962583e+01 2.252915589168638988e+01 3.097529210818871803e+01
-1.162867065401745670e+01 2.316420444804109025e+01 3.193188544737362378e+01
-3.491842779972264665e+00 2.488778568073567854e+01 3.892026126002790676e+01
-1.868705341949375542e+00 2.393071024879298747e+01 3.932475586394597400e+01
1.796333508040084626e+00 2.202417261679673288e+01 4.015694195998390370e+01
2.337824991269093822e+00 2.195127586579284795e+01 4.005199175471153694e+01
1.645995690881846940e+00 2.218399621989971138e+01 4.007773184647560782e+01
9.406092281709176328e-01 2.252908860373244693e+01 3.997472384651291577e+01
2.412461797765292904e-01 2.282107119187843836e+01 3.993606032991176846e+01
-1.345601871273177208e+00 2.374086865226496457e+01 3.931711200806385875e+01
-1.008775317021491524e+01 2.542402367348783798e+01 3.508167409063959497e+01
-1.082650016772867474e+01 2.507597461448065346e+01 3.459937192820763130e+01
-1.140482990030484878e+01 2.346873973667164393e+01 3.222477272607584808e+01
-1.284616573127854977e+01 2.193262505803127382e+01 3.084207169689277706e+01
-1.227646132170378301e+01 2.206610063412358969e+01 3.071104983945624767e+01
-1.135657047401874742e+01 2.292154005487062918e+01 3.141762785620504062e+01
-2.945162137253305445e+00 2.449133723813794816e+01 3.922046728502820656e+01
-4.038113457833904185e+00 2.528552657195017517e+01 3.862027468207327985e+01
-2.602505335204474690e+00 2.454419080800671438e+01 3.875961004660989317e+01
2.911389751701740636e+00 2.162556646539227856e+01 4.008404714760808218e+01
3.324775972095024734e+00 2.116306823051376185e+01 4.024250404228961742e+01
1.639269523463211975e+00 2.224050010439554725e+01 4.001335553785404642e+01
9.293552021203572711e-01 2.277149467480799316e+01 3.959051169602951603e+01
2.335319316084594754e-01 2.300123472019963344e+01 3.964797775260202428e+01
-5.853533253294321836e-01 2.344681879121808876e+01 3.934705965186704191e+01
-4.618228709811850186e-01 2.322863064778112374e+01 3.970541455581799539e+01
-1.080015691247594667e+01 2.488166272262679968e+01 3.406412211319625527e+01
-1.130339760950444550e+01 2.457410332072404913e+01 3.377233462075586345e+01
-1.100043337915019670e+01 2.427401115725941239e+01 3.313721414186807124e+01
-1.091742999739200393e+01 2.362300964199023667e+01 3.214121276294549290e+01
-1.069788698332804877e+01 2.397361673237815083e+01 3.250297546261879944e+01
-1.171668657269151481e+01 2.213612187634146977e+01 3.053340445860178676e+01
-1.092283353724910278e+01 2.262011535364058901e+01 3.088472208089033799e+01
-9.179987358869080794e+00 2.570675262704605757e+01 3.518990452444258210e+01
-1.019288857212145594e+01 2.530629003163242174e+01 3.471851484764967211e+01
-1.029808424673636225e+01 2.518823435627442109e+01 3.435521610065678999e+01
-3.320139919854762312e+00 2.491502969489967256e+01 3.868995953146416156e+01
-3.246504899735880301e+00 2.503825379993741862e+01 3.820084990302380845e+01
-1.884610096722958872e+00 2.417280816801470067e+01 3.882928375878978500e+01
3.484195748452995289e+00 2.130075063133910618e+01 4.011614492264011744e+01
1.625936213843077294e+00 2.254019064962000485e+01 3.953299210153453203e+01
2.168725414671014984e-01 2.327499290142896626e+01 3.908168385998012440e+01
-1.183176728371799991e+00 2.387340507765111042e+01 3.891352671615638315e+01
-4.829758428519302371e-01 2.357424043600495622e+01 3.899762451583106326e+01
1.260816353224256670e-01 2.353458632547933149e+01 3.850789127154480695e+01
-5.434931061155896526e-01 2.374803217210034489e+01 3.861490933918243229e+01
-1.113683593949369843e+01 2.327257918103158119e+01 3.177968460229133640e+01
-9.656461072027871850e+00 2.549057359452234195e+01 3.488871857018352074e+01
-9.761533371824853589e+00 2.537244714815281910e+01 3.452555756327113556e+01
-9.725849232810888978e+00 2.527460946314658585e+01 3.418340188514230960e+01
-1.032863960213615506e+01 2.440070051769303916e+01 3.292873406432418193e+01
-1.189665614541084082e+01 2.174765183200184637e+01 3.009155538949066866e+01
-1.110289761733772984e+01 2.222853356098235622e+01 3.044263996133123129e+01
-1.246649432464273488e+01 2.161765159711046991e+01 3.022271325757857596e+01
-1.012882946797618366e+01 2.500797903151136126e+01 3.385457858328918945e+01
-1.063106154406935566e+01 2.470146325437983137e+01 3.356311389101642106e+01
-3.928002639817940178e+00 2.547105107958958214e+01 3.788637441362465097e+01
-2.565676775820986855e+00 2.460571193506827470e+01 3.851501293855844921e+01
2.996624074582376451e+00 2.171810995621020268e+01 3.995101739033546551e+01
-1.213627175873108310e+00 2.396088142488143902e+01 3.872202418898137921e+01
9.166859323930820480e-01 2.297556869780925126e+01 3.916574189275614515e+01
-2.038888108140722188e+00 2.440131751821283146e+01 3.840299064965568476e+01
-1.053640071592665173e+01 2.336145247473374553e+01 3.167095911621385795e+01
-1.075605157680813839e+01 2.301103766884459390e+01 3.130935620803607833e+01
-1.031675788709217656e+01 2.371185384111822358e+01 3.203255334727170123e+01
-1.032242390206255145e+01 2.270852019074178685e+01 3.077629751231006239e+01
-1.015586694999501383e+01 2.309959302701613737e+01 3.120112873803328668e+01
-9.935980693946664388e+00 2.344992214265778685e+01 3.156257626013588791e+01
-8.481489815584385639e+00 2.577807234588286178e+01 3.488956237534802085e+01
-9.225254218437461518e+00 2.555653249512398517e+01 3.469581203377805423e+01
-8.769461546241462457e+00 2.560786814372322340e+01 3.458032955177549894e+01
-9.188920150855892643e+00 2.545875958641705594e+01 3.435367129378304440e+01
-9.863499990371320081e+00 2.410122559147306376e+01 3.233639197197757653e+01
-1.128257537003357847e+01 2.183692133283119574e+01 3.000055569846883685e+01
-1.048912312894731080e+01 2.231770865097732681e+01 3.035185977126930723e+01
-9.959662197419316243e+00 2.482746434649817502e+01 3.335417476908899914e+01
-2.192974839850872382e+00 2.462804728254491948e+01 3.797723359924810183e+01
-1.504160130343958013e+00 2.431364162447828292e+01 3.810850709377637457e+01
2.322227624068778695e+00 2.230813513374367218e+01 3.947550463617218952e+01
2.677789532501187342e+00 2.201518896227076993e+01 3.973494951836855194e+01
3.655750326654989557e+00 2.148391279907169604e+01 3.985002511049885499e+01
-8.052215276548729816e-01 2.402116073515522032e+01 3.817386588193276964e+01
7.661557899051330001e-01 2.318280851637259588e+01 3.878326554728648290e+01
1.617521379453504160e+00 2.267554716899389433e+01 3.924992590829048567e+01
1.243542467601756796e+00 2.300986996716978794e+01 3.875956612839438975e+01
-9.494493441637350983e+00 2.452793913960708494e+01 3.276186757954894802e+01
-9.722025758639304627e+00 2.279647710021662377e+01 3.066785927540589185e+01
