-1.948773944676791814e+01 4.866802423641607867e+00 2.612874982968905613e+01
-1.732113048943727307e+01 -1.206966571407673605e+00 3.205403745422133710e+01
-1.769534067217619366e+01 -5.000403481402394545e-01 3.188578057451615422e+01
-1.924100415662081787e+01 2.468145839245156292e+00 2.919166135936842110e+01
-1.915344196144606315e+01 2.489145256689037744e+00 3.019136090574050257e+01
-1.880287410539557413e+01 1.073518049912197458e+00 3.066435169712357478e+01
-1.806957589562293620e+01 2.068824760926367134e-01 3.171750702861407589e+01
-1.552181265145904909e+01 1.009867755631465869e+01 2.041291312631273058e+01
-1.686297621721594808e+01 9.597333875137223913e+00 2.096147120772692674e+01
-1.925998310820390103e+01 6.085751513576565408e+00 2.446933416083012958e+01
-1.759411417711447356e+01 9.678497985933569581e+00 2.176821600600360185e+01
-1.812568840765885980e+01 8.564801631923545600e+00 2.191750409668942012e+01
-1.835734645852935287e+01 8.311383174459397338e+00 2.229115113018234240e+01
-1.934191292699640741e+01 5.387947749338414027e+00 2.486816314101504943e+01
-1.932762474602390057e+01 3.326649201524629174e+00 2.784357739199084136e+01
-1.941326372573463388e+01 5.022719193199049137e+00 2.533941092882826496e+01
-1.861165664834109990e+01 1.669226410703256613e+00 3.125209540502232741e+01
-1.843622688456195746e+01 9.636709205410647350e-01 3.148833686023708367e+01
-1.932643945262725538e+01 3.261950342665963287e+00 2.889910742019105783e+01
-1.104071340684730806e+01 1.183128954837357050e+01 2.016522848858829775e+01
-1.315681195446727969e+01 1.113203041996680653e+01 2.012991051262164532e+01
-1.482355173819370009e+01 1.058425249573619453e+01 2.033490358150161015e+01
-1.423460071887375022e+01 1.069179760764725806e+01 2.012351296067647510e+01
-1.898607140838801399e+01 7.018169000100688670e+00 2.347212563562675669e+01
-1.912721370587419045e+01 6.260802976239252970e+00 2.390163933386820005e+01
-1.941908387745662168e+01 4.022305295966927652e+00 2.732341728822628113e+01
-1.955202966449474644e+01 5.176267211583729377e+00 2.735070934946779886e+01
-1.713868824081212594e+01 -6.606965521635307370e-01 3.270179771694436255e+01
-1.878734241474014510e+01 2.377208252324389814e+00 3.101623486974147070e+01
-1.751282992596532750e+01 4.640746091278290936e-02 3.253330380946945155e+01
-1.842134212293650464e+01 2.265284556960033946e+00 3.183988288826401103e+01
-1.824546230189481477e+01 1.559380845674768423e+00 3.207552280245587184e+01
-1.214488147388565409e+01 1.147009475572607506e+01 2.009418151413133558e+01
-1.165457587810550422e+01 1.184542548636822268e+01 2.024145084865057598e+01
-1.374864729436593080e+01 1.098081854564635762e+01 2.017332454903706207e+01
-1.603685549450702297e+01 1.047167645265396629e+01 2.082195590423811993e+01
-1.728765490787926140e+01 9.736635008645333045e+00 2.138082852990227423e+01
-1.950556172727292292e+01 4.649974346746393650e+00 2.785876252704321843e+01
-1.956369947710387791e+01 5.602167041544549697e+00 2.579933353124999584e+01
-1.932924438709943971e+01 3.197356250000000344e+00 2.995440228124999749e+01
-1.896343019983475031e+01 3.085559824910974580e+00 3.078007297877278248e+01
-1.787914381252904050e+01 8.028093820073417541e-01 3.230442398179535957e+01
-1.859760053714113681e+01 2.973730915592641910e+00 3.160405739385968715e+01
-1.432022211875738193e+01 1.126278814168655273e+01 2.043656798349983461e+01
-1.874801656613465539e+01 7.854924708364326769e+00 2.303432151942786632e+01
-1.645007101130542537e+01 1.003434759629941908e+01 2.089201611519149893e+01
-1.549389210281348994e+01 1.092575435711800935e+01 2.079843143869039679e+01
-1.950170900150659392e+01 6.256645721769567459e+00 2.546464972059227705e+01
-1.924704000406174131e+01 6.913461548980810001e+00 2.434863091517305023e+01
-1.816101080048186489e+01 9.280734732496270567e+00 2.235921636493156228e+01
-1.942679133547896697e+01 4.027800925190811121e+00 2.854491533049368357e+01
-1.959889998202320882e+01 5.702656129926073625e+00 2.684265467276568629e+01
-1.695736214510900552e+01 -1.140842347843601112e-01 3.334870530992327531e+01
-1.296251416819047897e+01 1.190429330029152943e+01 2.048850665535839255e+01
-1.167957550275331080e+01 1.222850465850594759e+01 2.045029582985964822e+01
-1.378101738557704259e+01 1.148284638947956715e+01 2.043968739554083314e+01
-1.494992031382241215e+01 1.137962168481822367e+01 2.077431222269377287e+01
-1.943428721637875611e+01 6.911310583480190672e+00 2.512996696835606514e+01
-1.729974765467424191e+01 1.031293962706081047e+01 2.173156691743942304e+01
-1.862405320334695702e+01 8.775140486424501063e+00 2.310616271661762511e+01
-1.959430568894421754e+01 5.278444722474736395e+00 2.839392674142151307e+01
-1.941808500064062315e+01 3.876257082302200452e+00 2.969822599882550307e+01
-1.768951025867499993e+01 1.399400843314204224e+00 3.289172829976136825e+01
-1.732335974339138929e+01 6.428250513822308942e-01 3.312046700255697118e+01
-1.805560913662882072e+01 2.154371319956489561e+00 3.266274472880686375e+01
-1.823184720739267206e+01 2.861900165339787527e+00 3.242754816847615729e+01
-1.885740367987063948e+01 3.725423519099495540e+00 3.134790130785965445e+01
-1.226354494736582268e+01 1.198884697780603759e+01 2.038648426047735995e+01
-1.646957829824798125e+01 1.099546114516704343e+01 2.147637166178805401e+01
-1.917655713288340991e+01 7.292270066124032724e+00 2.413426765579321298e+01
-1.899806744704512695e+01 7.919532347690870999e+00 2.380637189093317829e+01
-1.922331414408216332e+01 3.837899578569333947e+00 3.052330289469053781e+01
-1.963665250815037311e+01 6.301248720370803191e+00 2.632621512546251097e+01
-1.791269830873896751e+01 1.019630883949209377e+01 2.250583587108421568e+01
-1.951886685254260456e+01 4.700884746873043696e+00 2.867414482787692975e+01
-1.963999697843120984e+01 5.804767003775536338e+00 2.788596616381029847e+01
-1.849147089952262490e+01 3.613326353314914918e+00 3.217165632322630842e+01
-1.676810713200458736e+01 4.818005552594460950e-01 3.393654793237695344e+01
-1.440588840445716201e+01 1.183364898216689021e+01 2.074958025540968976e+01
-1.555055215666231661e+01 1.141064402743075590e+01 2.113025740643149319e+01
-1.377073601846332274e+01 1.223149738888876570e+01 2.082419535949478373e+01
-1.881954476170302470e+01 8.546911000945961234e+00 2.347793807593621196e+01
-1.604233549890878407e+01 1.102320223151308554e+01 2.116571671028704316e+01
-1.846643544568232542e+01 9.527467451314151958e+00 2.314807301095658332e+01
-1.960684113546647467e+01 7.147798148010895858e+00 2.623601231292888158e+01
-1.936686460551201350e+01 7.566083156921436625e+00 2.479561665040018426e+01
-1.819637856560197875e+01 9.997574724849526362e+00 2.280156129512848651e+01
-1.950690974299825342e+01 4.552742743881164067e+00 2.944219397800233651e+01
-1.968275766581228226e+01 6.517960858415310810e+00 2.745740056572735099e+01
-1.931223916297683374e+01 4.515700288227138870e+00 3.026491806173478594e+01
-1.875141047908099168e+01 4.365288867844571818e+00 3.191562767974067327e+01
-1.812566426402220543e+01 3.501331612183341324e+00 3.299503075407918118e+01
-1.713464685710685487e+01 1.239501542246732591e+00 3.370759265263578186e+01
-1.750064113474423877e+01 1.994511304244357408e+00 3.347897841869654201e+01
-1.238232135135307210e+01 1.250800860547453119e+01 2.067901783009931904e+01
-1.543292818747907447e+01 1.187893686775747781e+01 2.135411048753201158e+01
-1.481943741186677954e+01 1.218298952027534376e+01 2.119797380887886717e+01
-1.920835949277528343e+01 8.123639902311669658e+00 2.450491418384041253e+01
-1.904984909553639483e+01 8.681210274290512174e+00 2.421380021766051982e+01
-1.911755003014599552e+01 4.477653291540919511e+00 3.109129816360631082e+01
-1.970896404547918834e+01 7.000256956869172598e+00 2.685309321821820561e+01
-1.952750993243558852e+01 7.843479564951120864e+00 2.583247145587624516e+01
-1.765410383943522632e+01 1.061116459756961738e+01 2.239150370547463709e+01
-1.959582668252126680e+01 5.230117337460234772e+00 2.918600169879836415e+01
-1.940117300104366294e+01 5.192575375137286287e+00 3.000867105758717557e+01
-1.968481322133597544e+01 5.908082552582419211e+00 2.892972096888534850e+01
-1.786630895991783774e+01 2.750112500000000182e+00 3.325056472045961442e+01
-1.838536912462844697e+01 4.252922342180129434e+00 3.273924762296987723e+01
-1.313586638546074603e+01 1.262865678743817099e+01 2.089820495089985286e+01
-1.179837974031626580e+01 1.274772731847349228e+01 2.074284175573042432e+01
-1.604653719539909673e+01 1.157483003031630453e+01 2.150955421582678539e+01
-1.440802631194521943e+01 1.233714062976936354e+01 2.108697982224475709e+01
-1.889113500799921397e+01 9.239486934544110852e+00 2.392198225804681755e+01
-1.731186012217110104e+01 1.089017826461682859e+01 2.208290812549422100e+01
-1.924100408891574432e+01 8.849199975133831941e+00 2.500791836302864724e+01
-1.733296780392758762e+01 2.605492458610163098e+00 3.406249516809413791e+01
-1.696703136100622800e+01 1.851287645210475175e+00 3.429122911686230424e+01
-1.901177924667434738e+01 5.117681417097868390e+00 3.165910276449392313e+01
-1.660084271257893462e+01 1.096506661022398355e+00 3.452019687281234894e+01
-1.823176598345451183e+01 1.071452245905921252e+01 2.324423833880805290e+01
-1.949025963166445052e+01 5.870366957588042389e+00 2.975200010629009029e+01
-1.864552379116061687e+01 5.005080961431572106e+00 3.248310083299961804e+01
-1.774564356299692847e+01 3.413566175495620580e+00 3.381405039364698695e+01
-1.690121031382364691e+01 1.151944998769972628e+01 2.213082793504216994e+01
-1.939951428909268571e+01 8.291522560459297253e+00 2.529870284518667134e+01
-1.845135246557265063e+01 1.022345184984509814e+01 2.347040522091482018e+01
-1.867122510258740675e+01 9.731541670380535081e+00 2.369641346880533561e+01
-1.920647295963031098e+01 5.155132020606622234e+00 3.083343687136647304e+01
-1.800494379004626211e+01 4.165328129277474645e+00 3.355885005707260405e+01
-1.826464591731643239e+01 4.916736826597319698e+00 3.330298814593853507e+01
-1.979081089761681866e+01 7.566147049494696297e+00 2.824777605543898318e+01
-1.643352854109760486e+01 1.707982084047695581e+00 3.510395518825158945e+01
-1.968814947366131918e+01 8.120815510293764916e+00 2.686966307537375087e+01
-1.977887485141208046e+01 7.699223858546270449e+00 2.737997025895488790e+01
-1.973495263862368887e+01 6.736305449063587858e+00 2.858869926099854908e+01
-1.250114359737418290e+01 1.302729365143823337e+01 2.097162117411781068e+01
-1.605087621391112052e+01 1.212696367013341714e+01 2.185372109090472748e+01
-1.523299496266582409e+01 1.253222989742831395e+01 2.164612406169817405e+01
-1.377457871519143673e+01 1.307054367867248423e+01 2.138633486584500432e+01
-1.655172084843680125e+01 1.187502546841995610e+01 2.208267698442982052e+01
-1.904284780885235406e+01 9.547108964032727130e+00 2.464434542736304934e+01
-1.887839335849836431e+01 9.965794671986410336e+00 2.441088814520893990e+01
-1.955546828491670652e+01 8.855743640632733005e+00 2.643212679770642737e+01
-1.721215755868549380e+01 3.269558786077679802e+00 3.462642428334677192e+01
-1.910075001101886372e+01 5.794767243046033300e+00 3.140192863978744242e+01
-1.929547769120521039e+01 5.832552414923781292e+00 3.057515134638448728e+01
-1.679977186714423354e+01 2.462592519331508356e+00 3.487475374029003206e+01
-1.606750867747760481e+01 9.529794524988663973e-01 3.533266865784921862e+01
-1.778392664243823518e+01 1.137903335132030946e+01 2.301521538573349801e+01
-1.970750287772333564e+01 6.582966810660855650e+00 2.951010767194387441e+01
-1.441022285103422362e+01 1.284070252317698291e+01 2.142442969581236056e+01
-1.943215859317683325e+01 9.016884378579307580e+00 2.580176779604628834e+01
-1.931329719855186866e+01 9.435458691368861395e+00 2.558394232414302394e+01
-1.863108031600890513e+01 1.051872589955637949e+01 2.415696617368256582e+01
-1.788436901990439765e+01 4.828731330734924221e+00 3.412200250690371206e+01
-1.762485494929009988e+01 4.077734901044104632e+00 3.437807212631441445e+01
-1.890607844427731266e+01 5.757270725638026221e+00 3.222660113620683120e+01
-1.852450192827280873e+01 5.668983550048039888e+00 3.304758779385294787e+01
-1.975749636537804577e+01 7.326984754131214750e+00 2.920493464432468755e+01
-1.626652287362962923e+01 2.319449723556274545e+00 3.568762966231652456e+01
-1.590083291033242574e+01 1.564724118838089373e+00 3.591600350764414884e+01
-1.732395476183050320e+01 1.146655955023065232e+01 2.243376213757274584e+01
-1.838376460349764585e+01 1.107166096165252256e+01 2.390247602785268555e+01
-1.951285278179965132e+01 6.545579163192214445e+00 3.033320147710796277e+01
-1.931811691196705283e+01 6.507605804846011921e+00 3.115883044747164732e+01
-1.605532877491066301e+01 1.267843083152356698e+01 2.219748591581323183e+01
-1.733283632066002511e+01 1.204327537410447668e+01 2.278485489388231855e+01
-1.919443444903842177e+01 9.854033697459037455e+00 2.536595950529374477e+01
-1.814392991356953289e+01 5.580549994298461769e+00 3.386660140575999378e+01
-1.709154344660156255e+01 3.932970922294641181e+00 3.518962390155575548e+01
-1.912335352941738265e+01 6.469466864161272923e+00 3.198467656638653622e+01
-1.884523277345810754e+01 6.452226819510996414e+00 3.277433993108824239e+01
-1.984878334330202421e+01 8.398167055100129730e+00 2.790685312499999782e+01
-1.980262556438646371e+01 7.944201260874123705e+00 2.907350756197622843e+01
-1.983059977359388881e+01 8.454622269877797081e+00 2.874321229105556696e+01
-1.818772898461764598e+01 1.143515654988860675e+01 2.372234303774072117e+01
-1.973667672396977935e+01 7.261142739266728263e+00 3.009125572866545539e+01
-1.978201868517665574e+01 7.886161985653537876e+00 2.983541156194346300e+01
-1.690815559433953297e+01 1.243917189759696917e+01 2.270434896086931786e+01
-1.564657482244564868e+01 1.288140376060377790e+01 2.209406520220266756e+01
-1.495429377415375960e+01 1.327635174446178290e+01 2.199847418816661815e+01
-1.441246878243772933e+01 1.334384096997666980e+01 2.176159878511565537e+01
-1.946479849684044794e+01 9.742246619156512466e+00 2.630484228235233601e+01
-1.886564733250370907e+01 1.069193741766324024e+01 2.489990923081793994e+01
-1.909948084557890979e+01 1.078930363322069219e+01 2.573846755320647262e+01
-1.934593863872850150e+01 1.016082063642454436e+01 2.608704521776555296e+01
-1.853581344400182118e+01 1.142906151273064630e+01 2.456082337863539422e+01
-1.973166715569095686e+01 9.087984981947030860e+00 2.753852653193603572e+01
-1.750429438855024955e+01 4.740709869250006037e+00 3.494101881587138081e+01
-1.776380301768250547e+01 5.492135559544141898e+00 3.468508135198716502e+01
-1.738374625832927833e+01 5.403660730854115357e+00 3.550390090193633341e+01
-1.667903872909689511e+01 3.125993280318713818e+00 3.543825966922878479e+01
-1.981240494357619397e+01 8.507933954674324895e+00 2.957957007057444443e+01
-1.980315855111076573e+01 9.044748200089205881e+00 2.844503149170095568e+01
-1.954196140768713619e+01 7.223984613701795787e+00 3.091484234051923252e+01
-1.573443851117912651e+01 2.176436742857142725e+00 3.649923828306079798e+01
-1.538213238934628357e+01 7.848302228413367443e-01 3.611468828180910862e+01
-1.648411616334636065e+01 1.283459371684700834e+01 2.262328463404888623e+01
-1.927846407698576670e+01 1.102627643829672266e+01 2.649879142159437961e+01
-1.961455053570800544e+01 9.777802333189564266e+00 2.717019950870499301e+01
-1.846345751459986317e+01 6.364623392050588357e+00 3.359415969594860485e+01
-1.770175730989562268e+01 6.188026034255585728e+00 3.523170790673896846e+01
-1.697093744024306972e+01 4.596373249308186359e+00 3.575278612765558961e+01
-1.655831402062552371e+01 3.789385083796212417e+00 3.600173314872782271e+01
-1.934722787858285287e+01 7.185815235267064338e+00 3.174227606107061561e+01
-1.978969514430897547e+01 9.050267337057743333e+00 2.917689808458397138e+01
-1.976380498293779198e+01 7.939979921701722176e+00 3.067229347182140486e+01
-1.956884411478836228e+01 7.899919683208116439e+00 3.149938973037174250e+01
-1.614611074029757276e+01 2.982636904990175530e+00 3.625057842863764535e+01
-1.785024919674622979e+01 1.193394519338795767e+01 2.355071558803260956e+01
-1.726354781283720996e+01 1.274200344014076336e+01 2.323358218380258222e+01
-1.885289987703096060e+01 1.141808469315786567e+01 2.538889165883071186e+01
-1.949743356121476268e+01 1.046761892414754413e+01 2.680795916451370076e+01
-1.808244325787100237e+01 6.276433246212480555e+00 3.441307173523940577e+01
-1.679784538360786073e+01 5.244313687323404416e+00 3.627479591375541190e+01
-1.906438939716469605e+01 7.167089275971338047e+00 3.253266066556098934e+01
-1.878491484161618885e+01 7.147734436947454917e+00 3.332126324541128781e+01
-1.979419569259881939e+01 8.561224473197158957e+00 3.041611525526014859e+01
-1.975752502132172950e+01 9.691263988753636482e+00 2.898320630825883981e+01
-1.967329191258461663e+01 9.855858233180681438e+00 2.812000124996351857e+01
-1.977596752409821690e+01 8.614515211587189469e+00 3.125572113013506126e+01
-1.521598456453648218e+01 1.396765743305224516e+00 3.669787104302837122e+01
-1.814076381081404321e+01 1.215643247000323335e+01 2.420073073296910593e+01
-1.751002046365288223e+01 1.243274101276697152e+01 2.337836775123548350e+01
-1.605989273735864131e+01 1.323028728637695295e+01 2.254150742925213535e+01
-1.551160949642728326e+01 1.360411375299430148e+01 2.250699020193033206e+01
-1.905949417183988359e+01 1.158500770886974962e+01 2.618907683911429274e+01
-1.953963116464268168e+01 1.059690790184418496e+01 2.762128214975842155e+01
-1.721902268312463136e+01 6.073698391299165777e+00 3.599888962957426486e+01
-1.638562977952596356e+01 4.437348869834723430e+00 3.652353281602739088e+01
-1.929164088405721955e+01 7.882111162039568519e+00 3.229104491209770345e+01
-1.597390145798389582e+01 3.631124721995834470e+00 3.677218446087785253e+01
-1.556241757350275989e+01 2.824153875593556240e+00 3.702049880529724390e+01
-1.840282515882619663e+01 7.060263833157457647e+00 3.414046689588503369e+01
-1.975637941417709698e+01 9.421086065016659461e+00 2.987712611504651505e+01
-1.517388235539743668e+01 2.035490794051502128e+00 3.708511062011923087e+01
-1.639260588003518038e+01 1.376849526505911214e+01 2.322187044649402665e+01
-1.719456004989811149e+01 1.344092753885518654e+01 2.368285485460512163e+01
-1.768737667997662300e+01 1.282175491024597491e+01 2.397186190142311091e+01
-1.868798160826264976e+01 1.178687112073392740e+01 2.521959155085047755e+01
-1.839011941637015468e+01 1.233264749476758837e+01 2.494992617718512307e+01
-1.943055217697935433e+01 1.110395960271885052e+01 2.734016161959596047e+01
-1.918338217600455309e+01 1.173308920814036327e+01 2.699239182014311211e+01
-1.883905610966484545e+01 1.214477602742722517e+01 2.587824659509546876e+01
-1.802130077473464809e+01 6.973221500573592024e+00 3.495938651755943738e+01
-1.754948599466864678e+01 6.978056988101198677e+00 3.574472707060375143e+01
-1.900628701554206046e+01 7.863925669809193053e+00 3.308027598133568858e+01
-1.580162035044953939e+01 4.278817823019934075e+00 3.729372362366025584e+01
-1.539028458847064762e+01 3.472864902711691126e+00 3.754249432605281100e+01
-1.966969535081199894e+01 1.026331622777220787e+01 2.880582334506664566e+01
-1.958182176421278697e+01 1.072615865519206224e+01 2.843459953006160390e+01
-1.973937501612119760e+01 9.405829150049447307e+00 3.085854462433526635e+01
-1.950476590350023187e+01 8.596489765798398963e+00 3.204914050199940334e+01
-1.496416599805121095e+01 1.397737325443797651e+01 2.247186784259847769e+01
-1.809124617246696687e+01 1.287843921157534410e+01 2.467948475700529798e+01
-1.663375507696958877e+01 5.913881306181387743e+00 3.676905718555181579e+01
-1.621312360278736620e+01 5.085238458771066838e+00 3.704523216469373637e+01
-1.872510213492950726e+01 7.846088879595282783e+00 3.386880455821179225e+01
-1.500171140884159904e+01 2.683678167525791025e+00 3.760701076329235804e+01
-1.971188313904036704e+01 1.033774106210059607e+01 2.952194732843373615e+01
-1.970279280149956236e+01 1.019691146231328993e+01 3.046036530328699499e+01
-1.963021989553292812e+01 9.285972088189193840e+00 3.174165555523831017e+01
-1.550893095026787805e+01 1.404911774077918096e+01 2.284997392647740710e+01
-1.600292534172443837e+01 1.373309919018390701e+01 2.289731034448627867e+01
-1.857321588316120042e+01 1.262973911804992966e+01 2.563880640899254360e+01
-1.947416312999540722e+01 1.118003887610005975e+01 2.805670958970842221e+01
-1.935990044620874428e+01 1.174062661046357370e+01 2.787280394732172795e+01
-1.834260115936353941e+01 7.756735284683833775e+00 3.468716845048105313e+01
-1.705462662828812270e+01 6.743007421259399337e+00 3.649315571926661050e+01
-1.795295691700710705e+01 7.664563533732266620e+00 3.530035776770996137e+01
-1.923367883172333137e+01 8.578373809761291824e+00 3.283912365890085994e+01
-1.521857905688371915e+01 4.120512830419390760e+00 3.806920040478054545e+01
-1.562950886190935407e+01 4.926447147535779614e+00 3.781990340049821953e+01
-1.894938590870478379e+01 8.560174274340891287e+00 3.362738814605020821e+01
-1.957294324786334272e+01 1.021175655367244950e+01 3.137695600505171001e+01
-1.935909865763113658e+01 9.267766706791835674e+00 3.253095818313614274e+01
-1.594616440556088577e+01 1.423507919693048862e+01 2.325254654806301602e+01
-1.830774798398956449e+01 1.311465447388446748e+01 2.539879229013961393e+01
-1.945916925503159334e+01 1.158233399475676073e+01 2.873952851062198377e+01
-1.962400584840175455e+01 1.085537837477341405e+01 2.924864355441722452e+01
-1.966620271858608859e+01 1.098462665717032216e+01 3.006156492768307231e+01
-1.727544817311714098e+01 7.504104142396032628e+00 3.637532042263054421e+01
-1.762588396686540904e+01 7.700901121209965616e+00 3.585502201018854151e+01
-1.469007363607365946e+01 3.296180512033058729e+00 3.828062578888565071e+01
-1.604942794992238575e+01 5.754457790533856532e+00 3.754554360031377769e+01
-1.948451223580674707e+01 9.957150533597166842e+00 3.222234290566788673e+01
-1.928564923652613672e+01 1.237803130863409251e+01 2.840681026032168788e+01
-1.936596045421464751e+01 1.233862626898967996e+01 2.931769626257914041e+01
-1.954789809647861532e+01 1.106146916219041465e+01 3.084784807223298486e+01
-1.952073498885041047e+01 1.166112539632979406e+01 2.969026305790936604e+01
-1.866613815427125900e+01 8.541878181108620183e+00 3.441528466288595212e+01
-1.788461485475185597e+01 8.356809746418036866e+00 3.564118105449081497e+01
-1.827389361418017089e+01 8.449059644744796316e+00 3.502836293196069306e+01
-1.749683454499534463e+01 8.265200864763160737e+00 3.625747268014918490e+01
-1.451908178618678136e+01 3.944255404392228215e+00 3.880786011226205545e+01
-1.907608299059944201e+01 9.249609911574564691e+00 3.331878611302721538e+01
-1.943498812441092483e+01 1.060222121999497524e+01 3.201818309464547951e+01
-1.942196806264109199e+01 1.113840789923228414e+01 3.163370711640851596e+01
-1.951763897231191081e+01 1.163256594536166055e+01 3.054010527303746869e+01
-1.933515601771934200e+01 1.243227439436812709e+01 3.020342570540825378e+01
-1.879231481809258497e+01 9.230671202876417070e+00 3.410631532521669840e+01
-1.646980234405457111e+01 6.583449351624235391e+00 3.727106230361828665e+01
-1.689040101135357119e+01 7.412217594776359775e+00 3.699661318231652984e+01
-1.504711700017021059e+01 4.767786901066621397e+00 3.859651394718641626e+01
-1.546597368133337724e+01 5.594542065386324481e+00 3.832269583649912903e+01
-1.920283645665070082e+01 9.937804850878755758e+00 3.300972238552941462e+01
-1.932961371016879681e+01 1.062466403769047929e+01 3.270688120205814187e+01
-1.844348474577935804e+01 9.196120051265531004e+00 3.485586265724660393e+01
-1.711095932117102691e+01 8.173653085567394783e+00 3.687879620683577286e+01
-1.805417444173894381e+01 9.105085158287913316e+00 3.547400666570537453e+01
-1.771110348587826877e+01 8.910120296023425368e+00 3.600605354955453663e+01
-1.630594400962044332e+01 7.253141227161615134e+00 3.777406419904752255e+01
-1.588585108571488114e+01 6.423888871292250613e+00 3.804836449392413300e+01
-1.439270618015210701e+01 4.622797558331868117e+00 3.902987468939589633e+01
-1.929593847650880889e+01 1.121551400263016696e+01 3.241974031940838330e+01
-1.941248872330719877e+01 1.165722046037103787e+01 3.123065316867877783e+01
-1.891864014870566990e+01 9.917920328828701670e+00 3.379981831286801963e+01
-1.856918666424359188e+01 9.884235138307436941e+00 3.455607056484119965e+01
-1.737730185681446571e+01 8.945544853395677620e+00 3.656051665251862204e+01
-1.672616247935682310e+01 8.082060242652724824e+00 3.749987394683333264e+01
-1.926922845673642470e+01 1.203968751035423423e+01 3.187160614575426720e+01
-1.936232853062606551e+01 1.228199977279709287e+01 3.101747016801741097e+01
-1.822373446234885819e+01 9.852894414642086929e+00 3.531203955453278098e+01
-1.773589388899219443e+01 9.621596977350836966e+00 3.607562081119637298e+01
-1.699233539461575759e+01 8.854097245031633534e+00 3.718093453772213053e+01
-1.904497442226108106e+01 1.060539582852901042e+01 3.350249142755392029e+01
-1.869515142944147001e+01 1.057178556911587108e+01 3.425803570485450678e+01
-1.917129123280944114e+01 1.129266020878504584e+01 3.320454261490088754e+01
-1.469599198595391165e+01 5.407620750207502880e+00 3.888540259493630913e+01
-1.512031717759844263e+01 6.357719730505389855e+00 3.861277399114128883e+01
-1.373810994835927879e+01 4.477652909769211043e+00 3.946267958702769363e+01
-1.610788296694901334e+01 7.931594434736586763e+00 3.795082584831585848e+01
-1.568827487471464011e+01 7.102565187950715675e+00 3.822488966783275544e+01
-1.834932645594398792e+01 1.054002478632443740e+01 3.501352788697017360e+01
-1.725850580851786376e+01 9.625890785322962273e+00 3.686180304596689439e+01
-1.882116077981502400e+01 1.125931547757427253e+01 3.395927999745070025e+01
-1.891884719617469557e+01 1.191928726157994767e+01 3.362717696912679344e+01
-1.404136931245482600e+01 5.262386518825240778e+00 3.931823446194503191e+01
-1.913378286283894880e+01 1.205551790931929546e+01 3.279329316082998247e+01
-1.634389370201353131e+01 8.686060390859772440e+00 3.778365237305224866e+01
-1.800652408618403300e+01 1.050959659280230163e+01 3.576843503447179984e+01
-1.752458069432304200e+01 1.039718324639539127e+01 3.654265903481496736e+01
-1.660030815324033782e+01 9.571896792395625297e+00 3.746122472907511280e+01
-1.847495619495648356e+01 1.122726244173476040e+01 3.471435775691105619e+01
-1.515383471264398807e+01 7.086015533691687907e+00 3.861992614284653058e+01
-1.434465901144371180e+01 6.049332680327855094e+00 3.917377981542652066e+01
-1.549079313503001742e+01 7.781241504070750992e+00 3.840094994673604845e+01
-1.813184413373928905e+01 1.119647871966324182e+01 3.546886338406253714e+01
-1.700566078080597876e+01 1.026294393530330140e+01 3.702424333701965509e+01
-1.857339618417781324e+01 1.188823719564353532e+01 3.438196939677317943e+01
-1.330650271631716031e+01 5.098725780131331042e+00 3.980326298285542208e+01
-1.460932720734540879e+01 6.840070118189577997e+00 3.901227214233863094e+01
-1.596252320206489550e+01 9.289741911763513826e+00 3.806670463750662492e+01
-1.572665990544998493e+01 8.535491066796092596e+00 3.823382668157285735e+01
-1.487404962988093260e+01 7.630809612368703476e+00 3.885076866489362146e+01
-1.779080650278299913e+01 1.116689653525384784e+01 3.622325674956669417e+01
-1.826746511609799128e+01 1.194886141903873700e+01 3.503979532682296139e+01
-1.352787013779180469e+01 5.867478989384885324e+00 3.971290198798410387e+01
-1.399411163414052695e+01 6.690073896752996241e+00 3.946096491125603478e+01
-1.727143603876631772e+01 1.103429795175535055e+01 3.670495073008942200e+01
-1.609896671318787398e+01 1.002767007859215376e+01 3.786743696556108318e+01
-1.518641656260797745e+01 8.291889636611774250e+00 3.862705969493015346e+01
-1.519129761880312479e+01 8.985691348894050634e+00 3.862834592019740398e+01
-1.792338627068271961e+01 1.204855545099633751e+01 3.577872269144743456e+01
-1.654263307894357382e+01 1.025688296938675492e+01 3.744283684470735807e+01
-1.317807701790205321e+01 6.508348664469579603e+00 3.999888848239806549e+01
-1.558222303865045077e+01 9.892749584584992206e+00 3.834893319850886684e+01
-1.464822033813099367e+01 8.271993082956793586e+00 3.902029499742209850e+01
-1.442270387794619069e+01 8.913176126772912156e+00 3.918955974707609613e+01
-1.481218231708681188e+01 9.704795676954738326e+00 3.891047220042471366e+01
-1.675321722473283259e+01 1.089999575986478142e+01 3.718631296658405461e+01
-1.841357241425586011e+01 1.247215853442883038e+01 3.462764083478093369e+01
-1.623541670872087295e+01 1.076559693852489197e+01 3.766796746385237782e+01
-1.701832523811026832e+01 1.163335589845037177e+01 3.708441397755100155e+01
-1.425863073078985899e+01 7.480550006198495971e+00 3.929947201977947913e+01
-1.271178451178772484e+01 5.685624000753064067e+00 4.025045326646010579e+01
-1.364406821391320612e+01 7.330363037879485510e+00 3.974729980228229920e+01
-1.753639220624596007e+01 1.176709486913655311e+01 3.660302479692428790e+01
-1.571870745088492782e+01 1.063129317774739491e+01 3.814923390637791556e+01
-1.805599885679749761e+01 1.292996350745508671e+01 3.533364546389253036e+01
-1.655379662415749920e+01 1.140406888785579476e+01 3.749293471857999549e+01
-1.304419834385752885e+01 7.172340431265635807e+00 4.018691426854805826e+01
-1.758287170364984675e+01 1.240091825033489314e+01 3.638078323907564027e+01
-1.403337477842467607e+01 8.121789803699531518e+00 3.946848095073053031e+01
-1.388919370183390178e+01 9.445612523999534105e+00 3.962565992712774232e+01
-1.520187935645525279e+01 1.049678186144917547e+01 3.863118754756970219e+01
-1.771649757558277472e+01 1.296017695501957512e+01 3.600064985104697968e+01
-1.611318402509126813e+01 1.139838479693029605e+01 3.792716832407278105e+01
-1.662510865631331924e+01 1.208531398264190138e+01 3.757138053520530718e+01
-1.224480426960945856e+01 4.861514386336931892e+00 4.050212386690242994e+01
-1.371287420131603163e+01 8.713662083026031624e+00 3.973946011423595337e+01
-1.463392501331714257e+01 1.033728964519168336e+01 3.907138768570781906e+01
-1.728348563845570496e+01 1.236671526924268250e+01 3.698250657367218253e+01
-1.332370095745236327e+01 7.922221139143837298e+00 4.001805408850769652e+01
-1.220267565409909594e+01 6.250911457457759113e+00 4.071227708851651528e+01
-1.189854412132086381e+01 5.470764083575001102e+00 4.084459253654691224e+01
-1.244431831930480392e+01 7.014248792104894825e+00 4.062544510457556157e+01
-1.406551717958978820e+01 1.017756146317695176e+01 3.951184824832554199e+01
-1.738336600087223971e+01 1.302766715089229699e+01 3.664905512930020137e+01
-1.559690567675202821e+01 1.126427868142575228e+01 3.840870657048406400e+01
-1.599162329589853471e+01 1.203117106792595514e+01 3.818636423652817768e+01
-1.272396878049127267e+01 7.764198754952616355e+00 4.045719334719203886e+01
-1.474169447467469318e+01 1.121697935055703077e+01 3.898237766652186309e+01
-1.325093650306074977e+01 9.266098934476563187e+00 4.011994410858135751e+01
-1.783573814454299011e+01 1.374944880987984241e+01 3.560141727294323033e+01
-1.638620989044620302e+01 1.279780846231182778e+01 3.796406572744663777e+01
-1.703168458117583839e+01 1.296569229167320003e+01 3.736208620987071782e+01
-1.544871121312251638e+01 1.218708370804033869e+01 3.856113942696259045e+01
-1.300362096971774939e+01 8.514149309210251815e+00 4.028855423513888212e+01
-1.349825367134960530e+01 1.001804919356497514e+01 3.995127185193674535e+01
-1.748325904861037117e+01 1.368839788079804798e+01 3.631520626799729712e+01
-1.678092292422881826e+01 1.356469833879958919e+01 3.774167068771437528e+01
-1.604039975194315204e+01 1.333720272012975805e+01 3.822788323781145436e+01
-1.152736580545065515e+01 6.072760469653381676e+00 4.120404339766302826e+01
-1.184407965961926479e+01 6.855994182617636490e+00 4.106293844463433373e+01
-1.188534148834568072e+01 7.461335732522483610e+00 4.106493685443010122e+01
-1.376285755441467984e+01 1.104745701057603213e+01 3.974106419018853842e+01
-1.486677511565806498e+01 1.219880825048812412e+01 3.895438106559489455e+01
-1.530125855222947706e+01 1.310988957311534442e+01 3.871355913897073719e+01
-1.225359486413607790e+01 8.316713159119194287e+00 4.083713906652555892e+01
-1.428315371083377450e+01 1.193675166144738320e+01 3.933327462132714913e+01
-1.268378536103056575e+01 9.106230720488092345e+00 4.055886099242993481e+01
-1.713187573348217541e+01 1.362781855450914037e+01 3.702817956821945700e+01
-1.124357929424309077e+01 6.697605632438814460e+00 4.149906778581947009e+01
-1.293054819787288778e+01 9.858309057744682136e+00 4.039081663961704294e+01
-1.456298394731279799e+01 1.288259548000654142e+01 3.919903429976918119e+01
-1.101154931310461604e+00 7.838321093750002966e+00 1.887606509400542265e+01
-6.235790049800075119e-01 8.280868613340240714e+00 1.906479593620475654e+01
-9.979579911221678201e-02 7.774090625000000365e+00 1.895708920710045575e+01
-1.040231137819807250e+00 7.297997245585882808e+00 1.878176447475249589e+01
3.806162145976150352e-02 8.376869320795012896e+00 1.915837136589311029e+01
-1.625348160644189743e+00 8.345453882020478886e+00 1.898384716254143001e+01
-2.102567716577137702e+00 7.902551565711187997e+00 1.879504102156301570e+01
-1.148131381238712168e+00 8.788357186352691031e+00 1.917265384380543836e+01
-1.789265730028617662e+00 7.042500445280313492e+00 1.866500674899321766e+01
1.760999695836001078e-01 8.980481736597750952e+00 1.935993189905540390e+01
-2.646786844226713065e+00 8.578305735767857598e+00 1.895428507469795676e+01
-1.978742573165093388e+00 8.828950931552562054e+00 1.910142840526373575e+01
-6.793793151126598096e-01 9.439820408539128849e+00 1.942094706585024966e+01
-1.672794269521033161e+00 9.295927188738515312e+00 1.928052933044164163e+01
3.140416341496046204e-01 9.583714231115679993e+00 1.956136545788000092e+01
-2.543303658417265911e+00 9.233236512554430675e+00 1.917250506139947319e+01
-1.296252420388008364e+00 9.823998868284355979e+00 1.948146558090994063e+01
-3.413835099477595225e+00 9.170543945295831278e+00 1.906448025974720650e+01
-2.197663802496434116e+00 9.803672808028737862e+00 1.938844200978591559e+01
-6.061746284749697233e-01 1.022804481322035386e+01 1.967386381286943475e+01
-3.067805202585001556e+00 9.740620886514022914e+00 1.928034240632686291e+01
-1.663977168445857524e+00 1.026936113944100448e+01 1.958503044808931648e+01
4.519240634580267701e-01 1.018671562500000149e+01 1.976272202219202967e+01
-2.721785007040215643e+00 1.031067812499999903e+01 1.949619759932588892e+01
1.081689957124150059e+00 9.746483748675903058e+00 1.971913608819497910e+01
-3.717680063583017169e+00 9.969644998373162537e+00 1.933233303264832159e+01
-1.191322455289225202e+00 1.076736774584362166e+01 1.985201605647411682e+01
-2.389721212800642203e+00 1.075631183821761105e+01 1.972591218146827785e+01
-9.085106021836130905e-03 1.066350246178518901e+01 1.992590974812874904e+01
-4.202230086686879140e+00 9.103189988002776900e+00 1.900606764157177864e+01
-4.348865707521458290e+00 9.712633077943104709e+00 1.921409474104754267e+01
1.296335688858098578e+00 1.032493723151642762e+01 2.000940728573091221e+01
-4.703105019409821175e-01 1.114049767822701398e+01 2.008916948650162482e+01
-3.144988460045956558e+00 1.089052367607955141e+01 1.973756311161331567e+01
6.463760625091059531e-01 1.072046831938076217e+01 2.005606560754176115e+01
2.031911455352479301e+00 9.901815115128865585e+00 1.999664208310965563e+01
-4.972830087473960603e+00 9.201114089301864141e+00 1.900796575315296622e+01
-4.258881355477566188e+00 1.019944134597594143e+01 1.938938003140167154e+01
-3.609811304046839364e+00 1.047221399645403928e+01 1.951395252136741121e+01
-2.056986086598168839e+00 1.120284328772319782e+01 1.995608966358239300e+01
-5.406788353658733115e+00 9.786562275108263265e+00 1.919533763659105574e+01
-4.952312235669949381e+00 1.021015468250896063e+01 1.936262295447298243e+01
-1.271386766312157413e+00 1.124220587360458090e+01 2.005288870530167955e+01
2.140911662919494862e+00 1.046317970443498169e+01 2.025613074278551196e+01
8.409677740775602928e-01 1.125462314968063282e+01 2.034963071951739977e+01
-2.646830716429506403e+00 1.156004693064914335e+01 2.008263903119248184e+01
1.491006635894366106e+00 1.085877154488017560e+01 2.030283238913774468e+01
2.982319150551504539e+00 1.005722474205900419e+01 2.027420632482940732e+01
-4.497836421164456588e+00 1.063374812622259391e+01 1.953170738013584185e+01
-4.033382363559740114e+00 1.105255737798590765e+01 1.975552568164129852e+01
-9.318261739029639612e-01 1.161777958397608046e+01 2.025252782064042378e+01
-1.724731380315293716e+00 1.164872675315984374e+01 2.018593325306634867e+01
-3.568926708224759103e+00 1.147136695720318755e+01 1.997934477119892804e+01
2.985683104371208874e+00 1.060144374999999961e+01 2.050289365338903735e+01
-5.840584339297157257e+00 1.037178642145622476e+01 1.938263559727995400e+01
-1.787904930946065118e-01 1.194143485415062678e+01 2.052932190927161926e+01
2.335674385022815880e+00 1.099707477037959436e+01 2.054959917125112767e+01
-5.385872745685088780e+00 1.079528235287815185e+01 1.954946221401773343e+01
-6.366222351611884989e+00 9.919878418392826802e+00 1.919319252863392222e+01
1.685841663751591168e+00 1.139260534306598061e+01 2.059629475717561675e+01
1.035445162012769593e+00 1.178847464428351977e+01 2.064303014149465909e+01
-3.147241346501586712e+00 1.197556042627051021e+01 2.024233993799301956e+01
3.766900657130126007e+00 1.016134091169874054e+01 2.053285126548582085e+01
-4.921269978454424709e+00 1.121405803815579461e+01 1.977327451617307830e+01
-4.456663537141850817e+00 1.163257669018723206e+01 1.999696854717588934e+01
-1.392665756079302763e+00 1.209435312231424398e+01 2.041564444112854559e+01
-2.398892724381917585e+00 1.227311681151632961e+01 2.043114830957336991e+01
-3.992057731827733047e+00 1.205109731139375562e+01 2.022066395196180011e+01
2.898789992062583032e+00 1.108409259944970948e+01 2.074179706775815291e+01
3.670849240599867613e+00 1.086080679628663859e+01 2.085218852360852537e+01
-6.274290005994155095e+00 1.095688437499999957e+01 1.956989118352441892e+01
-6.799950872327269025e+00 1.050506513663277453e+01 1.938046081281840927e+01
7.366002923507211086e-01 1.232588676875017164e+01 2.089168092694642098e+01
-8.821147411043308573e-01 1.252981770249986049e+01 2.074010235613492981e+01
-3.406411015212796656e+00 1.245211029674356951e+01 2.044667262568085420e+01
2.811901354274544573e+00 1.156665894324990163e+01 2.098065985530816846e+01
-5.808975047374092426e+00 1.137609632037080587e+01 1.979149184274181295e+01
1.570155924123814550e+00 1.203674057565209843e+01 2.091521182893474418e+01
-5.746922148481639625e-02 1.249825311578188547e+01 2.085735958829082293e+01
-6.573494367171447195e+00 1.156344591266822341e+01 1.987988853257258981e+01
-5.344707257346986040e+00 1.179436588656899332e+01 2.001484153728195636e+01
2.179375890615724121e+00 1.186605066146907461e+01 2.097977270593809251e+01
-1.702036737862029359e+00 1.259717029989206694e+01 2.066010272307489970e+01
-4.880534594110041979e+00 1.221254833986352040e+01 2.023835248874567228e+01
-4.415613704673556406e+00 1.263140339401600976e+01 2.046222349703284848e+01
3.468499560398921933e+00 1.149899867889600280e+01 2.114169548312559499e+01
-7.128692769592827716e+00 1.119501534711709567e+01 1.969153676860046431e+01
4.376154269168056055e-01 1.286354776809786671e+01 2.114044708200983891e+01
-2.809590502948214219e+00 1.284929489327711138e+01 2.070679708765959859e+01
-3.713392026144829994e-01 1.296547126168028186e+01 2.106470095196671011e+01
-3.968668169420987990e+00 1.300014803213565884e+01 2.069518619439412177e+01
4.356460851789404565e+00 1.112029629653829588e+01 2.120165325026343339e+01
-7.768653760768084560e+00 1.072510893365955731e+01 1.949607234054467142e+01
2.104065004503194114e+00 1.228463023596983561e+01 2.118698131823063591e+01
1.270737462172924159e+00 1.257390238062609633e+01 2.116358136263255219e+01
2.724933206180327971e+00 1.204961577269954276e+01 2.121971613221260355e+01
-1.388926905008224244e+00 1.320085304371836266e+01 2.105274039276498144e+01
-7.427157298114257955e+00 1.180088047216661806e+01 2.000118028874643983e+01
-2.011382968771246560e+00 1.309994258977495107e+01 2.090453969385751520e+01
-5.876336140725206825e+00 1.219070858762036558e+01 2.021236617547020487e+01
-5.435048266036745623e+00 1.288146828815584399e+01 2.057677171259683391e+01
-4.677936995029621237e+00 1.317930835668592060e+01 2.075608570124643748e+01
4.240777292907662144e+00 1.176430579300240353e+01 2.152053693684843694e+01
-6.872137591842789384e+00 1.216887010362271937e+01 2.018930634385800005e+01
-7.982180209914230495e+00 1.143289001377351077e+01 1.981284520616177502e+01
1.804880281731576108e+00 1.282191978437071889e+01 2.143548280715130261e+01
2.637967795102592383e+00 1.253251250000000105e+01 2.145874284554984612e+01
1.389224988364544111e-01 1.340068124999999988e+01 2.138896939411403864e+01
9.723472534217616481e-01 1.311114324332720926e+01 2.141223840639244713e+01
-2.754227528985770057e+00 1.329936800791305984e+01 2.095208765504291293e+01
-3.522474119117364300e+00 1.336827062610519690e+01 2.092775592935365125e+01
5.042941752934030575e+00 1.138006856115004517e+01 2.155144912221913245e+01
-8.573456498705231965e+00 1.111856291894184601e+01 1.968502479512716263e+01
3.439486579007063671e+00 1.214832985082038164e+01 2.148964584570752478e+01
-7.838158630674557648e-01 1.363536615435912402e+01 2.139034596676310684e+01
-5.590401952539099995e+00 1.340287324540301483e+01 2.085847246435582392e+01
-7.726042333536796036e+00 1.240667732985828486e+01 2.031079041656389350e+01
-8.281063126061290802e+00 1.203856476485584714e+01 2.012239982958378093e+01
-2.320378007319781055e+00 1.360214015122977038e+01 2.114869771670111120e+01
-3.076333282399149383e+00 1.373634720513109642e+01 2.116029662025356117e+01
-6.294930122137898820e+00 1.264004794777144269e+01 2.043901617367493628e+01
-4.008151524383309905e+00 1.373147281998523184e+01 2.110495759357443646e+01
4.159894015979044291e+00 1.237284017541844428e+01 2.187816496692460433e+01
4.961652848415537775e+00 1.198918249990220275e+01 2.190909437825468586e+01
-8.836314886060934626e+00 1.167094400261934872e+01 1.993405997834839738e+01
3.331400772112690145e+00 1.295973127570989902e+01 2.196648885399866202e+01
2.498012870097639837e+00 1.308920806047674468e+01 2.179522458858496137e+01
1.560908822505075566e+00 1.341487948136810182e+01 2.176914820440911313e+01
6.238068582024280939e-01 1.374054878414956704e+01 2.174306490063620245e+01
-1.706423079654127095e+00 1.387002024663416755e+01 2.139172316476765090e+01
-4.939965944604153947e+00 1.372659901562140128e+01 2.104961933606627156e+01
-6.452833542350966844e+00 1.313112905522807417e+01 2.069113538922189122e+01
5.597808371869704480e+00 1.171003806609245856e+01 2.196969774904391670e+01
-7.171023993054869372e+00 1.277478791131766478e+01 2.049897803634238258e+01
-9.426782284384346511e+00 1.135625649511267454e+01 1.980589550228200579e+01
-5.861657760333950640e-02 1.393105589287798374e+01 2.172300895530492326e+01
-2.629684545457964262e+00 1.410484062499999958e+01 2.139310068577688284e+01
-5.703930727366677722e+00 1.391389941406761999e+01 2.113540903600818055e+01
-6.263403258761558234e+00 1.363769919993267443e+01 2.097222548382053375e+01
-4.386089402706445206e+00 1.414077728853247784e+01 2.131421315675119033e+01
-8.579942733811174449e+00 1.264423942115660715e+01 2.043195547251545108e+01
-9.134556130379031913e+00 1.227634431501749290e+01 2.024348844221872312e+01
4.170660407092555033e+00 1.284024442796703802e+01 2.217754089483966951e+01
1.108468931494902776e+00 1.408025587381905197e+01 2.209699332103471647e+01
-1.062482060486304114e+00 1.424573677809783057e+01 2.176577114504797805e+01
-3.574864216587877674e+00 1.434415226903291263e+01 2.147457298523868019e+01
-5.202301685145305221e+00 1.427452965023931952e+01 2.134349702448939823e+01
4.880430510607696171e+00 1.259813542884423043e+01 2.226668324377463293e+01
6.153511897498993299e+00 1.203997699556985523e+01 2.238813379621639399e+01
-8.024892583047686045e+00 1.301242642749175715e+01 2.062037763954815972e+01
-9.688969763547799374e+00 1.190858382488330669e+01 2.005489759624463630e+01
-9.164742916810840967e+00 1.080423640572714561e+01 1.955703330668286100e+01
2.357976982038398450e+00 1.364620269215531678e+01 2.213188843228741831e+01
-2.134984561913940038e+00 1.445967068681552092e+01 2.172646972333452098e+01
-6.968998233435592660e+00 1.374081457561102937e+01 2.101398529258900538e+01
-4.520696025065169543e+00 1.458362995168117493e+01 2.155610282964714841e+01
-7.469860424394424214e+00 1.338060294309463316e+01 2.080859868573242011e+01
-1.024341613490468994e+01 1.153948705968052124e+01 1.991889402451005608e+01
-9.981332402026829698e+00 1.098729761345165024e+01 1.966994704780840664e+01
4.261169187837479666e-01 1.427093504276087721e+01 2.207707910653471117e+01
-2.822892413576812753e+00 1.461777518356679195e+01 2.174930543611981548e+01
-5.966233053631367689e+00 1.446198351014493966e+01 2.142937182810749519e+01
-6.467895339204052796e+00 1.410119892334292580e+01 2.122119856444668784e+01
5.793875906392242925e+00 1.248398177311130652e+01 2.253657325585565374e+01
-8.165022907399496432e+00 1.359470922129799497e+01 2.097847025371448737e+01
-8.720071245473697275e+00 1.322653080322146835e+01 2.079006489493701082e+01
-9.274899850617504882e+00 1.285837752590648186e+01 2.060147240200749508e+01
-9.829311182856809381e+00 1.249014439609782379e+01 2.041261947760384743e+01
4.024598883069836042e+00 1.338766768405698926e+01 2.247402717247431880e+01
3.121358400895261731e+00 1.379539606412175345e+01 2.247128801438628543e+01
2.217913393744176620e+00 1.420328326167053135e+01 2.246860514102062467e+01
-2.562253458682873242e-01 1.446161125312356077e+01 2.205716343066572449e+01
-1.640381720580583735e+00 1.481442931560029663e+01 2.205977171091993583e+01
-5.464729907104853623e+00 1.482265312500000043e+01 2.163747890794337181e+01
5.550578884711306671e+00 1.296167859319426086e+01 2.274983695557993002e+01
1.593267342010755039e+00 1.442005315256688291e+01 2.245101587092935702e+01
-1.039194342570763929e+01 1.218823373418602962e+01 2.028438630952974009e+01
4.799283244144223026e+00 1.320663394427810644e+01 2.262403262745840493e+01
-9.248906457720279528e-01 1.470122971335271522e+01 2.210650985013264958e+01
-3.850457669397221672e+00 1.493537405771180815e+01 2.187990387080843746e+01
-7.603970890220177914e+00 1.392073617990995871e+01 2.115251636205333341e+01
-2.328266902036243202e+00 1.497263534936475082e+01 2.208268697346998621e+01
-1.104071340684730806e+01 1.183128954837357050e+01 2.016522848858829775e+01
-1.079793672187482123e+01 1.117035834430711461e+01 1.978261120522612870e+01
4.562111410739234652e-01 1.473790568274703894e+01 2.241791242281604468e+01
-4.539449347890106568e-01 1.499245868031136197e+01 2.239150293091653765e+01
-7.103047391244079023e+00 1.428126955896903816e+01 2.135809299370494330e+01
-4.948746268284987870e+00 1.515590698690225757e+01 2.193246628725085401e+01
-6.312097882991526632e+00 1.506295368900853227e+01 2.181947036509861704e+01
2.077988779958779730e+00 1.476024001304523736e+01 2.280497624762419662e+01
-8.860204727863388641e+00 1.380882150383818541e+01 2.114817561803205948e+01
-9.415253382254713088e+00 1.344077430236315074e+01 2.095967594285861324e+01
-9.969854515804509987e+00 1.307251410840003203e+01 2.077083890336131233e+01
-1.072972902438008447e+01 1.276465262133254086e+01 2.065690440900672442e+01
-1.109562188955178463e+01 1.246816428069006655e+01 2.051387092929045508e+01
4.718067377884848312e+00 1.381566418965013199e+01 2.298171437385268234e+01
3.838615180773187863e+00 1.413035970451382894e+01 2.292284681721030637e+01
1.168658901981200815e+00 1.501419949717829638e+01 2.277866064713998284e+01
