-1.733854760582734400e+01 7.871099736973705241e+00 2.826669491565689540e+01
-1.589465666908807862e+01 1.094011882474499053e+01 2.351300108330080008e+01
-1.725295065089964908e+01 6.743134879337294940e+00 2.952475774802461927e+01
-1.722640118710060975e+01 7.310561670795570954e+00 2.926745259579630343e+01
-1.471410329081752266e+01 1.203655644952968196e+01 2.244923817083188666e+01
-1.355496996013922306e+01 1.252410456588619425e+01 2.187538451181634969e+01
-1.290907745811060714e+01 1.292094723228608544e+01 2.180148562875291773e+01
-1.240119458061245616e+01 1.299781506120445940e+01 2.160015681356293626e+01
-1.711522576337156565e+01 9.164159660043024402e+00 2.609461484297479927e+01
-1.657135473816783744e+01 1.015555896323649065e+01 2.471675995647624191e+01
-1.675562971186923278e+01 1.019388088219926836e+01 2.550648418728083300e+01
-1.697529216853598655e+01 9.574530734294196321e+00 2.585434776079146246e+01
-1.622555221895042976e+01 1.088419557938333071e+01 2.433144721357242446e+01
-1.734692755123740326e+01 8.516021251897537780e+00 2.719474702108888664e+01
-1.464477401777166499e+01 4.516135222915834468e+00 3.380038001833018768e+01
-1.492230580049665001e+01 5.162895881894180583e+00 3.356992450011926366e+01
-1.447079794580752576e+01 5.080118168399399003e+00 3.429243767835030354e+01
-1.401635957389546050e+01 3.069802905220313960e+00 3.424133177799976124e+01
-1.719983145345911879e+01 7.877953075963510798e+00 2.901026632412449047e+01
-1.733805010353719211e+01 8.428859056260300520e+00 2.801335908394597496e+01
-1.692621026816336993e+01 6.699222298179594581e+00 3.024592001926252038e+01
-1.321369207050802075e+01 2.189670070894207843e+00 3.518449927574503988e+01
-1.304188330202660495e+01 9.135730267478169297e-01 3.487673781284356522e+01
-1.433035668321287659e+01 1.244444037585010321e+01 2.235814414937523864e+01
-1.689103487136119597e+01 1.036973620490791248e+01 2.621866247494180513e+01
-1.721657226552900966e+01 9.167676370591781421e+00 2.686113928889157876e+01
-1.564645908915525574e+01 5.922517216311701027e+00 3.260868826268836074e+01
-1.474369160772568854e+01 5.752080473484388889e+00 3.405313182400782068e+01
-1.415647140519696201e+01 4.366794099146815711e+00 3.451316415658566683e+01
-1.384205715628780631e+01 3.649364818841190239e+00 3.473469930656943916e+01
-1.659947769038888765e+01 6.655268032545144763e+00 3.095622073072981806e+01
-1.722028985531130019e+01 8.394313267143704849e+00 2.865950480048476123e+01
-1.708758548021852164e+01 7.317518490395160669e+00 3.001361287460254346e+01
-1.676082776614019210e+01 7.273278590638977192e+00 3.073297516773214966e+01
-1.352776146953108771e+01 2.918019480730913884e+00 3.495984451739023058e+01
-1.557485482470904437e+01 1.143951133560810618e+01 2.331878575882178239e+01
-1.502443804142613715e+01 1.225036684612766535e+01 2.297674766895577037e+01
-1.653585303873213164e+01 1.081328412404539385e+01 2.515854354592280728e+01
-1.708620236593237252e+01 9.819238335183399613e+00 2.652771885616900249e+01
-1.519509977520674582e+01 5.837504302094279396e+00 3.333086633036526791e+01
-1.393720002182920759e+01 4.933945321482966939e+00 3.498812786644395345e+01
-1.625949900578740781e+01 6.625560165428220571e+00 3.166257627948080611e+01
-1.591954437434893954e+01 6.595868431114491059e+00 3.236911464845415054e+01
-1.706108821040641743e+01 7.884805648654209520e+00 2.975558460325850518e+01
-1.719885196709041963e+01 8.993428654203908579e+00 2.849801252893449544e+01
-1.718270122870110939e+01 9.189502317851834690e+00 2.771882238335044235e+01
-1.692227780098455270e+01 7.891660899046131661e+00 3.050357134240405443e+01
-1.285467143862835648e+01 1.459552664351246642e+00 3.539836284956655277e+01
-1.583823058844583898e+01 1.158323868723357641e+01 2.396252281118789895e+01
-1.525505076240447799e+01 1.193871071335179934e+01 2.312445421297908865e+01
-1.394631812257458670e+01 1.285235789077060886e+01 2.226810213268549177e+01
-1.343534187727444795e+01 1.322576977127938491e+01 2.224619242684597253e+01
-1.669586034516175133e+01 1.092012334341732682e+01 2.590974249103033955e+01
-1.704474057868581127e+01 9.895152657661325790e+00 2.726314359328380732e+01
-1.426031700173299477e+01 5.658795232271948805e+00 3.475398832228963641e+01
-1.362292772206979841e+01 4.221277849818939387e+00 3.521292835727582826e+01
-1.642077814032442618e+01 7.243753078846522087e+00 3.143920708877084635e+01
-1.330882659426335302e+01 3.498157319371524743e+00 3.543738546505441178e+01
-1.299481295951444970e+01 2.767966683019466689e+00 3.566134382876963826e+01
-1.546811416368474390e+01 6.511175260101261131e+00 3.309135237260561269e+01
-1.707756010338546204e+01 8.698507376864871077e+00 2.928614521473717147e+01
-1.275470699191403234e+01 2.043815729033284789e+00 3.575254815003740561e+01
-1.423200354239738630e+01 1.327526377119310652e+01 2.293753346153495798e+01
-1.495048545366907433e+01 1.287356387823673565e+01 2.340857865141015637e+01
-1.541185201990429121e+01 1.224934877196579208e+01 2.370366288827440826e+01
-1.636294532167281801e+01 1.117780383254540233e+01 2.496595153908753417e+01
-1.607235487798197227e+01 1.170240833213646781e+01 2.468907865392392154e+01
-1.697225120797320486e+01 1.038033502710407774e+01 2.701034983596685635e+01
-1.675258327942134429e+01 1.099999257877682801e+01 2.666279730678872539e+01
-1.650033888172271901e+01 1.147136658110971297e+01 2.560042485424798997e+01
-1.501669291559644570e+01 6.426483530658903653e+00 3.381375528556926469e+01
-1.453862311936529217e+01 6.436568350735942801e+00 3.453271198885751403e+01
-1.608078069570089497e+01 7.214017123484162575e+00 3.214573969257676112e+01
-1.308974461155719382e+01 4.076746218401734900e+00 3.591428927496916401e+01
-1.277560015743870281e+01 3.347689991135220033e+00 3.613841377461638871e+01
-1.708828986269649164e+01 9.527155989245041923e+00 2.833733853168095962e+01
-1.700329178622420656e+01 9.971058503044293531e+00 2.799831333451987447e+01
-1.692166628555048291e+01 8.635613503475612518e+00 3.015573916290022893e+01
-1.658203623676027405e+01 7.861856463440160425e+00 3.121601033433904604e+01
-1.292511320900662675e+01 1.359846935470633333e+01 2.222121800668794123e+01
-1.578176343949287386e+01 1.222684405658893603e+01 2.441227942273273754e+01
-1.372700426939066887e+01 5.509941934167065014e+00 3.545221636193264914e+01
-1.340380905090079722e+01 4.788045050806762681e+00 3.569030659387949100e+01
-1.574067110568178585e+01 7.184751847147126114e+00 3.285277626981251586e+01
-1.253542471408484005e+01 2.622379082013582607e+00 3.622970853644012834e+01
-1.705967056697575046e+01 9.557973554448503606e+00 2.898323313413607849e+01
-1.692104387879573935e+01 9.379218654924025955e+00 2.981186653143202037e+01
-1.677176407240529699e+01 8.470515801757890983e+00 3.097165725219950971e+01
-1.341358626244181096e+01 1.362734369536071277e+01 2.258376406137455561e+01
-1.387312469606971277e+01 1.330957892491677086e+01 2.261903649212605316e+01
-1.624207791841025639e+01 1.193757179208302155e+01 2.535417479210997627e+01
-1.694169215464248524e+01 1.041224200983180204e+01 2.765754815595936833e+01
-1.685832969880769738e+01 1.094139043001120370e+01 2.749271473004449717e+01
-1.528956918872484394e+01 7.100052802310734990e+00 3.357452961702176708e+01
-1.405008512881774330e+01 6.239101263159740896e+00 3.521506074584090129e+01
-1.490319995184406032e+01 7.024811412795905596e+00 3.413459203580955403e+01
-1.624199448895589626e+01 7.832082965741410163e+00 3.192241981578732180e+01
-1.255674298080547935e+01 3.928304192704699549e+00 3.661434314562529124e+01
-1.287067666611206462e+01 4.642482772043216244e+00 3.639071371202391703e+01
-1.590211471523580755e+01 7.802337664070376100e+00 3.262882644950747846e+01
-1.675214618829060953e+01 9.334155278666353084e+00 3.066436887525093269e+01
-1.643168827886663408e+01 8.440638197679470878e+00 3.168974097020214842e+01
-1.380004363596412809e+01 1.376604620481569441e+01 2.296958522653513057e+01
-1.598384969687908175e+01 1.240358999040159915e+01 2.510800201551831989e+01
-1.686074402649389015e+01 1.074827387987694394e+01 2.827373581401566227e+01
-1.696185477022286392e+01 1.004695755834003812e+01 2.873299737470406257e+01
-1.692041067610541560e+01 1.012288206979094163e+01 2.947009520104732516e+01
-1.422648842355537369e+01 6.893638839802445517e+00 3.511566795528771223e+01
-1.456989051679706826e+01 7.059672338686652893e+00 3.464289162410120326e+01
-1.220173090624990841e+01 3.164400287613616136e+00 3.684772234969521776e+01
-1.319368884893853888e+01 5.361451853857302829e+00 3.615366811353396770e+01
-1.662134248439180695e+01 9.049098240512648772e+00 3.144142705412548011e+01
-1.674435101015803440e+01 1.150283023842424690e+01 2.797512107669415826e+01
-1.672697330608555433e+01 1.141768170937575100e+01 2.879394784570746424e+01
-1.677038926498448390e+01 1.014371977609878428e+01 3.019896388735585901e+01
-1.682371558263605138e+01 1.077019042128580217e+01 2.913128388831833604e+01
-1.556208609956217082e+01 7.772590208198637995e+00 3.333568835871380998e+01
-1.478971928071116260e+01 7.622893007682381317e+00 3.445546218804017968e+01
-1.517588834223082017e+01 7.697721455445953431e+00 3.389558702789694422e+01
-1.440288429874327392e+01 7.547972455476452680e+00 3.501631499634441269e+01
-1.198317202334920673e+01 3.744353694285531553e+00 3.732312939199714208e+01
-1.609176672860125379e+01 8.410893790218063160e+00 3.240396748652176484e+01
-1.659830794109261021e+01 9.650447035847523836e+00 3.127484205712841714e+01
-1.662042296297294186e+01 1.016455283917734143e+01 3.092766150850858509e+01
-1.678400359182111501e+01 1.069079558410278175e+01 2.993238790057253951e+01
-1.666449470119692222e+01 1.144823636307109815e+01 2.963025348553099292e+01
-1.575170542811213892e+01 8.380911032209027667e+00 3.311008942693064938e+01
-1.351683112598831293e+01 6.090597654965746344e+00 3.591609766139620064e+01
-1.383990478727907458e+01 6.818578632769006553e+00 3.567772229254430982e+01
-1.233800777223659928e+01 4.497387017458549963e+00 3.708973551639923727e+01
-1.266049613864368695e+01 5.212489361073622263e+00 3.685363303655020673e+01
-1.628138607531904114e+01 9.019356036236187535e+00 3.215819185945807845e+01
-1.647093054471658036e+01 9.627744985715905202e+00 3.191266162398493478e+01
-1.535175126313041183e+01 8.345631048691572573e+00 3.379200073708100405e+01
-1.401631138772966345e+01 7.473140673613607454e+00 3.557679622760050364e+01
-1.496550150752892350e+01 8.271026757105724769e+00 3.435188978758919376e+01
-1.462232609694579466e+01 8.105178361745878135e+00 3.482482609561171927e+01
-1.330663155130393172e+01 6.670471017407062497e+00 3.637989071337113955e+01
-1.298358432765113513e+01 5.942173506340489908e+00 3.661690791772042530e+01
-1.181243050899914770e+01 4.353840901129609087e+00 3.754877082501072749e+01
-1.647040117418809402e+01 1.018539601459210253e+01 3.165672206718633674e+01
-1.665543929817858171e+01 1.066919111954752175e+01 3.057149682531832369e+01
-1.594144331463426312e+01 8.989624626401303331e+00 3.287568239757268884e+01
-1.554136669046724961e+01 8.954332559368280542e+00 3.356810852204078088e+01
-1.428919616020990446e+01 8.139872626950269918e+00 3.533223398114102309e+01
-1.362954487767051681e+01 7.398313123173894112e+00 3.614234691286635837e+01
-1.650909868677033643e+01 1.098042295764116716e+01 3.117667732796925861e+01
-1.664764282346661517e+01 1.125867009719572209e+01 3.039506595795029398e+01
-1.514128057018895746e+01 8.919060700835387934e+00 3.424961663020591374e+01
-1.465333189620298526e+01 8.722294298967501192e+00 3.493108132050791426e+01
-1.390259229314895961e+01 8.065113171325659636e+00 3.589273019470359571e+01
-1.613108746156316897e+01 9.598095155393211897e+00 3.262861811978901017e+01
-1.573116711042434268e+01 9.562506949573005954e+00 3.332058636212384783e+01
-1.632059493374447712e+01 1.020621028948010078e+01 3.238482416975725187e+01
-1.200561324145322573e+01 5.050311557497789039e+00 3.741761231469784832e+01
-1.232736103981071452e+01 5.883602757280081086e+00 3.718917465002334666e+01
-1.128632119896383657e+01 4.210310520894644526e+00 3.800830161208968150e+01
-1.310489263403711746e+01 7.265528283200277215e+00 3.659514250996924289e+01
-1.278210251692207855e+01 6.537714871190712707e+00 3.683209319143389138e+01
-1.533112393943697249e+01 9.527077726384437284e+00 3.401337556209071522e+01
-1.417554305583916019e+01 8.731647973465737067e+00 3.564877588420527132e+01
-1.592093479469942885e+01 1.017064111247823632e+01 3.307574483625650430e+01
-1.608992626770446321e+01 1.076434259229956503e+01 3.281008139593053841e+01
-1.147955552078644637e+01 4.906669186294864815e+00 3.787720678987260214e+01
-1.633876593068602290e+01 1.093553892171378372e+01 3.202952824262106191e+01
-1.329647694675561809e+01 7.930590275225608998e+00 3.646734584493736264e+01
-1.493121526513583675e+01 9.491436942477390559e+00 3.470735252850869301e+01
-1.444830087458217882e+01 9.397726678623453012e+00 3.540637834672669726e+01
-1.356466113302824006e+01 8.696396694348285550e+00 3.623025030413669612e+01
-1.552093593282359585e+01 1.013506292535767095e+01 3.376733058104008478e+01
-1.232250554186133940e+01 6.522681821428133020e+00 3.723473999043034866e+01
-1.167279251702645837e+01 5.612541677126860584e+00 3.774609684613420768e+01
-1.258062621483374421e+01 7.132893264108076892e+00 3.704737961864736207e+01
-1.512107888984365367e+01 1.009951285128693677e+01 3.445884495724553886e+01
-1.396388235626982954e+01 9.290156474385375063e+00 3.586515466702080346e+01
-1.568991863387704200e+01 1.072929144735074658e+01 3.350147176244296787e+01
-1.088859975249734191e+01 4.744964745714487009e+00 3.839351035097912757e+01
-1.186443859757532948e+01 6.306459199410839211e+00 3.762292940861837565e+01
-1.296360963867251392e+01 8.462438739338065119e+00 3.679742181884913776e+01
-1.277211457345783963e+01 7.797678928070040705e+00 3.691987208042360180e+01
-1.205607860286755972e+01 7.000243430796886379e+00 3.749966165484734404e+01
-1.472111675354470073e+01 1.006397244021064807e+01 3.515094717515506062e+01
-1.534015202888173768e+01 1.077635970713425095e+01 3.410963609314756440e+01
-1.101605152926883591e+01 5.432118792247183414e+00 3.831999990387984667e+01
-1.134048404509422703e+01 6.174431471237517677e+00 3.807428917906999999e+01
-1.423654518571075300e+01 9.956244281305266952e+00 3.561621888720692652e+01
-1.311559582664739310e+01 9.101679037587933507e+00 3.666873228410737795e+01
-1.231415112158120273e+01 7.582851568161239619e+00 3.730919459086882028e+01
-1.230917584382411256e+01 8.194196780494554133e+00 3.735135979300327591e+01
-1.494667301692475903e+01 1.085660264955294174e+01 3.479507844400632877e+01
-1.353490583350784249e+01 9.293098633531601038e+00 3.627413777632725100e+01
-1.068400416543005882e+01 5.993872694945014068e+00 3.864814381178028668e+01
-1.263113878193254180e+01 8.993599212518478936e+00 3.712771972052691183e+01
-1.185458136553871533e+01 7.565182783095144359e+00 3.771183676303547827e+01
-1.165310914352401284e+01 8.130018512368140549e+00 3.792396778932430124e+01
-1.197554461430297934e+01 8.827615868140338051e+00 3.769022209577170202e+01
-1.375224547476144110e+01 9.848605088280674380e+00 3.608198287483533306e+01
-1.555272070622166147e+01 1.124836363173715448e+01 3.376382034449139269e+01
-1.326758494588072068e+01 9.740913365348669473e+00 3.654148717921263767e+01
-1.400766656486078254e+01 1.047876263509333228e+01 3.601018856934765466e+01
-1.153212785851422595e+01 6.867805414691621202e+00 3.795125497266733561e+01
-1.035930527380749133e+01 5.251779811095643957e+00 3.889395307179410111e+01
-1.100841883496652507e+01 6.735496980529804389e+00 3.840248577028226862e+01
-1.449201676595156663e+01 1.058664766228119269e+01 3.554580660347097876e+01
-1.278324303468069623e+01 9.633324600041861530e+00 3.699999207888189545e+01
-1.517212998824969006e+01 1.164887267696882311e+01 3.444277821664682904e+01
-1.357161778868853119e+01 1.028806367468682659e+01 3.640007252843007279e+01
-1.050510034781919266e+01 6.586006900156917254e+00 3.884253273798641004e+01
-1.459963628240376465e+01 1.115414752410655908e+01 3.538147037696113273e+01
-1.133076829466120650e+01 7.432713960072583781e+00 3.816359960550022379e+01
-1.115016626560928792e+01 8.596335858990237000e+00 3.838044408642652172e+01
-1.229813116008701002e+01 9.525598167217594892e+00 3.745933745828637740e+01
-1.479759602444339350e+01 1.165938142447572368e+01 3.506641694222211214e+01
-1.315970895239208360e+01 1.029045795086119064e+01 3.682415348053649495e+01
-1.364522256565502722e+01 1.087628309604983734e+01 3.650394957326525969e+01
-1.003405702998797899e+01 4.510867750572233881e+00 3.914013286062271391e+01
-1.101829244438363098e+01 7.952078397022730449e+00 3.845913467612242442e+01
-1.179047148239132348e+01 9.383215045977012281e+00 3.788148823595008707e+01
-1.426310337046573729e+01 1.110887853328747887e+01 3.594102641529519815e+01
-1.069595216268276516e+01 7.254863445232771824e+00 3.869777597492279142e+01
-9.865293276454211835e+00 5.750759664188167086e+00 3.936349668208642072e+01
-9.676580044436290606e+00 5.049445658847324658e+00 3.949036356178334728e+01
-1.000154936331350441e+01 6.436480035866758875e+00 3.928244181615414021e+01
-1.128204953579659886e+01 9.240635532844553524e+00 3.830436304157788641e+01
-1.443234511797414399e+01 1.170298699008620957e+01 3.567567186440009408e+01
-1.267513733472293680e+01 1.018302793602352629e+01 3.728912322742972663e+01
-1.305185739434139869e+01 1.083993498255153298e+01 3.710205463365407752e+01
-1.019249488412875948e+01 7.105234642888047070e+00 3.913785028605795446e+01
-1.188513017195228905e+01 1.015129068917849153e+01 3.786967525377452404e+01
-1.057887211877245726e+01 8.436179354832136212e+00 3.886164537273998576e+01
-1.499977740258156977e+01 1.236887743164367848e+01 3.475114631901377038e+01
-1.342846083014936198e+01 1.149662227280908766e+01 3.691698416102366309e+01
-1.403414401655733990e+01 1.163121014362328864e+01 3.633675085683115924e+01
-1.255352162604406097e+01 1.098002488256499198e+01 3.749251704062599089e+01
-1.038345112736073972e+01 7.774179781963608704e+00 3.899319368865371871e+01
-1.077429992594236197e+01 9.098263549298136965e+00 3.872978008951153583e+01
-1.460158004589223424e+01 1.229707456566419133e+01 3.541152174429853972e+01
-1.380519344201311505e+01 1.215352611391193349e+01 3.673274691181419627e+01
-1.311830275862814688e+01 1.196515953160814050e+01 3.721575410187936939e+01
-9.298114779018106901e+00 5.582586545782433518e+00 3.985868673751471647e+01
-9.497477167700182576e+00 6.286827215559533499e+00 3.972254854008176039e+01
-9.493448155201756222e+00 6.823500652818658807e+00 3.974563146862092111e+01
-1.100851918326241830e+01 9.997729381962999540e+00 3.860643195503326552e+01
-1.201613597538741374e+01 1.099624497478622409e+01 3.789422103386317531e+01
-1.243193496449066160e+01 1.177695905744557692e+01 3.769840170272317437e+01
-9.753458469034447020e+00 7.587091140829659963e+00 3.954367978142942519e+01
-1.147237984122275378e+01 1.077652153895401987e+01 3.826688002709551029e+01
-1.007087013878628312e+01 8.293574409937468417e+00 3.928878696607419130e+01
-1.420363857489656745e+01 1.222533595146232699e+01 3.607158640395316240e+01
-8.992969383376689052e+00 6.137074460973185985e+00 4.016283548516275204e+01
-1.026580905914189223e+01 8.955703582006268704e+00 3.915793114578958267e+01
-1.174558520784746385e+01 1.158879073699830187e+01 3.818105600565996838e+01
-4.416944865180486013e-01 8.006660699584227103e+00 1.909386825913761854e+01
-9.333603657660215561e-03 8.452148212557899498e+00 1.926560327076094481e+01
4.553556712052458932e-01 7.962230604475634799e+00 1.918160068570711729e+01
-3.953757633671771132e-01 7.479417609235200715e+00 1.900779694524388930e+01
5.756479621216059606e-01 8.555006516962475160e+00 1.936782302560455449e+01
-9.068002206287089084e-01 8.496821268303694552e+00 1.917788965823966407e+01
-1.338793171527929537e+00 8.050974400259205410e+00 1.900613242928272228e+01
-4.747838011090231292e-01 8.942666530954964443e+00 1.935005671158829443e+01
-1.071033980852619250e+00 7.215785097515318824e+00 1.889049018175338546e+01
6.961124024478467787e-01 9.148596061549893577e+00 1.955464332530785398e+01
-1.820305881721106411e+00 8.706889310753773259e+00 1.913434811214009912e+01
-1.219062449148031302e+00 8.966844426416082925e+00 1.927370927680268764e+01
-6.200048809062249505e-02 9.587539339467346267e+00 1.958503455661636394e+01
-9.403899508975557264e-01 9.433163652957196277e+00 1.943128649254598983e+01
8.165050447285069346e-01 9.741805220041303670e+00 1.973877171051340795e+01
-1.721414603973520085e+00 9.354626740227219628e+00 1.932387759404625172e+01
-6.088554903040209743e-01 9.955850245678142585e+00 1.961989895644611082e+01
-2.502424230070528832e+00 9.275966173851985630e+00 1.921645358329908504e+01
-1.406223302117185270e+00 9.923713820737029678e+00 1.951076145008631713e+01
4.804477017272372474e-04 1.036118062353671654e+01 1.981056160938666366e+01
-2.186921888729148833e+00 9.844698985284933812e+00 1.940325700418794241e+01
-9.355058163959310003e-01 1.038739771992477401e+01 1.970173895409934772e+01
9.368567615762016798e-01 1.033477981237192722e+01 1.992066644683698939e+01
-1.871426356337610120e+00 1.041341187365943632e+01 1.959291640624999786e+01
1.495303028155387404e+00 9.904912157887636681e+00 1.991079181604384374e+01
-2.766543741843708659e+00 1.005209353713136977e+01 1.944063238145288963e+01
-5.191778882879136692e-01 1.088699304782179311e+01 1.994593098545278309e+01
-1.579357277807684756e+00 1.085919650269383574e+01 1.980073501913979328e+01
5.272706415559338389e-01 1.080054982649336459e+01 2.004570909379763322e+01
-3.208987665587625493e+00 9.188803918233389822e+00 1.915648809271895558e+01
-3.334236352878129139e+00 9.782860125151140451e+00 1.933302370064360431e+01
1.679117267237817401e+00 1.047374578949754031e+01 2.016267756207955131e+01
1.174213947170034827e-01 1.126641943034439919e+01 2.017205891351462910e+01
-2.251045286173351645e+00 1.097374982223002426e+01 1.979395499634973277e+01
1.099453669866576444e+00 1.086606113872006674e+01 2.017067504303772907e+01
2.330828803157579898e+00 1.006098852191847470e+01 2.018319433380308325e+01
-3.897964743516896480e+00 9.264024380610505816e+00 1.914836789868932243e+01
-3.248854134725402520e+00 1.026292557089577429e+01 1.948412258970592958e+01
-2.664985853537854332e+00 1.054815895871001530e+01 1.959873238265380024e+01
-1.286689493328919465e+00 1.130587917018788779e+01 2.000897228597019506e+01
-4.280718818767843104e+00 9.826992897013107964e+00 1.930393052509592522e+01
-3.869626401827239714e+00 1.025437443820609751e+01 1.945356214488432300e+01
-5.917810708710758982e-01 1.135592013262366606e+01 2.011631427828978147e+01
2.422180954453273305e+00 1.061266641659896415e+01 2.040504269851996000e+01
1.262220790221213695e+00 1.139773708162130106e+01 2.042212456104603291e+01
-1.812937644032758921e+00 1.164348768915049881e+01 2.010612353344763292e+01
1.842199966849620951e+00 1.100512820151801563e+01 2.041354696040183470e+01
3.167578421911159570e+00 1.021705580152222659e+01 2.045562459598979288e+01
-3.458527167484688025e+00 1.068242430371494756e+01 1.960454841676619964e+01
-3.044952808972342329e+00 1.110861079935238571e+01 1.979994388192007193e+01
-2.927385061442122627e-01 1.173245904677618867e+01 2.029848449023362988e+01
-9.944352933805755690e-01 1.175191363242927878e+01 2.021690736931136101e+01
-2.631373162420172385e+00 1.153476652015629256e+01 1.999533951001650323e+01
3.164995345844305863e+00 1.075153932821876523e+01 2.064791452734375099e+01
-4.663354222827983619e+00 1.039156200546947417e+01 1.945939641585695767e+01
3.608844693617364596e-01 1.206357213860107258e+01 2.054906019394689665e+01
2.586019704688900411e+00 1.114413012135416103e+01 2.065641887776593677e+01
-4.252064712130754209e+00 1.081884095874192120e+01 1.961036439415832078e+01
-5.139630849193801865e+00 9.934346079243001171e+00 1.930161599936801764e+01
2.005552169648627814e+00 1.153650432119682812e+01 2.066492210252341977e+01
1.424950746811173286e+00 1.192910559739224752e+01 2.067343147307994045e+01
-2.260146271001526763e+00 1.204022899871027086e+01 2.023419717575571042e+01
3.844272245535317989e+00 1.031084391196226413e+01 2.071088550328576261e+01
-3.838386699908236999e+00 1.124425710785326871e+01 1.980575620380630752e+01
-3.424703409212843663e+00 1.166941943024918160e+01 2.000104685704619101e+01
-7.023376343805427524e-01 1.219769091001367478e+01 2.042472256077753201e+01
-1.597378345324203197e+00 1.235021990049250817e+01 2.041567328798379322e+01
-3.011019758632627941e+00 1.209458365630586130e+01 2.019633818972907235e+01
3.094727420678086816e+00 1.123290309457157932e+01 2.085753886897107634e+01
3.764703575027356752e+00 1.100476310223694298e+01 2.099489031530785965e+01
-5.045931316466797156e+00 1.095600937500000072e+01 1.961618281249999995e+01
-5.522208145795679535e+00 1.049888029248959498e+01 1.945596173038742904e+01
1.175233565841240058e+00 1.246285999016222412e+01 2.088909880870171420e+01
-2.430012862318826905e-01 1.264188391613485329e+01 2.072330395885846599e+01
-2.493503849954744389e+00 1.250240570255933115e+01 2.040661241244356461e+01
3.024209017035198954e+00 1.171415696689648733e+01 2.106712737434862248e+01
-4.631643242135344174e+00 1.138187442650545833e+01 1.981179292676517889e+01
1.910090424015891353e+00 1.217877608404292999e+01 2.094477018289060055e+01
4.811519196924380348e-01 1.262319357788379293e+01 2.084340997253991290e+01
-5.319100124396030083e+00 1.154427949536791687e+01 1.987905872337098856e+01
-4.218288105236473129e+00 1.180678209690999836e+01 2.000696321480070239e+01
2.457082411201267913e+00 1.201067310843535374e+01 2.103388064534162893e+01
-9.755563652804478680e-01 1.268681613327188451e+01 2.063351859874949312e+01
-3.805018742359300266e+00 1.223160129378170424e+01 2.020209290354359766e+01
-3.391084896591572750e+00 1.265710378859052376e+01 2.039753648551489817e+01
3.595498960522649945e+00 1.164194067732886317e+01 2.124408023981490601e+01
-5.813331937765807922e+00 1.116744772800405627e+01 1.972005656955861852e+01
9.253787484712054923e-01 1.299679690854929426e+01 2.110486599479123626e+01
-1.960494680768632758e+00 1.290899266112516841e+01 2.064971165110176443e+01
2.165800623568678307e-01 1.308625070286158909e+01 2.102201467771535448e+01
-2.991660752865093809e+00 1.303126209070004293e+01 2.061327338570379553e+01
4.364701750332044661e+00 1.125806898010873347e+01 2.134203468473636889e+01
-6.392593252181848484e+00 1.068958843409913406e+01 1.955502277940184541e+01
2.394835971379314810e+00 1.242805285178649655e+01 2.121569786562643500e+01
1.659679296362222001e+00 1.271231063544314743e+01 2.116015670604722487e+01
2.952202416278977282e+00 1.219577422249349397e+01 2.127688548038263860e+01
-6.916836677352544704e-01 1.329219318007938710e+01 2.098774403921228426e+01
-6.085843966610423372e+00 1.175505294359932584e+01 1.998263030295899512e+01
-1.248797150562118929e+00 1.317573958028841830e+01 2.084229600029730989e+01
-4.698414190087823350e+00 1.218152330196959454e+01 2.017176702880897921e+01
-4.307836050558789154e+00 1.287390292142199932e+01 2.048734042415804524e+01
-3.627787766757227139e+00 1.318525745523193038e+01 2.065001179240845630e+01
4.270800861056089914e+00 1.190044712248595893e+01 2.162185767537132364e+01
-5.591788620665706588e+00 1.213144656675129340e+01 2.014144172291347701e+01
-6.579905294823447548e+00 1.137865850538453927e+01 1.982381852506987840e+01
2.144349302968543647e+00 1.296174788270868738e+01 2.143121537781637187e+01
2.880127361589085666e+00 1.267730697491580827e+01 2.148661748046874820e+01
6.757514854957578088e-01 1.353014889649542596e+01 2.132042148437500018e+01
1.410213055113829439e+00 1.324586304692438610e+01 2.137584856283869783e+01
-1.909287042560507519e+00 1.335451848718115642e+01 2.086748268102070369e+01
-2.592907359781372101e+00 1.340478921622017694e+01 2.082864635415552002e+01
4.969526286431255713e+00 1.151156690689576223e+01 2.168950790503048864e+01
-7.114259364853368517e+00 1.105475807463691496e+01 1.971622738806317088e+01
3.576988611298483889e+00 1.228887637115673037e+01 2.155425153765669677e+01
-1.478505316611586073e-01 1.373801508377874470e+01 2.130014477857589128e+01
-4.448355106728139496e+00 1.337905323687597026e+01 2.073026901105874131e+01
-6.358761545123345016e+00 1.234257992145114358e+01 2.024517486377408559e+01
-6.852801154258133742e+00 1.196606553108565940e+01 2.008631021899330804e+01
-1.521765129075755674e+00 1.366393023995316014e+01 2.105083474448428760e+01
-2.194200952058182441e+00 1.377826965123581537e+01 2.104399240120886461e+01
-5.077540934077517498e+00 1.261165851793308512e+01 2.036242329526866257e+01
-3.029251911224054350e+00 1.374554404108806160e+01 2.097309811446393724e+01
4.200166428882949887e+00 1.249547369628994531e+01 2.192710618708682446e+01
4.896483232967871579e+00 1.210688273710534624e+01 2.199475863227786121e+01
-7.347055481495958773e+00 1.159002850433981635e+01 1.992765870169354869e+01
3.482860583111491604e+00 1.308223610732956921e+01 2.196123969808660448e+01
2.758436625110193052e+00 1.321472994405870338e+01 2.177615308257767879e+01
1.931067517694505131e+00 1.353465652468469216e+01 2.171390980283771199e+01
1.104852554117458308e+00 1.385439285873414761e+01 2.165165863382977207e+01
-9.711969815362514469e-01 1.394542757433944580e+01 2.127987121812980220e+01
-3.864260661136892150e+00 1.371281897865556054e+01 2.090220406563258138e+01
-5.223090298927300701e+00 1.309035175180232891e+01 2.057699931805538540e+01
5.463534514047977630e+00 1.181434286551952617e+01 2.208497323889285013e+01
-5.864729082941265048e+00 1.271909237578375418e+01 2.040403865415548168e+01
-7.880671310393705831e+00 1.126579559324644109e+01 1.981991857854677974e+01
4.996067328638150173e-01 1.403491228908798405e+01 2.160850438554173536e+01
-1.795040474383458928e+00 1.415241740669822690e+01 2.125958232421875138e+01
-4.551291289641663518e+00 1.387519233042783995e+01 2.096945659703132492e+01
-5.053689050177033515e+00 1.359030408913248245e+01 2.082263508272687957e+01
-3.369201311971518287e+00 1.413463391703054661e+01 2.114833341328402128e+01
-7.125721250383183936e+00 1.255347254698292581e+01 2.034880186901606791e+01
-7.619383838075726167e+00 1.217718277331357157e+01 2.019003099649941291e+01
4.208602534633028469e+00 1.295083435621662460e+01 2.218663761998018558e+01
1.533895462737930870e+00 1.417847415685051793e+01 2.198273935194177753e+01
-3.963923499210831869e-01 1.431752813046889905e+01 2.162259995699665538e+01
-2.642854425519996386e+00 1.435793769397280784e+01 2.130881903323680859e+01
-4.101043281712715149e+00 1.424099740345570275e+01 2.115469123073426516e+01
4.826388755598115310e+00 1.270203998160796210e+01 2.229995992547487305e+01
5.956131077916149152e+00 1.211719677584055965e+01 2.248061555896058294e+01
-6.631675191344381659e+00 1.293006087427066930e+01 2.050769873211844185e+01
-8.112872632679518858e+00 1.180103068282763346e+01 2.003131829687221455e+01
-7.648609812739248781e+00 1.073085822426944702e+01 1.960912105563480168e+01
2.636598306481740206e+00 1.375233140357190109e+01 2.206584451230699173e+01
-1.353515372834233510e+00 1.450166078546929960e+01 2.156319388317161767e+01
-5.688085121277421941e+00 1.367201406839872035e+01 2.085160552322657779e+01
-3.491216754698639235e+00 1.456384510419119316e+01 2.135808990354702530e+01
-6.137651901911042707e+00 1.330663848581890107e+01 2.066659103477715220e+01
-8.613323660006413363e+00 1.142049050178510861e+01 1.992386089668586280e+01
-8.381215020726589415e+00 1.088538807437862488e+01 1.971207228374874987e+01
9.285151534531363993e-01 1.435911260047228311e+01 2.193971325135264294e+01
-1.969202543363556490e+00 1.465025666078749289e+01 2.158030806392388001e+01
-4.788048000096333467e+00 1.440352158979744779e+01 2.122201752614142478e+01
-5.238312017026136580e+00 1.403756482196562239e+01 2.103670874880559083e+01
5.636342528690895470e+00 1.256115143056775452e+01 2.258805858469137817e+01
-6.768684588773561828e+00 1.350182473209750356e+01 2.081366251147012036e+01
-7.262718994207179257e+00 1.312524482497952505e+01 2.065477019083864363e+01
-7.756562317374356752e+00 1.274869494897646582e+01 2.049587880660645212e+01
-8.250033048802885460e+00 1.237207603854658089e+01 2.033692393402343157e+01
4.081321126197692273e+00 1.348699870534296252e+01 2.243566734468537405e+01
3.302151970370952760e+00 1.388846979124310188e+01 2.239560549311033455e+01
2.514672595634912966e+00 1.428988131148379104e+01 2.235558054578243770e+01
3.233454207255069823e-01 1.453959505252853113e+01 2.189668556491632856e+01
-9.120583961540356110e-01 1.485107814330279297e+01 2.186674407543476661e+01
-4.337939741627046430e+00 1.476936171874999815e+01 2.140726726171875072e+01
5.418411479334305447e+00 1.303399213609537455e+01 2.275854574399074082e+01
1.963251306484643077e+00 1.450262938531440504e+01 2.231390799947088155e+01
-8.745897681182061234e+00 1.205237748445379431e+01 2.023960378477776345e+01
4.756341504836453460e+00 1.329672498900755073e+01 2.260495558732395693e+01
-2.734878200177889851e-01 1.475633106581754106e+01 2.192435400066090168e+01
-2.891033755950349615e+00 1.493039520031165956e+01 2.167228487366413248e+01
-6.267826417234983793e+00 1.383216235997825727e+01 2.095711774355987345e+01
-1.527773277246865069e+00 1.499977313987416494e+01 2.188393021382301384e+01
-9.331335980028905297e+00 1.168066030270811595e+01 2.014840233360872546e+01
-9.113818219273642995e+00 1.103991745126133672e+01 1.981412130915697389e+01
9.541773789071067435e-01 1.480356336963589747e+01 2.224228194169216621e+01
1.469374600804965181e-01 1.504422008474579009e+01 2.218502554088383860e+01
-5.818227727349720269e+00 1.419785454670315161e+01 2.114230320989969414e+01
-3.876035964958916225e+00 1.511293807399554723e+01 2.169097055497188720e+01
-5.111641248145952332e+00 1.498327093988511471e+01 2.154817745701632248e+01
2.392815772323086065e+00 1.482671198249315658e+01 2.264501835937499763e+01
-7.399734261412622693e+00 1.369701643189899620e+01 2.096073815904424720e+01
-7.893768234363364833e+00 1.332056606692100864e+01 2.080191318859666438e+01
-8.387401237446587388e+00 1.294391588634872825e+01 2.064295487625716419e+01
-9.059139828738983269e+00 1.261110605557010977e+01 2.056168282148179571e+01
-9.379557848019656419e+00 1.230397652041769696e+01 2.044809835081461458e+01
4.686228825903769213e+00 1.389187885551882040e+01 2.291023371298446776e+01
3.920864438231425275e+00 1.420347709093000077e+01 2.282189680471570270e+01
1.585277938061022240e+00 1.506752882134312799e+01 2.258787755660568664e+01
-4.705331183253301242e-01 1.520052977055098609e+01 2.217032405519964300e+01
-2.143446097353811197e+00 1.514846875791723235e+01 2.190111666256803247e+01
-5.754888711992456329e+00 1.467070746214923460e+01 2.139803748053195420e+01
5.431899208017896719e+00 1.350234025610435751e+01 2.303070443450893734e+01
3.161289886037318642e+00 1.451537761693181139e+01 2.273340668991133739e+01
-6.899167711147737414e+00 1.402754234232158304e+01 2.110431368577079780e+01
-4.457057230703640016e+00 1.523082715131552867e+01 2.174420220878194598e+01
6.187081571913753741e+00 1.311252794619094431e+01 2.315115540445186326e+01
-1.497052480439829747e+00 1.544792646581497131e+01 2.219863466108449401e+01
-9.906346258890060597e+00 1.204951367991281330e+01 2.040362372451473050e+01
7.773752336774093497e-01 1.530833119775624951e+01 2.253066065747205471e+01
-2.958900324870029214e-02 1.554949765624999891e+01 2.247348398437499739e+01
-2.756556931359587903e+00 1.536211135297237540e+01 2.198091075065102729e+01
-6.398141661642657851e+00 1.435814482642190626e+01 2.124789796682762599e+01
-3.414367676800942331e+00 1.545634155703421087e+01 2.197453096981882936e+01
-5.885514193081548662e+00 1.519722943702825368e+01 2.168912009122850293e+01
6.019256054012410928e+00 1.357596559685745596e+01 2.340419674344409984e+01
2.742804356068177629e+00 1.520576555732166746e+01 2.309167667364853926e+01
3.840875485235343945e+00 1.460853577248069612e+01 2.310197018245989398e+01
3.538613779902127554e+00 1.503943702904229163e+01 2.330543125097140944e+01
2.185435174894794219e+00 1.526487299677924980e+01 2.293755373671273645e+01
-8.506086139996538176e-01 1.574738442381985770e+01 2.249615274510093244e+01
-8.031113515093593946e+00 1.389231047844353739e+01 2.110789092420855084e+01
-8.524816577704042331e+00 1.351588730886249756e+01 2.094905618635468514e+01
-9.310426335736149639e+00 1.314024916585168512e+01 2.086086119853501586e+01
-1.001238935502385807e+01 1.255524509702773628e+01 2.065631957813621256e+01
5.546438825238602988e+00 1.380640616604206983e+01 2.331786958394910414e+01
4.506105024872223197e+00 1.438258054843963230e+01 2.321479935929906446e+01
1.477766039653935382e+00 1.543342869477503854e+01 2.285276227549686467e+01
-2.317401734831102011e+00 1.564575528385712033e+01 2.222132912416313033e+01
-4.020607818565515856e+00 1.551847890483966275e+01 2.198469405322356707e+01
-5.292273997424103982e+00 1.551369090136984319e+01 2.193452984604616773e+01
-7.029723996080174508e+00 1.455348898287334691e+01 2.139509083054853633e+01
-7.530507566391070995e+00 1.422292454904612313e+01 2.125151083684918163e+01
5.067146625258955872e+00 1.427502619658671357e+01 2.340157030530487603e+01
-6.528573025558570109e+00 1.488448806679919123e+01 2.153887763866835670e+01
-4.576161580120185590e+00 1.569212878150954360e+01 2.208101757195165149e+01
4.326088392151103079e+00 1.487292581684259751e+01 2.351918558576418761e+01
1.978328541804303065e+00 1.570293897386881454e+01 2.323004902034137942e+01
-1.671022079166960550e+00 1.594515427709871958e+01 2.251880890628489951e+01
-9.157649288168567381e+00 1.376742444901968732e+01 2.115741274574400066e+01
1.147595510309260991e+00 1.580975955849890191e+01 2.305620116377276929e+01
3.171994889324296629e-01 1.591623048474428082e+01 2.288235217764442098e+01
-2.893547294519344115e-01 1.603629661446980492e+01 2.283896877398346348e+01
-2.952851345360036017e+00 1.579963316672205842e+01 2.225799910161072503e+01
-3.857406769103508548e+00 1.592858115096727190e+01 2.230017892027813886e+01
-6.197986865544272916e+00 1.571203237545359421e+01 2.206118155322371877e+01
5.852349614258776533e+00 1.403930397323123103e+01 2.365723899449999834e+01
3.092765726641063306e+00 1.558477375675160737e+01 2.353828172614499081e+01
-2.491346064670018734e+00 1.614291956674671269e+01 2.254146295772311603e+01
-8.662164265018887477e+00 1.408750334569342044e+01 2.125496754083582829e+01
-1.014941278524078605e+01 1.312678152348888538e+01 2.096215470693639560e+01
4.873425261020054577e+00 1.470580073814436872e+01 2.365164269127348717e+01
-6.659101463043477942e+00 1.541111026148572094e+01 2.183001163572540904e+01
-5.129823930292624290e+00 1.590734872269607969e+01 2.222756999486192342e+01
4.149853949210876358e+00 1.536308155660204910e+01 2.382349406801564484e+01
-1.156696211365585425e+00 1.620976227587665619e+01 2.283284555511341551e+01
-8.161884506338745737e+00 1.441806225868428903e+01 2.139857948500184648e+01
-7.661306822841130959e+00 1.474883193090582267e+01 2.154228327447786029e+01
-7.159645710024298282e+00 1.508033300579880809e+01 2.168630504323565233e+01
-1.064522662996722779e+01 1.280651669196512721e+01 2.086454312833486924e+01
-9.653579304406820327e+00 1.344706691245846564e+01 2.105977257080332521e+01
5.448443125589204961e+00 1.465855430519950175e+01 2.389339561347483709e+01
-4.695300239385385765e+00 1.615345023902322907e+01 2.241784741482325671e+01
-5.736885993129647865e+00 1.601295469050065634e+01 2.229235168007490131e+01
1.771227148057477718e+00 1.614129410996497427e+01 2.352275875561075580e+01
-2.135477608843715291e+00 1.648086615515348896e+01 2.288956161126776934e+01
-9.890017576032612112e+00 1.383779411686226801e+01 2.137572935805038199e+01
-1.063381081042161824e+01 1.335728024763301214e+01 2.122925497536747130e+01
6.635948205733290806e-01 1.628337776290330652e+01 2.329075245767564795e+01
5.154517661184086774e-02 1.634540615609237335e+01 2.319571908097636737e+01
-3.265564406985027812e+00 1.630022071387726967e+01 2.261255779415665401e+01
-4.039917124556765771e+00 1.645755583149311008e+01 2.268366847989327084e+01
-6.692754494773529572e+00 1.581913309960937397e+01 2.217624829785156138e+01
3.443226836604142971e+00 1.596430301446116218e+01 2.398550233303354418e+01
4.987602178786482376e+00 1.520229983594453493e+01 2.410393745881742333e+01
2.606817687973029152e+00 1.605284833938137368e+01 2.375413062378019191e+01
-5.487972529508553521e-01 1.652254163661603670e+01 2.320403757955648061e+01
-9.307520189884300521e+00 1.439476814720409514e+01 2.161094251522584386e+01
-8.642988807667910223e+00 1.457651754884392403e+01 2.160300142132278012e+01
-7.300864058262575895e+00 1.562261670213680809e+01 2.210279763369297612e+01
3.973304788516115682e+00 1.585319879045368197e+01 2.412781775294368103e+01
1.010412958683275075e+00 1.665090989183551073e+01 2.369964632321190123e+01
-2.719924923054153787e+00 1.656062694764088761e+01 2.288270227888535402e+01
-8.181642356111053616e+00 1.484867093932576587e+01 2.171193452034071925e+01
-7.925872757653785072e+00 1.527214051818232399e+01 2.196833418497152124e+01
-1.123549969327689979e+01 1.319277657142677818e+01 2.130744307513676006e+01
-1.002801342021377451e+01 1.426346014286315622e+01 2.169195589786228950e+01
9.452647988940784951e-02 1.676785694617610289e+01 2.357904554650724904e+01
-5.275742287115476437e+00 1.631391553588265708e+01 2.252355143870883580e+01
-4.814512410182142155e+00 1.661494345703124864e+01 2.275480266015625119e+01
-6.726432609158657705e+00 1.622715510389370763e+01 2.252248430187993478e+01
4.679885534123289226e+00 1.563130532096137415e+01 2.429645483164646080e+01
-3.568988409389181271e+00 1.677818987278024920e+01 2.299953299232752713e+01
-1.364760720533384930e+00 1.656750010782393545e+01 2.309840034693125688e+01
-8.623811688743266757e+00 1.506601338293233283e+01 2.195137819502808441e+01
-1.062239687178688641e+01 1.390816615662237865e+01 2.159404803838703302e+01
-4.462729264085240288e+00 1.691479650740158647e+01 2.304280210168537124e+01
-6.017941634379030624e+00 1.647456136060933929e+01 2.269614860945694090e+01
-7.271169238000390500e+00 1.616268333150061665e+01 2.254998726113360874e+01
3.793335415725684889e+00 1.634342871570779465e+01 2.443224928050451084e+01
1.564161603669846468e+00 1.657977045734706323e+01 2.381556937719126665e+01
2.276763081517222176e+00 1.642575954465242205e+01 2.394687214365771055e+01
2.980474242352884939e+00 1.656849438062356583e+01 2.432430936497245355e+01
-1.779595052302169300e+00 1.681882445966136430e+01 2.323767238977856664e+01
-2.374286602776205957e+00 1.684626416661206605e+01 2.318289441999353073e+01
-8.081824868717165655e-01 1.700872155231502703e+01 2.356905769019249774e+01
-9.288680868770853749e+00 1.488419187662174714e+01 2.195934328726142937e+01
-7.943201683423714243e+00 1.583431408908989901e+01 2.237582911671375996e+01
-1.122341079612435344e+01 1.238196577405887133e+01 2.081465384554694964e+01
-1.116496262344967150e+01 1.368582520945409087e+01 2.161534251867314183e+01
4.597935208040722976e+00 1.603729706280538281e+01 2.457990867035530513e+01
5.402238009628617554e+00 1.573068476773575952e+01 2.472777199072517007e+01
1.357138999339193353e+00 1.701828959415696474e+01 2.410842712500000218e+01
5.476569128270976083e-01 1.717661893002058093e+01 2.405024654465343659e+01
-2.948517552726258817e+00 1.697835799920169109e+01 2.322396098107974893e+01
-9.170525915976373454e+00 1.530786964043429066e+01 2.223966900860646589e+01
-8.604629684569395920e+00 1.555607305946692343e+01 2.230015612101205846e+01
-1.181350613562776530e+01 1.277116111581776003e+01 2.125755509794074527e+01
-1.182506370279152641e+01 1.358191963582477868e+01 2.174981067886803388e+01
-9.953586189566829390e+00 1.470237011681591355e+01 2.196730810840974968e+01
-1.061098822763172578e+01 1.445895910922343397e+01 2.195877930342936679e+01
-5.474307660625338912e+00 1.675769845223149801e+01 2.290819024068828469e+01
-4.981978493892559534e+00 1.697432961124857087e+01 2.308349587172279627e+01
-6.760136026215065819e+00 1.663517568836480365e+01 2.286871909499573974e+01
2.169032180351142980e+00 1.679331329505280479e+01 2.421642949958099678e+01
-3.518896691045386937e+00 1.714775396960336806e+01 2.332249356414003572e+01
-1.423550201877699761e+00 1.715693553702003626e+01 2.358594053052996742e+01
-2.319595985923189829e+00 1.723038623586375095e+01 2.353197387610009628e+01
-1.121629725802828403e+01 1.411052760329838129e+01 2.191515846830102276e+01
-4.110661523934004080e+00 1.721489302366087415e+01 2.333103536747991669e+01
-6.134187791822556690e+00 1.690047144831662607e+01 2.306159735464469307e+01
-7.987805015547112752e+00 1.637862058422386369e+01 2.283766957677109133e+01
4.038019497245668887e+00 1.666475709258824978e+01 2.481566614825992900e+01
3.535359629362602174e+00 1.678581505297578857e+01 2.471520975534908615e+01
2.830096142905090595e+00 1.693934135651111461e+01 2.458569875660093373e+01
-2.601087999701357512e-01 1.733516977521042790e+01 2.399218049002734787e+01
-9.256924183970584252e+00 1.570056502104192830e+01 2.254040924917878996e+01
-9.928127175011628225e+00 1.535530138370334896e+01 2.243203681545657702e+01
-8.585473133693543701e+00 1.604598846555429148e+01 2.264883156800184594e+01
-1.120486857427354366e+01 1.466138201348608661e+01 2.227995114004317401e+01
-5.149599618382848298e+00 1.733404209104692129e+01 2.341248754533943099e+01
-7.390519227764320576e+00 1.671107129725993801e+01 2.302640514744916445e+01
-5.669859078207481140e+00 1.717713980081879654e+01 2.329181359241487215e+01
5.250836085797579322e+00 1.613587491384108219e+01 2.498331260982499913e+01
4.783728957261599746e+00 1.653767657552568693e+01 2.507874781823966970e+01
1.034099997921027247e+00 1.750488561768306894e+01 2.445689087570702469e+01
-3.177495284191841129e+00 1.739679111618919194e+01 2.356579322439701940e+01
-1.067586878606948453e+00 1.749496787109374907e+01 2.393412756250000228e+01
-1.240119458061245616e+01 1.299781506120445940e+01 2.160015681356293626e+01
-1.181020634597581598e+01 1.431633484375096721e+01 2.223626798683589811e+01
-1.059958044796817411e+01 1.500993710937500047e+01 2.232363317968750138e+01
4.282571650406743480e+00 1.698585936163312127e+01 2.519882399507570625e+01
2.461433650676394524e+00 1.731505588154419328e+01 2.477047355055566058e+01
1.644987510526890517e+00 1.740224043325808267e+01 2.454301269639881511e+01
1.247965875220021503e-01 1.768233829866859708e+01 2.439126605782896107e+01
-3.758585940669702197e+00 1.751499558988752980e+01 2.361927447823367388e+01
-1.847352723637151861e+00 1.760171414811522439e+01 2.392527479530381740e+01
-9.129368307048139286e+00 1.637220776217866813e+01 2.308032892285818960e+01
-1.240820061591642975e+01 1.348426479360931296e+01 2.189717254680209635e+01
-1.241520575455393782e+01 1.397077460168724450e+01 2.219261142578125146e+01
-1.105112670241607908e+01 1.538243940553081757e+01 2.285642281749758808e+01
-4.537907282570494694e+00 1.760434802347437611e+01 2.368035180973715015e+01
-6.793866934918759704e+00 1.704320142648830583e+01 2.321523808743746642e+01
-6.357700262287976578e+00 1.737979171104973020e+01 2.349998799623031687e+01
-8.557513972870147256e+00 1.648983466029370248e+01 2.301605141906795637e+01
-8.016181716678298486e+00 1.677775065372923180e+01 2.317590637814868515e+01
5.970464824016621819e+00 1.592940720353542972e+01 2.517000511102682481e+01
3.278176920292621865e+00 1.722779245753741506e+01 2.499793580575494190e+01
-2.626842358762859320e+00 1.770842800626125779e+01 2.391642491899282774e+01
-9.901433180225581054e+00 1.580866737489404095e+01 2.281308857560130932e+01
-1.050360146342777590e+01 1.551395639746839272e+01 2.272874258769839173e+01
-9.768506529045291487e+00 1.619493234527957526e+01 2.310696244326878812e+01
-1.290907745811060714e+01 1.292094723228608544e+01 2.180148562875291773e+01
