1.210198751423153851e+01 -1.595869794472491110e+00 2.599659558357113198e+01
1.225853141445712069e+01 1.488735553128665845e-01 2.625172451538535867e+01
1.209010805194356486e+01 3.554672064167201828e+00 2.633143725102082655e+01
1.257123448643064023e+01 1.488918845325993168e+00 2.665509723627780758e+01
1.106380823355676135e+01 6.591802883077661157e+00 2.581665414191025931e+01
1.137478271835257004e+01 5.978213505774569114e+00 2.601753008745681939e+01
9.677920967812662312e+00 8.835245503202392214e+00 2.538690823663700513e+01
8.889887129655818399e+00 9.797735750430014434e+00 2.529681213451489086e+01
8.019124814524049683e+00 1.021205632679696329e+01 2.487993425613222342e+01
7.656978963843445563e+00 1.049830481281611227e+01 2.480439575316436418e+01
1.153189320995338463e+01 -3.570619683365992891e+00 2.533381243166800445e+01
1.250530969975324780e+01 7.803541034580488978e-01 2.654962567073066282e+01
1.241034519308411710e+01 2.874884267313815300e+00 2.661207341807030247e+01
1.168614468527397676e+01 5.363857789441731860e+00 2.621865601992975314e+01
1.234043174724402014e+01 -9.925059868136351104e-01 2.628580765801804731e+01
6.411796758368849325e+00 1.180611037402495000e+01 2.484084562700470755e+01
6.990285257433970223e+00 1.180646377951802783e+01 2.517022483258857335e+01
1.235910406872284106e+01 -2.190679220568926500e+00 2.628707785059993540e+01
1.193137794739900670e+01 -3.245163977258811450e+00 2.578405502251347770e+01
1.205285768447236272e+01 -2.826708558993634934e+00 2.591801119937587572e+01
1.199706359641346687e+01 4.750377812894873486e+00 2.641949605120434086e+01
1.256676825994192370e+01 -4.607437751210926025e-01 2.655675832170152972e+01
1.259887657547632145e+01 3.519163775765314028e+00 2.687526624028390287e+01
1.270131532182723610e+01 2.257007229138100701e+00 2.686704165310620240e+01
1.284516895475212905e+01 1.091640121796267016e+00 2.693311373507205531e+01
1.230785580225991716e+01 4.137145665791712723e+00 2.662025386192011922e+01
1.116832662479962046e+01 7.169506118910744519e+00 2.611521530222168863e+01
1.084033847308987930e+01 7.643335405325299980e+00 2.599315942961404957e+01
1.030844770513700936e+01 8.543107986750188232e+00 2.584203874127448231e+01
9.735547068525645997e+00 9.389557698963255206e+00 2.570509556335429480e+01
1.258913842339437750e+01 -1.470790720665403173e+00 2.656844929535282418e+01
8.495948616455223146e+00 1.027888368397772645e+01 2.525177319443267621e+01
6.000961314906504640e+00 1.203156861326255900e+01 2.478670055916998294e+01
5.322954685639430750e+00 1.220389128555674496e+01 2.462020868304605514e+01
7.546266104983887502e+00 1.128313705175484039e+01 2.518848311735998635e+01
8.102027322073581672e+00 1.076000924998887243e+01 2.520673636726443334e+01
1.279343166498767737e+01 7.178893068096485475e-02 2.682810050034385441e+01
1.302164445422353012e+01 1.577254727022399772e+00 2.714778044192140527e+01
1.149111454243614894e+01 6.803398385943100202e+00 2.629850607266078555e+01
1.008092947174455922e+01 9.080212462844510668e+00 2.583164020107907888e+01
9.367932545546311829e+00 9.789921874477165886e+00 2.563880716070342203e+01
6.434453918497222702e+00 1.232964012259414766e+01 2.515197124373471382e+01
5.819470383661504265e+00 1.275731629934270295e+01 2.517356636999919317e+01
5.167125957538908132e+00 1.270115586876578462e+01 2.487206963011711736e+01
1.248056095073476612e+01 -2.853291270087850329e+00 2.641773828826203996e+01
1.288984397181360464e+01 2.901293242750317969e+00 2.713023181703998077e+01
1.301967117070694968e+01 6.033236415394181984e-01 2.709893536440412376e+01
1.180225576968208934e+01 6.189412364342405937e+00 2.649947622390894608e+01
1.072062637322272316e+01 8.207016101026026078e+00 2.608784755109157771e+01
1.216049867646924731e+01 5.201902463735526005e+00 2.667611505690692653e+01
1.277996645310397916e+01 -9.314578558955938226e-01 2.678101894586175291e+01
8.758929019946215533e+00 1.056699389283360624e+01 2.558576307588581855e+01
8.101086553888050545e+00 1.127720940508498337e+01 2.554332788802258847e+01
8.100144783515919045e+00 1.179413186641215283e+01 2.587973902791800640e+01
8.486145373308213280e+00 1.104043072172060569e+01 2.562454013384934726e+01
1.295483049967483069e+01 -4.452377488786626314e-01 2.699275349226656218e+01
1.283823244161874833e+01 -1.949980484641441025e+00 2.685153135048445705e+01
1.245649671324214225e+01 4.722669399540001756e+00 2.688776964520554813e+01
1.275197638208329565e+01 4.306083259202011959e+00 2.710305352741467644e+01
1.318081729554141290e+01 2.283409335232193804e+00 2.738520264864802911e+01
1.324574767605974301e+01 1.134476197445730250e+00 2.736957536255221868e+01
1.220368516615887522e+01 5.748755256871956654e+00 2.682736003279665482e+01
1.127275866714774999e+01 7.746729345509443476e+00 2.641352925306417987e+01
1.155619650233772688e+01 7.322474962726660763e+00 2.653916385862884297e+01
1.059232225118229564e+01 8.812121995898607452e+00 2.618967692049404050e+01
9.793219114656949387e+00 9.944311621256897382e+00 2.602353729426588203e+01
1.010508167830590232e+01 9.576761900541338690e+00 2.609454453174248201e+01
9.259005801113509904e+00 1.034826854578856725e+01 2.583849670181911051e+01
7.433452718379290225e+00 1.221502187763161196e+01 2.572311135176705932e+01
6.766730551373697722e+00 1.263591676006831754e+01 2.556648257450562767e+01
8.870366233480984519e+00 1.132092385025801029e+01 2.604245691142218533e+01
1.328396514760180480e+01 -1.520285218411350781e-01 2.737146683005464709e+01
1.270919591520229197e+01 -2.440650496086971266e+00 2.669220456792501395e+01
1.309855128964709792e+01 3.709094389621599763e+00 2.741844650210384771e+01
1.191836631187019080e+01 7.014965255739921801e+00 2.678029627821613090e+01
1.233614519407224996e+01 6.454625399388620899e+00 2.710168009029496972e+01
1.048373364511738615e+01 9.325053554493196728e+00 2.627614689915531443e+01
1.303138367411504639e+01 -1.433752023503730211e+00 2.706682994932720021e+01
6.367382168258086672e+00 1.289974043610096821e+01 2.555104869768738851e+01
8.677131785088718630e+00 1.195636843812457428e+01 2.633849333978982443e+01
8.959066789696409572e+00 1.084860147734435998e+01 2.587104070654861587e+01
1.353830406160908950e+01 4.870818097156881521e-01 2.767726402891285531e+01
1.321909428461172986e+01 -8.704667154605228996e-01 2.727577156501795486e+01
1.347178434897161559e+01 1.665536950588675902e+00 2.764016798771510963e+01
1.346286610325577904e+01 3.014869830613336799e+00 2.774436921245223076e+01
1.098478702405327923e+01 8.568203453762427202e+00 2.645084653968250166e+01
1.260511365608618561e+01 5.308098622815231593e+00 2.715524277779637430e+01
5.726744836341024047e+00 1.324759796658557320e+01 2.549923272291679055e+01
1.322749660574295305e+01 -1.939445603390184125e+00 2.729030989950621944e+01
1.290063494849003689e+01 4.891570195435275714e+00 2.737057990175296496e+01
1.275392308520573259e+01 5.894284527055392076e+00 2.742306244162132245e+01
1.186135688787405584e+01 7.775369405664107170e+00 2.698696315763643483e+01
1.137725156017481787e+01 8.324284767039225486e+00 2.671201595524011196e+01
1.102785929015123401e+01 9.185688204854884020e+00 2.670908632210865719e+01
9.850953939174992513e+00 1.049966960313416742e+01 2.634232664159883086e+01
1.036855266938606235e+01 1.003466373293662883e+01 2.653127672602583331e+01
9.360661348779181878e+00 1.091029643975190133e+01 2.619239211923772359e+01
7.099207909294245056e+00 1.294238320691749067e+01 2.598124601073430284e+01
6.300307958888896387e+00 1.346997109257039149e+01 2.595016632009436108e+01
9.255057003671630866e+00 1.160175677230665237e+01 2.646088543458955300e+01
8.099201510870891241e+00 1.231097973901530196e+01 2.621610245791683269e+01
1.380416207976529641e+01 -1.012186602928962370e-01 2.795687403385955960e+01
1.365825717430481667e+01 -8.094698023593157599e-01 2.777056340320800132e+01
1.351354267012104415e+01 -1.482701086603782636e+00 2.761061400649464304e+01
1.364798189411485652e+01 2.217968381789308552e+00 2.787258069119101478e+01
1.373764463728248231e+01 1.077235735260613003e+00 2.791977988545838585e+01
1.319615475583455400e+01 4.475042349104080941e+00 2.758591596207279295e+01
1.364058122421518604e+01 3.900283288179680952e+00 2.800642008687154316e+01
1.234546027178354421e+01 7.226454286048242359e+00 2.726190869372101844e+01
1.290256840609451672e+01 6.479822778221931756e+00 2.769058688966713078e+01
1.088615097947521981e+01 9.569658611793952829e+00 2.672022710273740032e+01
7.626238333624576704e+00 1.269378065442025161e+01 2.615989506280565635e+01
5.634262832659039155e+00 1.373779818363096261e+01 2.582490032251002887e+01
9.104023459504785976e+00 1.203466982869516322e+01 2.665070705488099634e+01
1.400040419471783437e+01 3.322914214650300568e+00 2.833744244753936314e+01
1.400350221463273037e+01 4.889370538943958455e-01 2.819938901077717475e+01
1.266602461567742388e+01 6.911254085109832523e+00 2.753090238642846543e+01
1.148197026283046540e+01 8.903089676262171182e+00 2.701114860856622357e+01
1.297813681373443728e+01 5.427397573935747843e+00 2.755622867027551948e+01
9.908608568980834974e+00 1.105425377811303633e+01 2.666067308529851587e+01
8.725633775786047153e+00 1.248163618252328888e+01 2.671059748401841816e+01
1.409685447844434414e+01 -7.485520454399475776e-01 2.826471771519689113e+01
1.388803382506589124e+01 -1.215738169519489098e+00 2.803152280293612364e+01
1.392314540598507477e+01 1.801928484043416212e+00 2.813456364687365863e+01
1.329746027407603925e+01 5.134126641943793423e+00 2.782031035964658372e+01
1.382418798534344617e+01 2.770426451806257351e+00 2.810500488413239495e+01
1.333355262836151667e+01 5.908903454778563713e+00 2.801194799880001085e+01
1.191019419696207038e+01 8.594898485136170052e+00 2.731529471040725809e+01
1.128854189535693742e+01 9.814245278201807920e+00 2.716427769582392671e+01
1.039017734611237742e+01 1.069732776071238334e+01 2.687359010282338545e+01
1.087174483352159626e+01 1.034040127094910844e+01 2.708650609077484717e+01
7.431644467992057024e+00 1.324881374145997626e+01 2.639596376044664794e+01
6.898456609280116503e+00 1.343576880107723603e+01 2.624911386039510219e+01
6.233736823208047895e+00 1.404078860452454514e+01 2.634971701554784573e+01
9.639218986239633580e+00 1.188220131512349731e+01 2.687873968413080306e+01
8.098257569061354744e+00 1.282768083766153389e+01 2.655237266306498967e+01
1.426936085408024546e+01 -9.936531195866254995e-02 2.847899941921880895e+01
1.421560072415281795e+01 1.154768292534330554e+00 2.844214588837863289e+01
1.364060266305553704e+01 4.644104526050228721e+00 2.806907141286901108e+01
1.409934716801076604e+01 2.354373365989871125e+00 2.836698198436160112e+01
1.417679158877654721e+01 3.875936507745881165e+00 2.857010580300467240e+01
1.239553505252216326e+01 8.040025253715629816e+00 2.758937779517092181e+01
1.277243151998241011e+01 7.437880907670273878e+00 2.774338233407073773e+01
1.305106071094630948e+01 7.064757318918021944e+00 2.795783612601892187e+01
1.158650505424659016e+01 9.480875621760709748e+00 2.730975555281808198e+01
9.966237094902016480e+00 1.160858640300064160e+01 2.697887682138069465e+01
9.290105869455281606e+00 1.230641799433503003e+01 2.694170880097547283e+01
1.395619458657544598e+01 4.308790082429902135e+00 2.837380775032030655e+01
1.449475814617941971e+01 5.370386740807819859e-01 2.873574265589726195e+01
1.437450631471564400e+01 1.938319586655867788e+00 2.862895906322195927e+01
1.427051044843775784e+01 3.111237669642163084e+00 2.861014293565494881e+01
1.034531926829574289e+01 1.120440071896337031e+01 2.708606743228442681e+01
5.346493084976033039e+00 1.439820206549165249e+01 2.618296876088973235e+01
6.979865653162996786e+00 1.390272893646705121e+01 2.665010320449494685e+01
8.540895318637620193e+00 1.299479082399904861e+01 2.693211461929100992e+01
8.097307959399374866e+00 1.334464668696544187e+01 2.688881709392141772e+01
1.373104228985171638e+01 6.583526218392006690e+00 2.854887318025470577e+01
1.169108671147053791e+01 1.005892516316253626e+01 2.760849859037361753e+01
1.127439462410614723e+01 1.058480584298073701e+01 2.753067689603294710e+01
1.373042247501469326e+01 5.392681250776387714e+00 2.830977593567642714e+01
1.044030088197445494e+01 1.163746071971131180e+01 2.737490226143975747e+01
1.085733945623555918e+01 1.111114382647254573e+01 2.745278756946268217e+01
7.763872508384802806e+00 1.355504746129034110e+01 2.681042334087623402e+01
9.060439668789827650e+00 1.301198640363736558e+01 2.726117921663858823e+01
1.002387435110299307e+01 1.216300495314689023e+01 2.729713282772432592e+01
1.408529333281177465e+01 4.813258484522645375e+00 2.855249068438520510e+01
1.474474784278323192e+01 1.281192930286521481e+00 2.902116323269556020e+01
1.455448734728792459e+01 2.613166588820923231e+00 2.887509177383019576e+01
1.435316390831024513e+01 4.428912064407222182e+00 2.880274947816630515e+01
1.469897231796190518e+01 3.368349151283387410e+00 2.908953468827859012e+01
1.319946291142882444e+01 7.649336145153166733e+00 2.822492342711067081e+01
1.346519362712923495e+01 7.116549660364549723e+00 2.838686222324049169e+01
1.206807468251482618e+01 9.456698322379050836e+00 2.776256129946604290e+01
1.244561036995894554e+01 8.853595368524366904e+00 2.791684781181215413e+01
1.282268299082050156e+01 8.251232019751080671e+00 2.807094532346366833e+01
5.723846294997589013e+00 1.478918332959416837e+01 2.666548098529521482e+01
6.167406939198189164e+00 1.461077776694594377e+01 2.674903351263129281e+01
9.542305038608565937e+00 1.258736706213980128e+01 2.727916121507698222e+01
8.578222402374564126e+00 1.343691103051967417e+01 2.724318618918989188e+01
1.482586774018822418e+01 2.074711176100134669e+00 2.912335498901659392e+01
1.464539857927464084e+01 3.964189393361277958e+00 2.907917932491191593e+01
1.399717932602719728e+01 6.049922669016141619e+00 2.871105980582637329e+01
8.096355008188377056e+00 1.386151532502246830e+01 2.722520834471180251e+01
6.765277280311496000e+00 1.474117957873420615e+01 2.717378521112312839e+01
7.430469895404470115e+00 1.430139274695276974e+01 2.719949269902673095e+01
5.003328053334338499e+00 1.498378142525831080e+01 2.652149888954364698e+01
9.511728786585699424e+00 1.306041973859877459e+01 2.760562512147176051e+01
9.950531514037999514e+00 1.271118864725926301e+01 2.764949568283392622e+01
1.508840948995558939e+01 1.656868947700257388e+00 2.940230532018932408e+01
1.394850566284082305e+01 7.318312893053116497e+00 2.896996264829650869e+01
1.426329039605685978e+01 5.516371301348595324e+00 2.887323103125920198e+01
1.231311391424844714e+01 9.756706643813860325e+00 2.814957059895850122e+01
1.167156670111116412e+01 1.065471056178813569e+01 2.795333848214724171e+01
1.324775936828090117e+01 8.281148656579636835e+00 2.853879466597891224e+01
1.064026340484912758e+01 1.194236345727520643e+01 2.775226225101472011e+01
1.128857883332017487e+01 1.109391992629204715e+01 2.785488333563767327e+01
1.033384530520387123e+01 1.245746247172472465e+01 2.777337726125047723e+01
1.500670572821599258e+01 2.763276621006442557e+00 2.937148922031981968e+01
1.452966554221394979e+01 4.982291008803830579e+00 2.903556376428772623e+01
1.476965411007750717e+01 4.455013965330395287e+00 2.925107324715481028e+01
1.500970534069414519e+01 3.927598486045768666e+00 2.946663898474202625e+01
1.359908898420363421e+01 7.888019173841120057e+00 2.872476985556323470e+01
1.430024910364291912e+01 6.688044956608968583e+00 2.920279712587331389e+01
1.289565064189271837e+01 8.790373781490721683e+00 2.837280327248897294e+01
1.205033942193673191e+01 1.033526186258533919e+01 2.810805898724569118e+01
6.101257031250000296e+00 1.518035186217350763e+01 2.714807373047067429e+01
8.393626203147851683e+00 1.417964339340844404e+01 2.766230958086632086e+01
7.997273345726310545e+00 1.436230040824123222e+01 2.756120053337169296e+01
5.427107192769735633e+00 1.552683202475481217e+01 2.714914291331159291e+01
9.256155427394741508e+00 1.353370784847770203e+01 2.777827213068871615e+01
1.078395349115417190e+01 1.224144384784933948e+01 2.807223045355027935e+01
1.527722878091505265e+01 2.211102736653038026e+00 2.961775045715573285e+01
1.438627715755100844e+01 6.069401817958232748e+00 2.914526003590606251e+01
1.111930485901998189e+01 1.169635817157540814e+01 2.806050290639568701e+01
7.898044784717913380e+00 1.486352836753478712e+01 2.789749844859093386e+01
9.877208710110069845e+00 1.325919808836404101e+01 2.800175025134573303e+01
1.064405277667065164e+01 1.275214502851850540e+01 2.824998877653879248e+01
1.524939698225021800e+01 3.400972490430504092e+00 2.968188182961257482e+01
1.526900689649045795e+01 4.624470007749444278e+00 2.986096541794807635e+01
8.830645547263817008e+00 1.395629884136197774e+01 2.779738824043371181e+01
7.139479785289425173e+00 1.519077271968371079e+01 2.773205672720774118e+01
6.380935063017143527e+00 1.551833775238184288e+01 2.756661393128239723e+01
1.464142024664392316e+01 5.626339577737078379e+00 2.931762971111885108e+01
1.548906700972794326e+01 2.874392699464880074e+00 2.989710525677888953e+01
1.494710083342850382e+01 5.191403690156593420e+00 2.955400498680527122e+01
1.443185358659155604e+01 7.520249907009981527e+00 2.955314543801225824e+01
1.475318532424753926e+01 6.270439271707226148e+00 2.959972043710969558e+01
5.958049720108517633e+00 1.572510267260450334e+01 2.754150244914717760e+01
1.114790812838724676e+01 1.238524216180056570e+01 2.850820018735361572e+01
9.803853654100359805e+00 1.380740921411402233e+01 2.835414288532869875e+01
1.560716228723988586e+01 3.796884828157784941e+00 3.015383915022841421e+01
1.486480218256674668e+01 6.913685022776075328e+00 2.988143773033530337e+01
8.691256556412506384e+00 1.449815847187462658e+01 2.809996094938199818e+01
7.799194729206603505e+00 1.536461761512746094e+01 2.823366230787210895e+01
1.037907857341853024e+01 1.342713606238877411e+01 2.854040405182504969e+01
9.247564846691970430e+00 1.415278389355354527e+01 2.822704751235864862e+01
8.376817805500714087e+00 1.502048523109297307e+01 2.831932132350533138e+01
6.660755665364333389e+00 1.585542798092972561e+01 2.798531456993198319e+01
7.245802788286498597e+00 1.567859295855213730e+01 2.817131977870443649e+01
1.095429927380332025e+01 1.304686544989703556e+01 2.872666669153379715e+01
1.505875379173480155e+01 5.835423843942916022e+00 2.983595031682347098e+01
1.536432119826070775e+01 5.400407480933724358e+00 3.007217894462674934e+01
1.576712052790880847e+01 4.825451236841504787e+00 3.047341639367922994e+01
1.512216742951615345e+01 6.475399748352899998e+00 3.006288664905129338e+01
1.075593145130085304e+01 1.350702630662114601e+01 2.891009753922735115e+01
1.034828473224164114e+01 1.398429854561321051e+01 2.893451575817070420e+01
1.544518256257915567e+01 6.141224082902430048e+00 3.034322282106833768e+01
1.578150099192482436e+01 5.609390675616936051e+00 3.059030224184975566e+01
1.545716446966351043e+01 7.033354370886688578e+00 3.057399271156863563e+01
1.587158002388963318e+01 6.403480655911217845e+00 3.088464827274399838e+01
1.619867634948070290e+01 5.818369982759400649e+00 3.110841927139576413e+01
8.572985458495261391e-01 -3.615092042700750241e+00 4.600141933674866124e+01
1.415567775157091646e+00 -4.095206917434460969e+00 4.604989543784174089e+01
1.691115417498728180e+00 -3.540358398214920044e+00 4.633987734132735881e+01
1.586275646226538827e+00 -2.991733604749787556e+00 4.648482057055323935e+01
9.717445211774218272e-01 -2.879578402794346736e+00 4.629156564110285643e+01
1.327796060582287163e+00 -2.389295793933156720e+00 4.656232750482621441e+01
7.642325639060981723e-01 -2.325386904566729029e+00 4.637396196837912754e+01
3.560355572698294946e-01 -2.767208705967511229e+00 4.609794037997831850e+01
1.890584089890086750e+00 -2.272997529986305221e+00 4.680194679208721453e+01
1.427513013565465005e+00 -1.801215062790271881e+00 4.676707658606564877e+01
2.353534060965214003e+00 -2.744658588182924408e+00 4.683680898046566199e+01
1.489600678395116007e-01 -2.212863171082119162e+00 4.618053956094634316e+01
5.567159562545288543e-01 -1.771195771595338808e+00 4.645636107391113256e+01
9.644995344557956152e-01 -1.329491285418164415e+00 4.673221226521113891e+01
1.687326897537778869e+00 -1.428157980140928984e+00 4.695178282296367911e+01
2.743331045346239172e+00 -2.185112284471770305e+00 4.711388648303828575e+01
2.410339896265753179e+00 -1.526935011508785855e+00 4.717140974974976331e+01
-2.194101544129207215e-01 -1.506249446951809068e+00 4.611359441162299078e+01
3.415061325380644996e-01 -1.036894801221239115e+00 4.647024602461664955e+01
3.163099936778309917e+00 -2.718872482311323502e+00 4.711802599532425262e+01
5.975504785326958279e-01 -6.697144153281078260e-01 4.663000013627375040e+01
1.443296965065974824e+00 -8.603047881221573823e-01 4.699352641243358164e+01
2.166281973672184336e+00 -9.590143570968747699e-01 4.721316186749169930e+01
3.133119773043037792e+00 -1.625608683712731706e+00 4.739096592579050338e+01
2.716750381695895111e+00 -1.084654208770005068e+00 4.736943448752833064e+01
3.509758233591062204e+00 -2.221605309059171418e+00 4.736436468388615140e+01
-2.812838775616856579e-01 -7.444157415291206004e-01 4.620836536025597496e+01
1.922215468375336300e+00 -3.911087336093854172e-01 4.725491658246946969e+01
3.933587199891891206e+00 -2.643556588899115489e+00 4.732668363066879635e+01
-7.217708480855120623e-01 -1.079713135527205159e+00 4.593377389378068187e+01
-1.015657753121946172e+00 -1.539543844951068996e+00 4.571165338286508018e+01
1.136276484871032277e+00 -1.418364735302579394e-01 4.692402126784517691e+01
2.301949084564284820e-01 -8.919732879268622849e-03 4.652768219495254698e+01
2.886173774120662561e+00 -5.228327148939991842e-01 4.754771880743018642e+01
3.371239784553831331e+00 -1.123571635868263918e+00 4.757918440646216851e+01
3.856339116087593055e+00 -1.724351636122739562e+00 4.761065575645972103e+01
4.323384017099532350e+00 -2.084059160456494197e+00 4.760373870238488081e+01
-9.040657681183218441e-01 -4.519695340097289460e-01 4.594648772452602259e+01
-1.393897354382799936e+00 -9.818777164121637036e-01 4.561524692142574366e+01
-3.963868909587134892e-01 1.253479882825336671e-02 4.623506031708468100e+01
2.401006857887464818e+00 7.802948885490913755e-02 4.751625026818297215e+01
1.674981892726337351e+00 3.858781395221603239e-01 4.721804505050349121e+01
3.818777922828167970e+00 -4.440829602064345072e-01 4.788490926275276394e+01
4.289231423505697194e+00 -1.117652448873789561e+00 4.789503219658406863e+01
-1.760242471410128795e+00 -1.383019749223694861e+00 4.526934173340092116e+01
9.494803783567132838e-01 6.935055479455755068e-01 4.692005566860481736e+01
-1.364296711922154126e-01 6.503661095514413626e-01 4.642557433569022152e+01
3.089411467164921543e+00 8.230156108425552841e-02 4.775307201577604133e+01
4.530239453951005579e+00 -1.622359231474322261e+00 4.780571662416959100e+01
-9.778440227181430799e-01 2.328093607187189384e-01 4.598491174481316790e+01
-1.527257794893912335e+00 -1.593651981671347362e-01 4.568443722314130895e+01
2.228841602173836367e-01 1.001596996501634695e+00 4.662161739958921203e+01
2.133233584983208697e+00 6.762687006887141417e-01 4.742909454034384709e+01
2.837536889995295741e+00 4.982641393148244391e-01 4.774111018769883685e+01
-1.772372697627401461e+00 -4.238944136201646673e-01 4.551878180005864039e+01
1.407751224946588664e+00 9.833866606397493326e-01 4.713108897522216978e+01
3.778150805396162770e+00 8.659437705158927467e-02 4.799000953827390958e+01
4.916027671671110433e+00 -1.962177372044948465e+00 4.778590595938035790e+01
4.721949041792020019e+00 -5.111878447527348213e-01 4.817929977248879680e+01
-2.342034230389382188e+00 -1.048292720021649638e+00 4.498072543048486693e+01
-5.028780315372869403e-01 1.309333716419192051e+00 4.632352241187653163e+01
-1.051641786617790952e+00 9.175417759175729104e-01 4.602334436754698288e+01
3.445557034545755126e+00 4.703581429155089810e-01 4.794461012104902409e+01
4.466294499540144791e+00 9.089271835616655193e-02 4.822674296641751113e+01
5.207123135994859098e+00 -1.044038669273246622e+00 4.814152058111734078e+01
-1.601339660181731794e+00 5.252780085096451224e-01 4.572268081947362361e+01
8.347993479948027096e-01 1.387406261624725134e+00 4.690334484889224598e+01
1.080633219479049945e-01 1.694968311976549957e+00 4.660482234742699603e+01
2.569816999134560298e+00 1.095673158019455862e+00 4.765393124246372736e+01
3.273620597160070034e+00 9.180821479718070943e-01 4.796574248661773510e+01
4.026555530498276525e+00 6.779801630017189273e-01 4.818097505675732606e+01
5.204458107255184984e+00 -1.520315475313739784e+00 4.800086967544109484e+01
-2.150250047926234753e+00 1.331052286338258728e-01 4.542247043025916753e+01
-2.557484772871323031e+00 -3.124517493808809943e-01 4.503801309759109017e+01
1.866013117727813864e+00 1.273269182298352398e+00 4.734212150696758670e+01
5.154592025425346336e+00 9.519727450146182879e-02 4.846353058075189324e+01
5.620179104096783007e+00 -3.750303835874370662e-01 4.843935808513870001e+01
1.598882604112818573e+00 1.870066517813722573e+00 4.725518059653155234e+01
-7.089817524412825867e-01 1.923569104839828015e+00 4.620752832528894771e+01
-1.832836211149589500e+00 1.349318716446918032e+00 4.562201074041047377e+01
-1.110358820554282921e+00 1.741245139264494757e+00 4.601395373256314514e+01
3.709541285771979169e+00 1.337753647533770573e+00 4.819029413312519949e+01
4.818431902622963392e+00 6.490914642630699616e-01 4.844734331774659353e+01
5.877972731409792928e+00 -1.418377395829014453e+00 4.819581904087964830e+01
-2.428339484057371767e+00 8.006421372126767411e-01 4.529304624507117438e+01
-2.964682997501407513e+00 -7.580562087329336673e-01 4.465359923424485089e+01
2.302443863096797827e+00 1.692824059537911152e+00 4.756689871459504104e+01
7.201113407128799659e-01 2.081307974073418166e+00 4.688663609345334038e+01
-3.671940853313629960e-01 2.411120037626480084e+00 4.635719887178887433e+01
4.482132002334745735e+00 1.203215840587387619e+00 4.843115108312937167e+01
6.086111651785141241e+00 -8.456059732767781112e-01 4.841516880977023618e+01
-2.749167387695262477e+00 5.341133721393779288e-01 4.505934463210697771e+01
1.703366841622941386e-01 2.541287137546580865e+00 4.661062829004005437e+01
-9.150770412254544128e-01 2.537783196242032524e+00 4.609154158144654900e+01
3.006095907634390940e+00 1.515324815664945479e+00 4.787864484542487986e+01
5.609917708133876246e+00 7.262290832639227700e-01 4.872411037304553361e+01
5.913609497426294936e+00 2.733490614516620454e-01 4.868529008843699302e+01
-3.306167004312287272e+00 7.629425034363657154e-02 4.456246899358642821e+01
2.034925238113490575e+00 2.289905596662087373e+00 4.747979835861183062e+01
-1.719064717222337446e+00 2.174049981549268207e+00 4.570376100027309718e+01
2.738869995050042583e+00 2.112384451846242239e+00 4.779167594030622013e+01
3.442365536922397329e+00 1.934979118514846830e+00 4.810335702072814712e+01
4.145658414488537780e+00 1.757626105237034553e+00 4.841495208620447244e+01
5.273714886094123422e+00 1.280154047351647284e+00 4.870791682089703301e+01
6.552193254270086697e+00 -1.316332046115535670e+00 4.839097293025831448e+01
6.379318554023254428e+00 -1.972421709899058739e-01 4.866104292289084299e+01
-2.706428245399151056e+00 1.466882044641897087e+00 4.516362751374677487e+01
1.331565966342096452e+00 2.467281026571558122e+00 4.716818221680724577e+01
7.585754247492817459e-01 2.850376770761198664e+00 4.688324677932659057e+01
-4.089310697389097471e-01 2.930565624303544947e+00 4.632251742148592655e+01
-2.277811075473799907e+00 1.901179099439197939e+00 4.540143413944137052e+01
4.937510544221549225e+00 1.834080553373159450e+00 4.869172465175670794e+01
-3.348653550945462687e+00 9.360214730835560992e-01 4.469587294371948616e+01
-3.726439418829413874e+00 -5.352222413724534444e-01 4.413668675914667006e+01
1.847512360989245206e-01 3.234030595963485855e+00 4.659789856787470796e+01
-1.121225858590901625e+00 3.152157060031902880e+00 4.597552756284869702e+01
2.493842038626394864e+00 2.615828645433963207e+00 4.768704342236608795e+01
3.940919940812892541e+00 2.447002904565635184e+00 4.832990925960825734e+01
6.845024696145848964e+00 -6.678339664207495474e-01 4.863679622737542019e+01
6.671712283141114419e+00 4.513012706963858700e-01 4.890679421936700777e+01
-3.784633906270338244e+00 6.129191561615813244e-01 4.431375101465398814e+01
-3.371782276583857652e+00 -1.203562129782029810e+00 4.426928726126649849e+01
1.881787906382063502e+00 2.806885226624711294e+00 4.741620466568031134e+01
-1.506825070970876368e+00 2.713015134515059046e+00 4.579574183632716000e+01
-2.326416919246806270e+00 2.605910346779155784e+00 4.539425822828005863e+01
3.138937990107003806e+00 2.688009193488792192e+00 4.797493676185626299e+01
4.602464864909003417e+00 2.187168792926124983e+00 4.862389008774237453e+01
1.164111708576038184e+00 3.150117932543123000e+00 4.704326284354209520e+01
5.728076087797961513e+00 1.910424389896383301e+00 4.896805615757988051e+01
7.202518474446116592e+00 -1.026380718890248955e+00 4.858687698717257319e+01
6.368162178272007701e+00 9.038627689246403474e-01 4.894556925097494116e+01
6.064610160745803391e+00 1.356426703695696068e+00 4.898434527911609848e+01
7.137745214272496419e+00 -1.950098873005787214e-02 4.888255698730291243e+01
-2.984521276957359692e+00 2.133507988758816865e+00 4.503421186689355693e+01
-4.081623861269189746e+00 1.340508754877316189e-01 4.400389158446425597e+01
-3.880446277177979075e-01 3.616997976535901493e+00 4.631306333982254841e+01
1.714108817696558873e+00 3.489384124118558361e+00 4.729119599160491560e+01
-3.412804174966324489e+00 1.691560106374713435e+00 4.471503655684332301e+01
-3.948729715495938652e+00 1.338768881238624031e+00 4.433204288757358569e+01
-4.298697765708111795e+00 -3.454861072463999982e-01 4.379822884229082547e+01
-1.791763695980657989e+00 3.290643858024304258e+00 4.564174778670751209e+01
-9.609840473477445633e-01 4.000061966886420350e+00 4.602815833121314881e+01
5.058781221402171013e+00 2.616257358820260226e+00 4.883260595063658371e+01
9.967440537245356724e-01 3.832606509149214524e+00 4.691840889340036114e+01
2.431473579689442666e+00 3.146162997783347848e+00 4.766398599146335613e+01
4.441913396635030153e+00 2.973359821120242330e+00 4.855959519686825132e+01
3.736248731107036924e+00 3.136153134017242827e+00 4.824489539007260674e+01
5.621805536633540434e+00 2.478097331299795592e+00 4.900479100954152045e+01
7.425856529469269773e+00 -4.469045564902067169e-01 4.880019335709376804e+01
7.430939721451909286e+00 6.294638136401587980e-01 4.912855750228107610e+01
-4.437048528335845177e+00 8.035975050606806169e-01 4.387100722052230850e+01
2.207192271860760613e-01 4.065834128375197309e+00 4.655334856621461626e+01
-1.327717111822981577e+00 3.767552239340807851e+00 4.585932392932899404e+01
1.762243753888970588e+00 4.068827883049221938e+00 4.727832607918609398e+01
2.981056369395450822e+00 3.485381415314713127e+00 4.791172177802170751e+01
6.823147036673858246e+00 1.534278663418388033e+00 4.920595872760553391e+01
7.127595208026637152e+00 1.081742480357881453e+00 4.916724678945121241e+01
-2.933688322731346165e+00 3.037721967175167403e+00 4.508479645729512697e+01
-4.794559980309369251e+00 1.138517597557219541e-01 4.354627939872291620e+01
-3.611731266188917266e-01 4.291057315111244996e+00 4.627594211896674636e+01
-2.402984865970985151e+00 3.394375897001469244e+00 4.533802663323569249e+01
2.407615256486878241e+00 3.760125608699748323e+00 4.761369815012233175e+01
6.336678038919661304e+00 2.483465739417431095e+00 4.924655527680667433e+01
6.519225088333053364e+00 1.986854564424634262e+00 4.924467479172633944e+01
7.852127872735336744e+00 -7.367108917886896480e-01 4.878259052952227393e+01
7.966572956980929376e+00 9.121608142700822486e-02 4.905346091689504817e+01
-3.596337546879695868e+00 2.292067923362059112e+00 4.464273378429543015e+01
-3.263231661989041577e+00 2.801638764272941451e+00 4.490451376673293993e+01
-4.002465856716420411e+00 1.931623029568354522e+00 4.434484705258049786e+01
-4.791887056047234417e+00 1.471835716115458270e+00 4.373834367857129024e+01
-2.203794668319875694e+00 4.078999685811376175e+00 4.542016935145192491e+01
-1.534368372535429570e+00 4.383424107867843311e+00 4.574303373422407759e+01
-2.872393148794760709e+00 3.774977073365243019e+00 4.509771996780330738e+01
5.515537399199235580e+00 3.045771651955330395e+00 4.904152716556196623e+01
4.986649387085715368e+00 3.157817346922803914e+00 4.880555491331618612e+01
4.141650387061367233e+00 3.737657150410318430e+00 4.843246776060486525e+01
3.531608296908002487e+00 3.825201981291813880e+00 4.815989560826178462e+01
6.154204954472589861e+00 2.979599066956872377e+00 4.924843433755047073e+01
7.721680848684349563e+00 1.302907185438702653e+00 4.934559683430569521e+01
-4.547771118134130930e+00 1.740821030320599538e+00 4.396883904349310512e+01
-4.989069903830570141e+00 8.895099592087735152e-01 4.353088931476568035e+01
-4.653880805070363280e+00 -6.972854596432819241e-01 4.352238019625961130e+01
8.294839296216510727e-01 4.514670829480414760e+00 4.679363545800956103e+01
-7.050741812355015847e-02 4.925899447261482322e+00 4.635999331991310157e+01
-8.021434770807401859e-01 4.654770266126691425e+00 4.605163709632457625e+01
4.751284082969199574e+00 3.650175285047938090e+00 4.870486053551927341e+01
8.120475532291466791e+00 7.680827998279603497e-01 4.927104859576312634e+01
-3.542213617492546707e+00 3.470432302092725241e+00 4.477469541958731725e+01
-5.294334458352407680e+00 -4.443957421040803379e-01 4.314928259368477370e+01
2.957095105547579816e+00 4.099929630709592487e+00 4.786134603963320444e+01
2.383757935862434785e+00 4.374091386417959804e+00 4.756341099036513498e+01
1.810377951377948103e+00 4.648273390512791536e+00 4.726545604178064508e+01
5.361647763623343721e+00 3.562589433432395314e+00 4.897758523447886603e+01
6.988132978149296903e+00 2.616351657003333386e+00 4.946653269396976071e+01
7.266314633873207640e+00 1.981487495440420243e+00 4.940366078824702356e+01
-4.612031832567504708e+00 2.584852026879240317e+00 4.399523476579943804e+01
-4.077402559474688104e+00 3.027311252681380793e+00 4.438475171772239491e+01
-5.146744404916367976e+00 2.142827734374999515e+00 4.360567546253921023e+01
-5.343961832118806932e+00 1.557733641823397575e+00 4.339817944271940320e+01
-5.738209694310850040e+00 3.924743942637556327e-01 4.298338836450787426e+01
-2.082542635006841891e+00 4.883095094931682922e+00 4.538915882358463705e+01
-1.539526370788189658e+00 5.043802644648675226e+00 4.563623723928635201e+01
1.236128416051342160e+00 4.922871578300155093e+00 4.696705124084848393e+01
5.971973354103385034e+00 3.475004939334964682e+00 4.925031079179215254e+01
4.106836209954146000e+00 4.161765694720379827e+00 4.839878719979559918e+01
3.472248319578416620e+00 4.401393729460336246e+00 4.806516061408429152e+01
6.714081596175827116e+00 3.360596420306197984e+00 4.946926179947371338e+01
8.012523851427541643e+00 1.976157119921070571e+00 4.956287301757748764e+01
8.411301173097955441e+00 1.441426737114138934e+00 4.948836061388132634e+01
-5.541093897940303492e+00 9.752894761831734094e-01 4.319077446538528164e+01
6.620663775342868762e-01 5.197377563648883481e+00 4.666874611952121654e+01
-7.398405306872523068e-01 5.423282343906472569e+00 4.596013947710222425e+01
-2.877481933301389905e+00 4.628299720573052056e+00 4.499301678418327555e+01
-3.588065385294621823e+00 4.198548899614128693e+00 4.466307070766288945e+01
1.802129364168465475e+00 5.159581949085282560e+00 4.720200134433784456e+01
2.509676768136275715e+00 5.136268027838268857e+00 4.753293644991621392e+01
5.309409014048663167e+00 4.198707979003563295e+00 4.892705182056107560e+01
4.681662069221784073e+00 4.498095792251819880e+00 4.863751210094908828e+01
-4.049696522792115339e+00 3.906257331171828717e+00 4.435995304131915162e+01
-5.935588802246252627e+00 -1.911967917197025801e-01 4.277572722985505038e+01
1.069117547089027953e-01 5.654889179479830830e+00 4.632999464446432114e+01
2.828486320409315358e+00 4.609135249406739909e+00 4.774230144345421678e+01
1.319902535535016463e+00 5.431064094250772634e+00 4.694664799430309898e+01
5.925623405465938909e+00 4.040562938523011738e+00 4.920541133487297714e+01
4.047345386042454862e+00 4.738453342330033458e+00 4.830393083704305468e+01
7.734855624280389641e+00 2.610899713969975444e+00 4.962581988394408938e+01
7.456983224136685351e+00 3.246119046732705016e+00 4.968881315105373631e+01
-4.718134944290793165e+00 3.352155170460301647e+00 4.387296004183860987e+01
-5.612057823640826726e+00 2.329797790978796357e+00 4.316664045337647337e+01
-5.252781488623462280e+00 2.909557672940751072e+00 4.348344319972406424e+01
-5.961309368524396746e+00 1.607389141926394815e+00 4.280926639749918650e+01
-5.951473797256072729e+00 9.195906944165184171e-01 4.279643620107985669e+01
-4.470062825039579080e-01 6.111381575613435757e+00 4.599200065612266286e+01
-2.629833655592146879e+00 5.381967949123015238e+00 4.503585635596946446e+01
-2.049485615621342127e+00 5.459756519880397896e+00 4.531474663678999093e+01
3.412835185514142111e+00 4.978088374066312660e+00 4.797034291397302752e+01
6.388441930806894042e+00 3.867725527186738343e+00 4.942261443675475618e+01
5.256970563683352360e+00 4.834711721240227966e+00 4.887643771779827517e+01
-6.150098581689300126e+00 4.252586540100419810e-01 4.259047155944617913e+01
7.010404928551072778e-01 5.784937026201281363e+00 4.657271027660378593e+01
-1.544685304409496585e+00 5.704192397280764659e+00 4.552943959791410578e+01
-3.633901812585481839e+00 4.926383385208493948e+00 4.455149260594538418e+01
1.977633146090412408e+00 5.664713955210628704e+00 4.722450564996955791e+01
1.358811936192574121e+00 6.018422972110474944e+00 4.685061889067138452e+01
4.622268839062135370e+00 5.075146013541508516e+00 4.854265953941098388e+01
5.879253002619311275e+00 4.606120636575629312e+00 4.916051108758796317e+01
7.339646548291837824e+00 3.949431727085265909e+00 4.972839556296381147e+01
-4.054094653982289742e+00 4.550604495234630953e+00 4.428739214349492670e+01
-6.430437816950503205e+00 2.905620022628073798e-02 4.221216042095711884e+01
1.464902815386533719e-01 6.241757347017432345e+00 4.623436620417275122e+01
-1.035264949885616126e+00 5.990047090337970559e+00 4.572880418402733227e+01
-3.172740239101268678e+00 5.238698119141155018e+00 4.476163682005336142e+01
2.635599098191582890e+00 5.898447911785929421e+00 4.750246317776910843e+01
3.353387223838098397e+00 5.555110166335999189e+00 4.787547148935927765e+01
6.314095461147171129e+00 4.360923059910549959e+00 4.936807167008959141e+01
3.987853237207017010e+00 5.315141386757450626e+00 4.820907460232052699e+01
-5.358865266522357729e+00 3.677006944186796300e+00 4.336116891049438493e+01
-4.957755705053288331e+00 4.009293384891780221e+00 4.365340162526629797e+01
-6.077313744608913382e+00 2.516744625832188831e+00 4.272766862959136347e+01
-5.718108329850187133e+00 3.096711066208676311e+00 4.304440110151870869e+01
-6.364413623630859718e+00 1.041137561783522791e+00 4.240538899980267473e+01
-2.102410256383196452e-01 6.741507413597796372e+00 4.597690945486414194e+01
-2.343093961676000703e+00 6.048059904791877273e+00 4.507460683432085347e+01
2.016189852903197188e+00 6.252081966021204806e+00 4.712830033551639985e+01
7.399870728459395641e-01 6.372133152108022003e+00 4.647673267736490743e+01
6.804720266831028930e+00 4.260498442867482360e+00 4.959509657963380391e+01
5.832875979234823482e+00 5.171678586250821219e+00 4.911561166790140476e+01
5.197785881437092748e+00 5.411972906790081694e+00 4.878165923149088457e+01
-4.556652877560403603e+00 4.341633851803129218e+00 4.394564025239873217e+01
-6.384899227116460629e+00 2.144860424358833839e+00 4.242148972495019166e+01
-6.578656411025179729e+00 1.656782403004985360e+00 4.222037388039473882e+01
-1.000780771307559824e+00 6.567755719372982526e+00 4.565409680068103881e+01
-1.549842805998270956e+00 6.364463082352444623e+00 4.542266243709291729e+01
-3.177130491531987122e+00 5.880849674100653957e+00 4.468255181143506860e+01
-4.327733127914231481e+00 5.148442718129548012e+00 4.402469757601952693e+01
3.293921943134971553e+00 6.132310156422323466e+00 4.778057186977616055e+01
1.397481456224305862e+00 6.605438839385826100e+00 4.675453945806476241e+01
2.054746513216787474e+00 6.839453230502011039e+00 4.703209474154042624e+01
4.562873574545752042e+00 5.652196912902734738e+00 4.844780697393166236e+01
-6.183433201530047718e+00 3.283872045060159284e+00 4.260537262841067729e+01
-6.779070862911869888e+00 1.030626880807456791e+00 4.191106022762402006e+01
-3.679712023899939233e+00 5.653823044832931188e+00 4.443998191655181529e+01
7.788957674340799553e-01 6.958756974695440967e+00 4.638084918231715648e+01
2.674525373031647391e+00 6.485773545793204420e+00 4.740644705705028628e+01
6.527081050288316533e+00 4.912936116019373856e+00 4.944144858955746002e+01
3.928661612963657568e+00 5.892152853997119522e+00 4.811432694879784577e+01
-5.824210366156502339e+00 3.864205764923968722e+00 4.292212187611892915e+01
-5.063611099621165401e+00 4.777010254940992517e+00 4.353132558638392879e+01
-6.542778083390235366e+00 2.703774697350174172e+00 4.228851251763335739e+01
-6.793143483625802226e+00 2.272940173733098312e+00 4.203515308481703983e+01
2.652905068410767175e-02 7.371635292040450871e+00 4.596182009343208108e+01
-7.642734023595754156e-01 7.198055845684245391e+00 4.563885639218028700e+01
-3.001809378289564734e+00 6.595349993538895284e+00 4.465776344857449232e+01
-2.278940755660223250e+00 6.809760370567721210e+00 4.498659835463666212e+01
3.422104223655773936e+00 6.792041750978682124e+00 4.766721606383254795e+01
1.436153634894580478e+00 7.192455543610430269e+00 4.665846153762382897e+01
7.222272784678884783e+00 4.653965842389931495e+00 4.976804553360506134e+01
5.904840526874218121e+00 5.780401462945860658e+00 4.903703182615651457e+01
6.346772378762532973e+00 5.489994452006444980e+00 4.932709184372042444e+01
4.617027224157917331e+00 6.108642445394213638e+00 4.838897695641718144e+01
-5.464990071647164882e+00 4.444873280385145620e+00 4.323886089991115966e+01
-7.020196125790213237e+00 1.723764640480989208e+00 4.170286701217345637e+01
-1.554996983295152901e+00 7.024494023854495950e+00 4.531592582140483216e+01
-4.340993272183196972e+00 5.991224546694918551e+00 4.392436189445950134e+01
3.982530633852066515e+00 6.348692860974059826e+00 4.805535106919337096e+01
2.735520878955793211e+00 7.249889968930165018e+00 4.723531939403643065e+01
2.058872480196197952e+00 7.349274230667820262e+00 4.690126273614815489e+01
5.288013215575843695e+00 6.172744208913280239e+00 4.868358806830185870e+01
-6.648605039292119656e+00 3.470996279672055262e+00 4.216650530258488061e+01
-6.289555614469904299e+00 4.051411212506113024e+00 4.248309102715124652e+01
-7.234759281858310409e+00 2.340437657520573200e+00 4.151760215042641988e+01
-3.725489294351332692e+00 6.380703268129103378e+00 4.432856248848842995e+01
8.178036031242805759e-01 7.545318820600094512e+00 4.628497768987491412e+01
-4.955978849946145459e+00 5.602089057159809649e+00 4.352050826829530905e+01
1.532308153679186713e+00 7.686343979201791576e+00 4.657369332740297097e+01
7.298302673154965170e+00 5.390967072362756518e+00 4.975962483799008140e+01
-5.930182204655543465e+00 4.632393029120043693e+00 4.279996291827764310e+01
-5.571129434179232121e+00 5.212867858726120573e+00 4.311655245985762264e+01
-7.007805559382202176e+00 2.890628906249999464e+00 4.184978679132384372e+01
-7.216080626782226837e+00 1.084056813638559102e+00 4.139742523001478247e+01
-3.827602341674962161e-01 7.759145750117000695e+00 4.559610776737492444e+01
-1.085170820841989681e+00 7.640837826645419995e+00 4.529432483109712848e+01
-3.005881487250930295e+00 7.391225123695725152e+00 4.431408195109976589e+01
-3.365671764658768161e+00 6.885982651872931015e+00 4.432132161027963946e+01
4.110626086782217747e+00 7.007873717089540655e+00 4.794209843892397771e+01
2.247565782915663224e+00 7.827518408364197100e+00 4.686271342173676402e+01
4.671182342068842530e+00 6.565088059046257918e+00 4.833014793060144143e+01
5.976800520812507678e+00 6.389141345561253793e+00 4.895844869427622825e+01
6.860771565743227107e+00 5.808419265605827775e+00 4.953881480535839188e+01
6.374059687477763525e+00 6.028079861091852010e+00 4.923835617740967763e+01
-7.369085012050565098e+00 3.040317316133610781e+00 4.133212700761023228e+01
-7.461740762450284947e+00 1.790684430826205098e+00 4.118538358070614436e+01
-1.920601080981549025e+00 7.713402566734369081e+00 4.480766165704130088e+01
-3.946930151334416603e+00 7.013156074161208231e+00 4.375645399337425800e+01
-4.518915505077098160e+00 7.037222232949103429e+00 4.316764933002224325e+01
-4.869677969386367877e+00 6.429057893790078637e+00 4.315061003800344963e+01
3.366197131145823862e-01 8.209813898845077063e+00 4.576812234729766260e+01
3.550069621653376917e+00 7.450660086267520299e+00 4.755405168783899228e+01
1.268067190713975334e+00 8.109304334704516393e+00 4.624775021989499635e+01
1.915689118070439401e+00 8.190722311866219130e+00 4.653084648862372319e+01
5.360476880042257086e+00 6.781686351678449576e+00 4.860520122931008302e+01
-6.774759603514588058e+00 4.112818142420374024e+00 4.194030354996732513e+01
-7.169790789221366367e+00 3.474176132493572933e+00 4.159199951038537080e+01
-6.379780426844528840e+00 4.751303932370209537e+00 4.228857915676561419e+01
-2.645696727912042689e+00 7.897018723643931537e+00 4.430683806934403179e+01
-5.220366302059474606e+00 5.821024609341535871e+00 4.313358093158431927e+01
-3.537692227928274313e+00 7.377809441171114813e+00 4.387657546802360287e+01
2.962906006360344513e+00 7.968708077558678937e+00 4.715176781738928469e+01
7.375796585169873687e+00 6.127586953438717288e+00 4.975120751780311679e+01
4.767334878865993275e+00 7.059501332072846580e+00 4.824523910138086080e+01
-6.020774815913020106e+00 5.332093565245570765e+00 4.260507503351961844e+01
-7.618717900510628027e+00 2.435112902579842142e+00 4.096675645704730329e+01
-1.246211134832698519e+00 8.154305528011091653e+00 4.497607520833551575e+01
-6.148347388771047139e-01 8.257851416606573736e+00 4.527270064659697368e+01
-5.839507104570987650e+00 5.882355513721339690e+00 4.268488052187142756e+01
-5.488602827464214684e+00 6.490579807207307539e+00 4.270198415855866614e+01
-4.168247078014172047e+00 7.645230366588783077e+00 4.318469021046865208e+01
1.034881473591965140e+00 8.601414722957375858e+00 4.592256340775725931e+01
2.459455810305209322e+00 8.344412593126182998e+00 4.672918259838392174e+01
1.718164872243895358e+00 8.673077925976070190e+00 4.621053834394366788e+01
6.711850101124895218e+00 6.563096297926053424e+00 4.931496762378722565e+01
6.048769527203027074e+00 6.997970064487365249e+00 4.887985480234349467e+01
-7.490659656628318785e+00 3.567331698963027264e+00 4.113422716449429117e+01
-7.730357152776471175e+00 3.189831844701247920e+00 4.081449120130245944e+01
-7.845881828999182517e+00 1.884917265891272065e+00 4.063428168716609434e+01
-2.913244885582741084e+00 8.149851195216035293e+00 4.392809307244818484e+01
-2.286066897107205786e+00 8.402035589557167228e+00 4.429960608970957026e+01
-6.470009215373432987e+00 5.451210578985399735e+00 4.209406637541728458e+01
-6.201297717381809349e+00 5.891292133764943983e+00 4.229171582100904203e+01
-5.137698277983487216e+00 7.098809121937867062e+00 4.271909259874743015e+01
-1.447436510273358568e-01 8.874547031942778830e+00 4.525108672726777570e+01
3.678151455205348697e+00 8.109880121298621347e+00 4.744078403889744067e+01
4.271075234755503658e+00 7.831777131904721578e+00 4.780071161082320685e+01
6.263928754993344228e-01 8.995324202607820396e+00 4.555855726836729502e+01
5.456062342306747581e+00 7.275974247157614094e+00 4.852005082650943280e+01
-6.900918487666195311e+00 4.754687684666673242e+00 4.171410007915037710e+01
-7.331827992963415142e+00 4.058181612302104391e+00 4.133413427827708375e+01
