2.529752754465904863e-01 1.157447529775795481e+01 4.129472196339737167e+01
-1.357002614885617076e-01 1.189084120819703294e+01 4.110042445391480470e+01
-3.331911615416246697e+00 1.376429227954302981e+01 4.047827529130180579e+01
-2.123674981893452607e+00 1.343530708228573367e+01 4.067114058467713278e+01
-1.519066544904513538e+00 1.297991732395468034e+01 4.069144362579849883e+01
-7.003791533317069273e+00 1.432983127405121948e+01 3.937009115329413333e+01
-7.593116390181974928e+00 1.431314058681413037e+01 3.903167752044382866e+01
-8.426221230447001886e+00 1.369529493398692921e+01 3.840937983144009849e+01
-6.415305809753802713e+00 1.409667775234406939e+01 3.950129420265641045e+01
-4.538735764224724356e+00 1.409288358604692526e+01 4.028573791527112036e+01
-3.735819607240511431e-01 1.269701024080311669e+01 4.092127953497342929e+01
1.522129910901568600e-02 1.238045915530366514e+01 4.111561410622302759e+01
-5.142258766111967638e+00 1.425720704447515175e+01 4.018948860744801266e+01
-8.202450139788179939e+00 1.402827414223050084e+01 3.855584642463893630e+01
-5.763001394494767560e+00 1.428143863142895142e+01 3.991620457754551410e+01
-4.557318010346297577e+00 1.432740010591019875e+01 4.043547277908162130e+01
-2.727592156823863689e+00 1.359974658591487184e+01 4.057472737700358323e+01
5.840710373057078630e-01 1.212183694423638336e+01 4.137985726677776199e+01
-8.182902358450734326e+00 1.429643076270602009e+01 3.869304162994171747e+01
-6.383510061149542558e+00 1.430564295857327117e+01 3.964311978872085263e+01
-3.972495679049663053e+00 1.439755382661642003e+01 4.068194941932713249e+01
-1.623225251458101148e+00 1.355688667406162295e+01 4.088538002388725090e+01
-6.495848629734645163e-01 1.298987688032688226e+01 4.098400660638028370e+01
8.266600205717909988e-01 1.180709617260325750e+01 4.147348211804406759e+01
-7.527567986831182445e+00 1.484139070428725482e+01 3.907780977619136564e+01
-8.040147099154255628e+00 1.480918574718742775e+01 3.878294675951910619e+01
-5.686433239469322665e+00 1.455295402960998707e+01 3.998363842251349354e+01
-3.388241322886725637e+00 1.446761944007537082e+01 4.092866688921801455e+01
-2.756043298140745001e+00 1.395166633408521228e+01 4.079978793298726458e+01
-1.933578771429157461e+00 1.386550692063785384e+01 4.102722405993223731e+01
1.661438453277050697e-01 1.287007279775252222e+01 4.113065802641354907e+01
-6.770387850935728480e+00 1.514405292583303364e+01 3.957324275002475389e+01
-7.424775695511916851e+00 1.503277709955703934e+01 3.926603932743206116e+01
-4.494502978946306015e+00 1.490417681988560439e+01 4.063687616689765036e+01
-5.045321231827900377e+00 1.512231070597903937e+01 4.049109639995983656e+01
-3.941612847626256411e+00 1.468580025925812826e+01 4.078282913951989030e+01
-1.123017449346692453e+00 1.367841081460547414e+01 4.109951441347199363e+01
-3.858217866808869023e-01 1.345552927633392848e+01 4.125594303713675970e+01
9.151876107956123940e-01 1.266924633192715177e+01 4.146481693753300846e+01
-6.230606620391969663e+00 1.484842369158050701e+01 3.977832424193731242e+01
-8.466013749060412152e+00 1.516544959386865798e+01 3.854495296607336030e+01
-8.772047402779460157e+00 1.427973271830253665e+01 3.835484590530759874e+01
-8.051381135168872660e+00 1.535291776684577059e+01 3.878662405920412226e+01
-5.649136356540379822e+00 1.490816498790908362e+01 4.019341668978518811e+01
-3.971224474251396686e+00 1.506326579973196367e+01 4.100982811799512007e+01
-2.296280012712454077e+00 1.424755175933987417e+01 4.115917987116478827e+01
1.401603088641671269e+00 1.203979139419714883e+01 4.165224180407273735e+01
-8.880648530778435301e+00 1.497798168533631191e+01 3.830336522533187349e+01
-2.777327238746266413e+00 1.455344826190980356e+01 4.119881075699158401e+01
-1.743989660819359910e+00 1.429523361723953911e+01 4.138315743541510727e+01
7.062499703113584992e-01 1.304327483784926756e+01 4.134019099800190133e+01
-6.714798891519114576e+00 1.561796077971219354e+01 3.985377306739016490e+01
-7.307945383575311205e+00 1.543962553498791657e+01 3.936849509006822245e+01
-7.845431459762838067e+00 1.573513858427401857e+01 3.916403022707035575e+01
-5.596979227469661033e+00 1.534078028022268825e+01 4.034510957382397578e+01
-5.083742424109942704e+00 1.562645953012657074e+01 4.079421307058503743e+01
-3.235358527946683882e+00 1.488474679569113235e+01 4.122779992257202508e+01
-4.551408001257751579e+00 1.565999134030034057e+01 4.109185540686733873e+01
-6.222896888101281387e-01 1.380006907799590898e+01 4.131389684855968625e+01
5.628561842349084632e-01 1.356869929739661451e+01 4.153895454390615782e+01
1.225393979509540321e+00 1.150549527355875234e+01 4.176134939710529892e+01
1.899656437745481430e+00 1.286061373418735165e+01 4.177961674869840891e+01
-6.148749061078266465e+00 1.555929328149347235e+01 4.019910595392607178e+01
-8.989264711910756489e+00 1.567636304467876052e+01 3.825464058861255268e+01
-8.574616256504247858e+00 1.586382947691454959e+01 3.849649333025149645e+01
-3.567831552888657942e+00 1.531563066579834853e+01 4.132409255866376441e+01
-4.008191380652037950e+00 1.567957845397489614e+01 4.133691524965146868e+01
-8.384946624998208531e-01 1.432363119484299574e+01 4.163381887212139532e+01
-2.165453227130432978e+00 1.463930816208557673e+01 4.146907769551682321e+01
-1.218472734259283957e-01 1.392166578922392617e+01 4.152819522819416420e+01
1.246161062758635252e+00 1.321643821073174330e+01 4.154969094123761408e+01
-7.280118259365409905e+00 1.567655086171621548e+01 3.950889472385965462e+01
-8.262787964242338745e+00 1.594829643552744791e+01 3.884498460223261418e+01
-9.441326670207971006e+00 1.531899403360722900e+01 3.781227086354685696e+01
-5.616563938102021147e+00 1.559287035356547690e+01 4.049641257228029900e+01
-3.078618250330423578e+00 1.530163744631724754e+01 4.152717856787784712e+01
1.663275058903673331e+00 1.172645048869538265e+01 4.188141174086187135e+01
1.978195558229759898e+00 1.227235988861125549e+01 4.183090455809620778e+01
-6.388160578798942169e+00 1.638473799253632990e+01 4.024280492542312970e+01
-7.236405669236256166e+00 1.647273043444731044e+01 3.972556494166172314e+01
-7.540993727011205294e+00 1.610387860732578957e+01 3.944456874512594169e+01
-5.443153241048253932e+00 1.606257517898963627e+01 4.071582740768737807e+01
-5.006010795481479647e+00 1.637371199718426595e+01 4.103635838401496727e+01
-3.464565352375390095e+00 1.569917710111872999e+01 4.158215690292706768e+01
-4.387346601177104510e+00 1.636471452056265719e+01 4.135279565662592205e+01
-1.551531078807771857e+00 1.472522076593124574e+01 4.173953407653029046e+01
4.178485686504785357e-01 1.405607096522920152e+01 4.173207213190472231e+01
1.817956779510970788e+00 1.128160052677903380e+01 4.210876013849237154e+01
1.835958221797480805e+00 1.338622477355544582e+01 4.176145574459469856e+01
-6.931974507712792999e+00 1.684132116949970026e+01 4.000663440111157598e+01
-7.818568224899364871e+00 1.633071295905804021e+01 3.927508756267050671e+01
-9.097859739432804460e+00 1.637471030765451019e+01 3.820684423995794532e+01
-8.680307525897685395e+00 1.616150879878072644e+01 3.852588772626604907e+01
-7.791609205499532287e+00 1.692692446094125458e+01 3.938719679345223312e+01
-5.919651163428421903e+00 1.606889270492824551e+01 4.045907629639643233e+01
-2.236301006912512435e+00 1.522175208586643613e+01 4.178300263303921014e+01
-3.823836274499702093e+00 1.611621983607734521e+01 4.153502607329281915e+01
3.998326128818154024e-02 1.431230274858986284e+01 4.182936510378765149e+01
2.554645291855093259e+00 1.250487010114173714e+01 4.200953802538511894e+01
-8.431378030641411669e+00 1.694915171410724142e+01 3.885299162490001379e+01
-9.507386289900248144e+00 1.611380290574086160e+01 3.781018588051394858e+01
-8.764796528716027879e+00 1.666179289356143656e+01 3.852964698078325512e+01
-2.921761373872367340e+00 1.571874334547280228e+01 4.182702528252464447e+01
-3.355505558175988501e+00 1.616858434573407166e+01 4.175580009540390591e+01
-9.102952787425018233e-01 1.484806630116558956e+01 4.197050970872427911e+01
1.510844268527262502e+00 1.363050929890732732e+01 4.181403935379621828e+01
9.589989439648098912e-01 1.419025889564504617e+01 4.193566968668309869e+01
2.186367054656643827e+00 1.189334414202996015e+01 4.205915190591515085e+01
-6.627467366491414325e+00 1.720993004863451858e+01 4.028792324192442464e+01
-7.195794106482246377e+00 1.736680600669422603e+01 3.989406592738707502e+01
-9.917086955110949731e+00 1.585278268993763717e+01 3.741360618084819123e+01
-8.097968303385776778e+00 1.723646570098037145e+01 3.917645431502756992e+01
-5.690255660920594316e+00 1.657893432346363838e+01 4.072006212488653176e+01
-4.841812847078573512e+00 1.707841277969977867e+01 4.129783503537043288e+01
-3.789684737856103602e+00 1.661887187832724777e+01 4.168478052096919129e+01
-2.918704512679423324e+00 1.644253604712432804e+01 4.197204887518500271e+01
-3.569503175643082837e+00 1.711756689210313453e+01 4.186592283502049128e+01
-1.407441378686313804e+00 1.532701390799807761e+01 4.207270282972076814e+01
2.063990159923054235e-01 1.470314824206118942e+01 4.213103792375530077e+01
2.428325548057279626e+00 1.355627298255266844e+01 4.197357076425836908e+01
-9.500299517650626413e+00 1.654996341943656546e+01 3.765482947596382246e+01
-8.919457494471261683e+00 1.696348473408986024e+01 3.837142338558544452e+01
-7.764520019845257082e+00 1.752377969086186837e+01 3.950003523595304955e+01
-6.044446779839791617e+00 1.714908395822213549e+01 4.063446425951834584e+01
-5.461096874722115579e+00 1.708820220222311193e+01 4.098120206741248950e+01
-2.368851896425015369e+00 1.578900964531818829e+01 4.202040362777277238e+01
-4.223335002948113370e+00 1.706862576645453800e+01 4.161406545204001617e+01
-1.815714401057946237e+00 1.585929365826114434e+01 4.221388048910805679e+01
-2.686599438772616644e-01 1.497096973342173243e+01 4.220168114213822719e+01
2.986992693881178162e+00 1.228418636505273298e+01 4.223768170870561534e+01
1.777198898998853638e+00 1.404458787263393127e+01 4.207848704139193075e+01
2.907642381314279767e+00 1.296878794842094074e+01 4.213908045152469128e+01
-9.361297430957913335e+00 1.705871565628057596e+01 3.772378138636768341e+01
-8.740857978342468471e+00 1.755242936610911997e+01 3.853685930701158924e+01
-8.163510690640363165e+00 1.783281623177985864e+01 3.910112037093871606e+01
-2.915477115434536248e+00 1.716651134390687616e+01 4.211785740979602366e+01
-1.813861195381511360e+00 1.634180387597633199e+01 4.231057591811469365e+01
-7.177716113747629745e-01 1.565092725535213525e+01 4.241559317637731397e+01
1.501582621195881373e+00 1.432452414263087626e+01 4.213943059216845910e+01
3.184017651983825470e+00 1.270973791163119948e+01 4.219083020877084778e+01
-9.902741236365523392e+00 1.672519128271890665e+01 3.710280248506921197e+01
-9.055653770696871163e+00 1.747289952010606484e+01 3.809805980391357139e+01
-8.562007877584848714e+00 1.814149026493188188e+01 3.870279105249509399e+01
-7.511505848564660859e+00 1.799338187934147371e+01 3.971610364133594118e+01
-6.816482831921991448e+00 1.807090046074635126e+01 4.021788156743517817e+01
-6.444010876478482253e+00 1.794196950259597756e+01 4.052162099092540615e+01
-4.617993362216830988e+00 1.756435525106562068e+01 4.150598243453894298e+01
-5.434436434557255780e+00 1.782214865955709726e+01 4.113541791644281886e+01
-2.364564973190320440e+00 1.675406959284162056e+01 4.221415899583706732e+01
-3.440097273116079712e+00 1.763401631079614162e+01 4.198837262571876039e+01
-4.356679905669710529e+00 1.781877845460849130e+01 4.167161103395446275e+01
-1.263101391475914381e+00 1.592949998977270809e+01 4.240719137171409159e+01
9.296960273256076324e-01 1.488209369707422880e+01 4.240281533726706442e+01
3.021591132078730091e+00 1.372657422692706319e+01 4.218602626797442667e+01
-8.916231933162242385e+00 1.800854000755258255e+01 3.821567341930300898e+01
-7.732504559027330693e+00 1.812441893523463676e+01 3.948657854544793366e+01
-8.264017224488043212e+00 1.853553184611758908e+01 3.895528903016011668e+01
-5.012635799704304951e+00 1.806019973635604359e+01 4.139806881044015796e+01
3.727630630947552648e-01 1.509381827842544688e+01 4.243282490211021241e+01
-1.725773619182606189e-01 1.537241880490584833e+01 4.242412770848647341e+01
2.043545218675035358e+00 1.445862879786124999e+01 4.234298905098280841e+01
3.260558341069591304e+00 1.343258461782532898e+01 4.226855313625367216e+01
-9.624575975430291308e+00 1.774266965788777739e+01 3.724158908724162842e+01
-5.860965765320515608e+00 1.788141394023962150e+01 4.086817794986858843e+01
-9.270427791886520552e+00 1.787559753787757089e+01 3.772859646713470738e+01
-8.396578683794105658e+00 1.871146823634264322e+01 3.873116485914168550e+01
-7.258493289994398801e+00 1.846270359830234753e+01 3.993217648031432532e+01
-3.965229159043029306e+00 1.810209771990336236e+01 4.185886793053764166e+01
-3.295212495062852298e+00 1.790302094870617822e+01 4.207715559761639668e+01
-2.297553943625180395e+00 1.725799971810641509e+01 4.227790293769115237e+01
-1.471539679378013332e+00 1.663950031913173078e+01 4.242227308137547936e+01
-7.252759933618369015e-01 1.602246650674142714e+01 4.252095210630263011e+01
1.487151184942212989e+00 1.467016384019306052e+01 4.237283800242485654e+01
2.566675862054968782e+00 1.427133564816119637e+01 4.236132703715875891e+01
-9.986166281239698961e+00 1.752030420090937213e+01 3.682628036318092768e+01
-9.374560265836322515e+00 1.821440333453214677e+01 3.744915724374803290e+01
-1.030548097595106327e+01 1.690052127065579768e+01 3.655035484332741902e+01
-8.717856144906228621e+00 1.865020710117493508e+01 3.828391458471877939e+01
-9.124032772173352512e+00 1.868687875840284107e+01 3.765713304589267807e+01
-7.700325277152675341e+00 1.872427488840143184e+01 3.947333484867253617e+01
-6.632623078492345670e+00 1.880311350769078516e+01 4.045212999823381494e+01
-5.407204374888552323e+00 1.855622256850365304e+01 4.129027864986959884e+01
-3.009543616014215939e+00 1.820932042699409692e+01 4.217040658867824732e+01
-4.489526228379848938e+00 1.856965084435444524e+01 4.172962651768946785e+01
-4.948758129690043361e+00 1.856293189499398721e+01 4.150977033348439704e+01
1.011840645433467634e+00 1.520265674637130004e+01 4.256439533193880465e+01
3.613578461911277184e+00 1.389650447616165785e+01 4.239804163994492825e+01
3.089894937752536652e+00 1.408400559025020016e+01 4.237967314502742511e+01
3.812670932815829694e+00 1.291437125974999134e+01 4.237191764501970681e+01
-9.811668192478782302e+00 1.793298735630369478e+01 3.674366347006700551e+01
-1.034728665268502645e+01 1.729819504172257894e+01 3.641175100588741032e+01
-7.965904648339006577e+00 1.892959313184128689e+01 3.920782189326835265e+01
-7.005063916099698140e+00 1.893231547071644982e+01 4.014849225446676684e+01
-6.260051090094540527e+00 1.867386522022416173e+01 4.075588305579082515e+01
-5.833577159641660792e+00 1.861503661155294864e+01 4.102311293005345050e+01
-2.344758174371773141e+00 1.777940636153547160e+01 4.230411488807295939e+01
-1.679764119765957187e+00 1.734945339916339790e+01 4.243792071664056920e+01
-1.003167098892920217e+00 1.696935399923254906e+01 4.254137447397030769e+01
3.619791298635720578e-01 1.565122846785295785e+01 4.259043812891458458e+01
-1.871881491427476452e-01 1.611546427722187147e+01 4.263479877395707973e+01
2.166963400592900602e+00 1.493928532477160509e+01 4.258499404346771655e+01
2.591296082264371137e+00 1.454462311331955071e+01 4.245759374344799397e+01
3.790094432597067797e+00 1.341016252742953263e+01 4.240554419059195368e+01
-9.584601834899817874e+00 1.828561633263214148e+01 3.695649882664505981e+01
-9.998641771678412837e+00 1.812316975872557734e+01 3.624605410898300306e+01
-9.334326267497187857e+00 1.875721107697393464e+01 3.716453501661855796e+01
-8.230934629045574269e+00 1.928136529592746484e+01 3.875958102446872999e+01
-7.336689140517433927e+00 1.912804346203104444e+01 3.980409484785363361e+01
-3.674670312500000424e+00 1.863925187118616833e+01 4.203676761343288604e+01
-2.199597415128971001e+00 1.768554584685401920e+01 4.233331755491636983e+01
-5.071119968541311529e+00 1.905405703733886469e+01 4.158281529753552519e+01
-3.263386202746624831e-01 1.658914753492236116e+01 4.264495068447297399e+01
1.651517394746159439e+00 1.531157966926690150e+01 4.269615368879792783e+01
-9.761916675981060720e+00 1.837188737624471457e+01 3.654767185808466223e+01
-1.070855047411386174e+01 1.707596832963636402e+01 3.599743881487085417e+01
-8.873538333441155501e+00 1.915897158081127927e+01 3.786500217005500701e+01
-7.667770058311479175e+00 1.932346156725188990e+01 3.946025161450395302e+01
-8.469463378970081280e+00 1.950507391161533377e+01 3.832655260595294777e+01
-5.821840081749183327e+00 1.908156188535158293e+01 4.117180113541633801e+01
-3.081613798010328864e+00 1.873430184398594989e+01 4.217057686453134124e+01
-4.375200402389496368e+00 1.909896799848745630e+01 4.189480080296584674e+01
-2.146922509365762899e+00 1.781111186281849257e+01 4.234870348350949598e+01
9.976145849870788895e-01 1.594583951427363822e+01 4.277501889112252087e+01
3.139046769608656362e+00 1.463060878573967294e+01 4.257224118917188349e+01
4.098876256505480598e+00 1.370537786953362946e+01 4.251000222998412426e+01
-1.054053392856140725e+01 1.778979514802505690e+01 3.562409926871534793e+01
-9.083903312093740468e+00 1.922914062297787297e+01 3.737238398809439133e+01
-7.139588834821214647e+00 1.951365093769599923e+01 4.009500758712081137e+01
-6.529424831075246516e+00 1.923125269250167690e+01 4.067201606803082115e+01
-6.901976173684463589e+00 1.936003202328903683e+01 4.036829928080663876e+01
-2.613805706417391850e+00 1.827271776442990969e+01 4.225959522850811112e+01
-4.782657452806784448e+00 1.906420331776540777e+01 4.174118282965345372e+01
-1.126703632073319694e+00 1.747016467869967116e+01 4.248984235950712218e+01
-1.200667129340962536e+00 1.787694224453720082e+01 4.244889814134308637e+01
-1.827543160959272273e+00 1.816283648332892753e+01 4.235606551515819973e+01
-1.115707035868071656e-01 1.690026554131763703e+01 4.264500189536542507e+01
3.512736560581442569e-01 1.620851402605677549e+01 4.274875290249666193e+01
2.290545232963875133e+00 1.542037535987403096e+01 4.282783605584455699e+01
1.643904018289010338e+00 1.568318199925551149e+01 4.280136938147064996e+01
4.209279487751306448e+00 1.398763498040744579e+01 4.251595563849394210e+01
-9.544617795470692556e+00 1.882754011630079205e+01 3.667194561324038204e+01
-1.018555929077533229e+01 1.831328631896710846e+01 3.574858916446147816e+01
-9.896273120137292878e+00 1.860198061962433869e+01 3.612734853045289185e+01
-9.294209514875641176e+00 1.929928446710468748e+01 3.687990341340032785e+01
-8.618919839943668393e+00 1.962442744837292707e+01 3.795112265313456845e+01
-6.237926182936504027e+00 1.960738943378673582e+01 4.105337531206224355e+01
-5.652156960914009431e+00 1.953776368412925990e+01 4.143633272975434778e+01
-3.558499436118983006e+00 1.904295336881207490e+01 4.211968839666347009e+01
-2.454384917682518097e+00 1.844857398009411753e+01 4.226330827076024832e+01
-4.093702131798552024e+00 1.914999888346993373e+01 4.202732706942982333e+01
-5.076175781249999908e+00 1.955896173636021018e+01 4.175281679527446244e+01
-1.103492823857740390e+00 1.783262845376207650e+01 4.246328968532431247e+01
-1.581992905222345813e+00 1.823930871543597831e+01 4.235497654432548842e+01
-5.734091727644474723e-01 1.759090916474721666e+01 4.254180278450938602e+01
2.939633473655637097e+00 1.521432474405800050e+01 4.281914365448415083e+01
8.744463916633401501e-01 1.630821311263489548e+01 4.276903161924920482e+01
1.397263996857044388e+00 1.640782990642978234e+01 4.278932991092307248e+01
3.924580565245759711e+00 1.434939414619109677e+01 4.259973973092826327e+01
-7.471322465228205978e+00 1.970899208757438714e+01 3.975099369211892508e+01
-1.037239213435355012e+01 1.850330531563959369e+01 3.525134475956964053e+01
-8.784660021906924854e+00 1.980070811986773194e+01 3.748383256317841017e+01
-8.066282292664714859e+00 1.985111507422923083e+01 3.878802768225916964e+01
-3.511232421874999954e+00 1.928413145221541924e+01 4.220221931147440841e+01
-2.591267900659728785e+00 1.888713594082645741e+01 4.216844081399276689e+01
-3.266059509603602251e+00 1.936054370152189463e+01 4.220115280088955956e+01
-4.512411558682286383e+00 1.966033793289154730e+01 4.201792506069006805e+01
-2.086609137660549784e+00 1.856324031401767272e+01 4.226168913711754982e+01
-1.077857763193304397e+00 1.791517393676253178e+01 4.244835375506262665e+01
6.728263389666262473e-01 1.704929562463141579e+01 4.267562794253869640e+01
1.296527371875853429e+00 1.677825417011206000e+01 4.274264368629408040e+01
2.105071959701694695e+00 1.596409695977570742e+01 4.281847451115842063e+01
3.687401894046825390e+00 1.471668083742986788e+01 4.268705351777692414e+01
-7.627424078032198018e+00 1.991694137196116188e+01 3.944791149446390932e+01
-1.008318448089502617e+01 1.879197887953745294e+01 3.562989978027236759e+01
-1.057307969751540355e+01 1.812530116208320763e+01 3.475500470015914800e+01
-1.070584270290074969e+01 1.762938701071114878e+01 3.491534709105455647e+01
-9.793825639919417014e+00 1.908075616581866285e+01 3.600868934168025248e+01
-9.100062572468775812e+00 1.990548080158136912e+01 3.674522987632002469e+01
-9.504522141130104629e+00 1.936942455763378135e+01 3.638740914181120445e+01
-8.088713157934822817e+00 2.020312202229293419e+01 3.845595249128627557e+01
-8.365163460565437248e+00 2.008980434712855612e+01 3.803723177232998864e+01
-6.799943149543097753e+00 1.978809494054312168e+01 4.058840984437424737e+01
-7.275140448146148131e+00 2.009440492371372855e+01 4.004170126378300409e+01
-4.035463220277521579e+00 1.935165218176858204e+01 4.206880193130571399e+01
-2.018754687499999534e+00 1.912231913376769654e+01 4.211279484807903373e+01
-2.457952363133649065e+00 1.944294176404268271e+01 4.219680538456554331e+01
4.932462405547430317e-02 1.732026122625981657e+01 4.260866201079070947e+01
-7.527651794571152966e-01 1.829917843514200015e+01 4.234347913483079395e+01
-1.365744006794453735e+00 1.849521156874298455e+01 4.228511112251617732e+01
-1.978507592555226680e+00 1.869117497672345962e+01 4.222677183387423838e+01
9.559005410715537554e-01 1.744019945012616901e+01 4.257671206996518976e+01
2.899768567143348630e+00 1.548614408607085302e+01 4.282398100729896839e+01
4.235987721155898278e+00 1.480278169649109188e+01 4.280194892104319848e+01
2.469288453278035700e+00 1.628501601270223631e+01 4.281130972776761467e+01
1.919846161477491320e+00 1.650738883216008901e+01 4.280965008990488485e+01
-1.006452899519612210e+01 1.914041636000744973e+01 3.493720785252143912e+01
-9.849325139060224998e+00 1.922859829746262150e+01 3.549412384939421372e+01
-1.036466000825948086e+01 1.855388580968305590e+01 3.458399069256658009e+01
-1.077419095254662729e+01 1.774648365491361446e+01 3.425770301783938976e+01
-9.588182431837326547e+00 1.950573214022323754e+01 3.579987375137810091e+01
-7.826912228151376105e+00 2.018071660697951941e+01 3.911163312881544130e+01
-2.963808776129101652e+00 1.948566714557766844e+01 4.226663638055575234e+01
-4.977893916812266284e-02 1.774872792476615047e+01 4.250109696374494206e+01
-7.727476960797083905e-01 1.851483559061550110e+01 4.228645897475959003e+01
-1.392857019952626618e-01 1.810294205124770173e+01 4.240191608999591466e+01
-1.493407468942582472e-01 1.821089361013716257e+01 4.237336844668973868e+01
1.437743767323593547e+00 1.697386703203083513e+01 4.269310785235701644e+01
4.741588160398477192e-01 1.790661233195874047e+01 4.246038976213186800e+01
3.588101390832761250e+00 1.500846472843359614e+01 4.281051214626791079e+01
3.508855310100165603e+00 1.555188183922128964e+01 4.282019370986965612e+01
3.018748992249843166e+00 1.606263919814103502e+01 4.281299642896860291e+01
-7.587273828124999397e+00 2.051068156813474275e+01 3.943560636311882206e+01
-1.055180082665381391e+01 1.819886863519160869e+01 3.416986570765545395e+01
-9.274198394665186029e+00 2.005884065938633043e+01 3.604714919244853633e+01
-8.403849982315607647e+00 2.049862374784971664e+01 3.761343899117119349e+01
-8.696715672482902448e+00 2.044161107061059468e+01 3.710312986045633465e+01
-8.111175000000001134e+00 2.055559394383579175e+01 3.812342078558765479e+01
-7.876803878697966610e+00 2.042633927184018106e+01 3.880391545751336935e+01
-1.395751197075142391e+00 1.881857931196213229e+01 4.219961997444282531e+01
-3.940851688426501909e+00 1.983394645832524716e+01 4.223386251539497493e+01
-3.336348283391464609e+00 2.008418238749205997e+01 4.236483389593914950e+01
-2.897149893958660183e+00 1.976356251832484290e+01 4.228081861241477668e+01
-2.360461436980413996e+00 1.977173937560636219e+01 4.224075209840551537e+01
-2.482226885063910093e-01 1.872016692078547351e+01 4.217662929616085421e+01
1.073162608131572826e+00 1.769602128611484559e+01 4.249538229255860244e+01
1.671875029288681702e+00 1.748554285011961085e+01 4.253036583258913339e+01
2.952292126686603346e+00 1.673856371803075760e+01 4.269343066060236680e+01
2.435991206113941487e+00 1.662296634055475053e+01 4.275153615668941143e+01
2.270808757593663074e+00 1.727499312434695611e+01 4.256537206702732590e+01
-9.671972280463425164e+00 1.964223188499174810e+01 3.521141320726695767e+01
-9.459840413893058297e+00 1.995094107416174012e+01 3.549797342521397070e+01
-7.899114163207695327e+00 2.077907085298750900e+01 3.847155290838687591e+01
-1.428576565680405031e+00 1.898826879049720873e+01 4.213407029055990449e+01
-1.547901486138970606e+00 1.922459615448720882e+01 4.214691648601499452e+01
-1.618754408836537761e+00 1.969162938486454095e+01 4.224359735123055515e+01
-8.383996071249263382e-01 1.885421792621884052e+01 4.215534837421446213e+01
-1.077047769446088932e+00 1.932686968646558867e+01 4.218103931193027023e+01
4.118282367386203902e+00 1.561764009989075674e+01 4.281646523455365383e+01
3.568179923394952269e+00 1.584027447068309691e+01 4.281471329821953731e+01
3.792965322371270265e+00 1.623627444285409638e+01 4.272570809762856925e+01
-7.971828592829617754e+00 2.097545426010042036e+01 3.781847571878551406e+01
-8.264621198881789255e+00 2.091834004265541225e+01 3.730845266825490114e+01
-1.017306335554381747e+01 1.895534186691699219e+01 3.429242618699164780e+01
-1.035690577578880855e+01 1.860443369648534429e+01 3.391661135367251489e+01
-1.066202800899436554e+01 1.801184320440626507e+01 3.350480307816185643e+01
-8.870635017532151778e+00 2.059529138067422238e+01 3.640468127429857503e+01
-7.836301024654478198e+00 2.104037019583752510e+01 3.818578476231735408e+01
-2.702167010045413598e+00 2.042114698439379339e+01 4.236873374392256864e+01
3.419544741067908622e-01 1.858611376250625824e+01 4.219791381883658232e+01
-4.271987816821793404e-01 1.907465548201700045e+01 4.219589658116500175e+01
9.986820999589058889e-01 1.811240806060302688e+01 4.235038591319945311e+01
1.522382812499999849e+00 1.831799680534178165e+01 4.224049298939291930e+01
2.008700551925702182e+00 1.795223145974289025e+01 4.233912019958178519e+01
2.494681715769530683e+00 1.758652306173147650e+01 4.243775594946836804e+01
2.869724835286030284e+00 1.706445876669093309e+01 4.260038657208259139e+01
3.468248212663992636e+00 1.685406925639700759e+01 4.263538883914544186e+01
-8.470650433168872340e+00 2.099003281656833764e+01 3.680144126060817911e+01
-7.832580078124999901e+00 2.139500691943101884e+01 3.751374509757386022e+01
-9.953584208200682681e+00 1.940423980565638473e+01 3.416470357049411888e+01
-9.755823164368610634e+00 1.977881415318590186e+01 3.462249944698675108e+01
-1.015155663749036741e+01 1.902922936434664436e+01 3.370641360196683678e+01
-1.034912535101038422e+01 1.865495311847246640e+01 3.324907754004950533e+01
-9.665478993847605338e+00 1.977781823830947872e+01 3.403091240215493940e+01
-9.855481264178786560e+00 1.943053903995223664e+01 3.364960930186437338e+01
-9.044475197672090516e+00 2.074888041395225358e+01 3.570655580220642378e+01
-9.281244781883509987e+00 2.042560952240921779e+01 3.534528575776985093e+01
-9.518558631494054012e+00 2.010197958594516976e+01 3.498362669553725368e+01
-7.686965811447910468e+00 2.100263860527528692e+01 3.881983153749595061e+01
-2.160460853688967120e+00 2.005638941505615591e+01 4.230616236989746426e+01
2.226488181535465349e-01 1.882244263299079279e+01 4.221075772541890814e+01
2.981503028331748517e+00 1.722024497905850637e+01 4.253657157825222868e+01
9.321304052707806154e-01 1.845206464943961322e+01 4.221920015626677980e+01
2.205933609947264173e+00 1.811473468063250181e+01 4.224738682875627660e+01
-8.038484171267262113e+00 2.146678938487475463e+01 3.700685263753341303e+01
-9.917177471776831510e+00 1.921513353657006817e+01 3.304835647899696482e+01
-1.409336619815277913e+00 1.983422813456870415e+01 4.218849631509657883e+01
-1.741625492373280126e+00 2.034158072779047544e+01 4.219597072094209267e+01
-2.073914062500000099e+00 2.084892842986850781e+01 4.220346198120189740e+01
-3.934730612933554639e-01 1.921074230547547401e+01 4.216348406263193738e+01
8.724981091151725598e-01 1.857022718556548213e+01 4.222562283342782052e+01
4.082145009637339506e+00 1.658129602177438500e+01 4.260419568124336109e+01
2.889088540106485858e+00 1.791149093746550847e+01 4.225428570906890968e+01
-7.561301562499999740e+00 2.152536214734399422e+01 3.824817769682810820e+01
-8.244511321335236786e+00 2.153860522912794551e+01 3.649965613234888906e+01
-8.644507562098880271e+00 2.114372872332969777e+01 3.610309277789924920e+01
-9.575078511969019601e+00 1.977679497699802980e+01 3.343903888110727962e+01
-9.327679841840121000e+00 2.030607933738750148e+01 3.438836558091794160e+01
-8.665466255200341195e+00 2.121218952621908471e+01 3.546947185633874255e+01
-8.972557690453829338e+00 2.079096320215658267e+01 3.493056332069925674e+01
-8.900622656250000375e+00 2.083301538716075996e+01 3.415437666490400659e+01
-9.387772477218579326e+00 2.010334224455105456e+01 3.379936185850384334e+01
-1.047652458934763775e+00 2.021775328110004111e+01 4.221428406995848803e+01
-5.492194805111986211e-01 1.945672866132056100e+01 4.220308030630965845e+01
2.901007864819004078e-01 1.909461489482365693e+01 4.214593004316657243e+01
3.958682048058589587e+00 1.700338818257045759e+01 4.251519019569109048e+01
3.572274123755227127e+00 1.770824404786198869e+01 4.226119164524884297e+01
4.448920854298466843e+00 1.715263410789563991e+01 4.239505112569359824e+01
1.657250341105128477e+00 1.886235858521181186e+01 4.211082595009571605e+01
9.736752236375779690e-01 1.897848720918524634e+01 4.212837728885985200e+01
2.273406467579529355e+00 1.847405824638376615e+01 4.215810844367781129e+01
-7.807272602798568606e+00 2.183389325372722212e+01 3.676919955943574791e+01
-7.601600133283533012e+00 2.176167836269579325e+01 3.727646275746832316e+01
-9.484842774404269150e+00 1.977574280715505495e+01 3.284754067092739405e+01
-9.649246396732223729e+00 1.936140490695105498e+01 3.233599396823770888e+01
-7.891366914830649115e+00 2.190995478055085499e+01 3.629321438556565482e+01
-9.095217623832766662e+00 2.048085488734072257e+01 3.371907324310659959e+01
-9.290011426529584782e+00 2.012833295724285065e+01 3.328333896768361910e+01
-8.593463307162764409e+00 2.125434941771909436e+01 3.469352275968825694e+01
-5.345217148225253068e-01 1.990216565009468042e+01 4.221970200519546523e+01
-1.560783184177541250e+00 2.053334261518473269e+01 4.220887026316188440e+01
-2.139089799190270480e-02 1.958657739983364010e+01 4.222512449649291710e+01
3.662975882883392487e+00 1.818733214179266611e+01 4.214213723276579060e+01
4.255511462977526804e+00 1.750499286180302860e+01 4.226810321706823004e+01
2.340823980316192099e+00 1.874623101730975350e+01 4.209327576453038233e+01
3.024398828124999827e+00 1.863010239290296255e+01 4.207572707807550927e+01
1.196924466713966018e+00 1.920398857684930505e+01 4.216536504106916539e+01
-7.232914994810978548e+00 2.203925095662010492e+01 3.776469645546620768e+01
-8.265484988440226388e+00 2.160704866717660622e+01 3.586602421253849826e+01
-9.283669835309863672e+00 1.972390813916412711e+01 3.226014211435226997e+01
-7.370130468750000219e+00 2.212911600070358631e+01 3.703868604929193964e+01
-8.926314561079383481e+00 2.047814194267962051e+01 3.326286941896552207e+01
-8.733793795399495963e+00 2.080123568876493678e+01 3.362505880610432030e+01
-8.286460000481159938e+00 2.167546772204113381e+01 3.523238970868705167e+01
-8.359376118793772292e+00 2.124372581189298970e+01 3.398734084446515169e+01
-8.942424393907398184e+00 2.025670559494260203e+01 3.270683614614809898e+01
-8.566826100886794748e+00 2.076940968628320050e+01 3.309529916701643515e+01
-1.143094862020254121e+00 2.091437602596193202e+01 4.194177971462144683e+01
-1.517200868247707390e+00 2.135721161657385281e+01 4.184729884104114461e+01
5.877669942866949881e-01 1.939528310146631895e+01 4.219524467946638424e+01
4.300820753519011497e+00 1.774455150061305631e+01 4.220856732462790717e+01
1.806082703043002446e+00 1.901269321488595310e+01 4.213548549179666480e+01
2.415240867187500751e+00 1.882139780760581971e+01 4.210560616618417384e+01
-7.454322443169967727e+00 2.220516054868842915e+01 3.656248299517304901e+01
-8.052270357414826663e+00 2.166520242222338055e+01 3.452709540341233208e+01
-8.919013220283350307e+00 2.001361208362817123e+01 3.208738265346880070e+01
-8.400055343003044683e+00 2.073759987868174193e+01 3.256616313189296363e+01
-8.560272385629943415e+00 2.036537052696311889e+01 3.207263956458646703e+01
-7.691767067729760043e-01 2.047175948786088284e+01 4.203622262035968049e+01
-3.952902873158362085e-01 2.002917808987191961e+01 4.213066709096340645e+01
-9.686399316151178551e-01 2.103991635167864160e+01 4.187841098057693046e+01
6.373977214622951193e-01 1.949992305655554148e+01 4.216921190148170240e+01
6.769363053658232765e-01 2.008808831151387153e+01 4.197176125712001493e+01
1.282201392329622436e-01 2.040547462614240004e+01 4.194063058292924495e+01
4.229460348372942491e+00 1.836054544513578080e+01 4.196062810839920587e+01
4.938758454677256715e+00 1.730174498877321199e+01 4.227502208235861048e+01
4.832394113798011759e+00 1.822566058159938507e+01 4.190303712289271232e+01
3.626902149305320400e+00 1.849533132000052760e+01 4.201817872167195844e+01
3.546503100010851117e+00 1.874655558021126822e+01 4.199507903427622324e+01
3.273005857002086127e+00 1.915323128672121555e+01 4.194552694268602266e+01
2.614084379196841113e+00 1.923990895108814669e+01 4.200144894813166019e+01
1.954976274384120360e+00 1.932660942470669241e+01 4.205738740368764894e+01
1.296187538738032163e+00 1.941326772776906040e+01 4.211329900034166229e+01
-9.450685346692431210e+00 1.934402083369182890e+01 3.182979281470657895e+01
-7.912477391007295857e+00 2.197824689025997458e+01 3.565958852169480053e+01
-7.538407421874999237e+00 2.228109551722900861e+01 3.608688354368496931e+01
-8.374890960326590417e+00 2.104955142781070876e+01 3.344184574915067998e+01
-9.082543458114818336e+00 1.967205472948579370e+01 3.167287850153354967e+01
-8.113941813934193448e+00 2.066421413602821033e+01 3.202350177969730538e+01
-8.205999221240480423e+00 2.104316629954809059e+01 3.298388698792560803e+01
-7.737293375882420499e+00 2.112746993822491959e+01 3.245978805020140356e+01
-4.200616636774068269e-01 2.072260845847848998e+01 4.190952814431771145e+01
2.307423155793032754e-01 2.054427685632146350e+01 4.180543080604436312e+01
1.328749996459978711e+00 1.990355826902030500e+01 4.194875728405565951e+01
1.341855241167212887e+00 2.002141347505657620e+01 4.188055137491486590e+01
1.980406347729465555e+00 1.971907270334894235e+01 4.192575866769304582e+01
-6.738665621144777518e+00 2.251112862563945427e+01 3.739634957022968109e+01
-7.133394864486509945e+00 2.247713109387295205e+01 3.640595529664686580e+01
-7.377519317350387240e+00 2.233218546533198889e+01 3.550602181840392291e+01
-7.751669192846859957e+00 2.202924200349945849e+01 3.507839528124105044e+01
-7.817524218750000919e+00 2.165486866033790392e+01 3.382011817671089204e+01
-8.011822113719501814e+00 2.134892332950444072e+01 3.340187380429663477e+01
-7.569647934207635487e+00 2.160915480988716553e+01 3.333115429465799195e+01
-7.193876076567733868e+00 2.199923813565542474e+01 3.371717060789644904e+01
-7.516982745621957562e+00 2.201906695475727105e+01 3.437213865259615631e+01
-8.720690668237971011e+00 1.999266864300129853e+01 3.157851715868837417e+01
-7.661831198299376311e+00 2.089280189056412596e+01 3.187420191274415160e+01
-7.229779880755420329e+00 2.118392969897073996e+01 3.188092164954957397e+01
-7.321916007405669724e+00 2.156343952236134953e+01 3.284247644940188593e+01
-6.611800949976864850e-01 2.145616970180635619e+01 4.147296345313282018e+01
7.465894236251615634e-01 2.057901245332451623e+01 4.157465711483158799e+01
4.068983647872549625e+00 1.886308630527588193e+01 4.191437327011981040e+01
4.591986465533011597e+00 1.897972672080421574e+01 4.183358724880137913e+01
3.932123980585934042e+00 1.906652793482415476e+01 4.188958852910743502e+01
3.286649926109527886e+00 1.934927159895257631e+01 4.187965737682944223e+01
2.633276665711195452e+00 1.953424262402948841e+01 4.190271725246316947e+01
1.240405673215645876e+00 2.049384903274349767e+01 4.153466325108077228e+01
-6.728293265314833960e+00 2.267321025305189508e+01 3.672509989865623936e+01
-7.055585717666314594e+00 2.256802069351965656e+01 3.595815309250730252e+01
-7.147657825735318937e+00 2.181353872742835520e+01 3.319127354230314353e+01
-8.274136120146490470e+00 2.029170348264857893e+01 3.152944786351426742e+01
-7.827583971260052564e+00 2.059072005522984838e+01 3.148038512106941056e+01
-7.073939604068963050e+00 2.151764885854105103e+01 3.235331830086051497e+01
-2.148695704977696130e-01 2.099987012046982926e+01 4.163932210955866964e+01
-1.107154492187499839e+00 2.191212847808298392e+01 4.130673245872284838e+01
1.750467729804981443e-01 2.135061985233094362e+01 4.122067398632631807e+01
5.104878332913128425e+00 1.868982483105340009e+01 4.180772020325221661e+01
5.435398114956992544e+00 1.809070577034923133e+01 4.184542063726421901e+01
3.939367125924539970e+00 1.916448686862859319e+01 4.185661989750362721e+01
3.335631541068665218e+00 1.982147696702632089e+01 4.160706144401438422e+01
2.670685483754692946e+00 1.988815967918115035e+01 4.169827249224678667e+01
1.951079490708648168e+00 2.032964408327285000e+01 4.150951825048954902e+01
2.006187341741280772e+00 1.995479511599260292e+01 4.178942339821681884e+01
-6.894518552472634454e+00 2.261921787917448157e+01 3.537743348690079159e+01
-7.216382921002258755e+00 2.238332878640992263e+01 3.492426147084398025e+01
-6.893177174375007432e+00 2.236341789732788499e+01 3.426881001996040510e+01
-6.738250914658506119e+00 2.206822566374628636e+01 3.319395842764409821e+01
-6.570414544583684346e+00 2.234348869610009558e+01 3.361425457915425596e+01
-7.385464939473667556e+00 2.085053528737414652e+01 3.140900016415222140e+01
-6.719570224230123401e+00 2.145565361182161013e+01 3.185457432682476409e+01
-6.126384473774454165e+00 2.292266572182587581e+01 3.715136802819397133e+01
-6.650847958102406920e+00 2.276388376998774987e+01 3.627742651268189178e+01
-6.573374067432097512e+00 2.285457460556470011e+01 3.582959327179805342e+01
-4.659024590502258700e-01 2.163130812611613152e+01 4.126369225113965200e+01
-3.337248458677012919e-01 2.200109856796418484e+01 4.080954705296229434e+01
8.162288213278084958e-01 2.106982961890229333e+01 4.117764127377024153e+01
5.617095274461775034e+00 1.840030148520161646e+01 4.178189098598790707e+01
4.001302109082846670e+00 1.975471977151239145e+01 4.151575169499779605e+01
2.751714156064914096e+00 2.044888818408324482e+01 4.124438713527154476e+01
1.462255556763359055e+00 2.086257182188363402e+01 4.119991985922859357e+01
2.107147227717374616e+00 2.065567830705122176e+01 4.122215892928555547e+01
2.749013495895796577e+00 2.097714765833646311e+01 4.075468351147651447e+01
2.105381833966239569e+00 2.100801427457976089e+01 4.089553051931602567e+01
-6.905973960983622817e+00 2.179313989795192796e+01 3.277394198796773850e+01
-6.317658391833672837e+00 2.289493806010563759e+01 3.663538552226263079e+01
-6.240164844939339872e+00 2.298562686211444372e+01 3.618771927836743174e+01
-6.047423101361979469e+00 2.309655257774384651e+01 3.576719889007480901e+01
-6.297402634864363691e+00 2.266729652710428411e+01 3.417900069177393618e+01
-7.541141118133422694e+00 2.051715403543608218e+01 3.093711551072459898e+01
-6.875343414224207805e+00 2.112208201066034263e+01 3.138242851571731151e+01
-7.987805993887918454e+00 2.021812969805120730e+01 3.098626618906719798e+01
-6.298910724316741927e+00 2.292275501751048949e+01 3.528635393583414981e+01
-6.620066794170268665e+00 2.268731666720773532e+01 3.483374675948913790e+01
-9.091657539326053472e-01 2.246710632898536986e+01 4.062535512306416052e+01
2.411511115733575572e-01 2.153554705097445776e+01 4.099356017900424121e+01
5.202936992418552009e+00 1.888983328275670104e+01 4.169546506355263915e+01
1.461213157280123243e+00 2.103890434791395592e+01 4.103649560281031938e+01
3.396248965020031818e+00 2.024210874925373815e+01 4.126661364034328727e+01
7.396534564952274016e-01 2.148032002618118241e+01 4.082226874202608258e+01
-6.407770768170029996e+00 2.202772203964540054e+01 3.273626142819756524e+01
-6.575692562737397218e+00 2.175246254407224811e+01 3.231612019436897043e+01
-6.239846299525596329e+00 2.230297348369497001e+01 3.315639949576781476e+01
-6.221412469806472778e+00 2.169031871276055767e+01 3.181720733067280094e+01
-6.077713209424933538e+00 2.198714101418655531e+01 3.227894242405334069e+01
-5.909583202691789161e+00 2.226246162682699037e+01 3.269896526449817742e+01
-5.435509765624999545e+00 2.326945479278663953e+01 3.703143326007039349e+01
-5.907104296874999605e+00 2.311661743879545838e+01 3.654569779243054484e+01
-5.470444619534487352e+00 2.329589259490580488e+01 3.652224576003386147e+01
-5.713878853147018155e+00 2.322776011555300713e+01 3.612534779439532429e+01
-5.868404383398440949e+00 2.265124675816691635e+01 3.355812620948783831e+01
-7.030788728888589745e+00 2.078870129712668202e+01 3.091031924554378918e+01
-6.365221368711806882e+00 2.139361432791849182e+01 3.135586082759413173e+01
-6.024573122047212514e+00 2.299087554416196610e+01 3.474336535200663434e+01
6.631738475736352889e-01 2.189028952294686547e+01 4.046734499056162804e+01
1.286907749041092064e+00 2.164262835344600688e+01 4.053003620214285974e+01
4.666696518802376126e+00 1.968798990790913095e+01 4.142447974957999435e+01
4.961687458438843734e+00 1.930064621889243170e+01 4.158337908493778201e+01
5.814191319628739585e+00 1.879989145738077738e+01 4.155727827294936105e+01
1.930600762891404365e+00 2.145201523109163588e+01 4.053529953887284165e+01
3.309993719704726445e+00 2.061120251050977359e+01 4.094667703691668237e+01
4.041725166001508107e+00 2.003502744743287067e+01 4.128887210419044607e+01
3.761322762280820076e+00 2.054234225604839281e+01 4.089174475439838119e+01
-5.595556438241592545e+00 2.297487280231865014e+01 3.412253530598458440e+01
-5.723254424248714223e+00 2.192497440652372731e+01 3.177984070559074681e+01
-5.579471484375000401e+00 2.222193268158426704e+01 3.224174261897669425e+01
-5.373018809566785237e+00 2.259057620015664725e+01 3.287219630503035717e+01
-5.166766015625000819e+00 2.295883112812913041e+01 3.350203098584501049e+01
-5.141635470207564396e+00 2.345936050999037903e+01 3.517986169573418209e+01
-5.772754075744797042e+00 2.316478028141845513e+01 3.522363576010295816e+01
-5.520517187500000311e+00 2.333896417939074297e+01 3.570470041835861252e+01
-4.968672952347248817e+00 2.356816631888093738e+01 3.569654513927597606e+01
-5.277385028938136102e+00 2.340695077343044161e+01 3.610202258516374485e+01
-5.034567521430348691e+00 2.347484362604537367e+01 3.649884127576571302e+01
-4.725850466908485537e+00 2.363604831389703165e+01 3.609364918492902063e+01
-4.577971760585117345e+00 2.362565653123552423e+01 3.653868310946351983e+01
-4.692548210071071146e+00 2.354729602750182593e+01 3.703893418579601615e+01
-5.393220165955544765e+00 2.328553285092536385e+01 3.469936136937083404e+01
-4.763064843749999611e+00 2.357962335036916812e+01 3.465545157544450205e+01
-7.682605213050656801e+00 2.014239705765358224e+01 3.040995566155629959e+01
-6.520713525296601532e+00 2.106008457526429467e+01 3.088353967116180598e+01
-1.606812847696454938e-01 2.238360836565320255e+01 4.036871040011513401e+01
5.331155280508807159e+00 1.962135120598497195e+01 4.133333722840408342e+01
4.384397748945029427e+00 2.045345157283324511e+01 4.081017692250482298e+01
2.341197183853227504e+00 2.169361186174265299e+01 4.020643386666756669e+01
3.392211231455807940e+00 2.094629894827967220e+01 4.061393242042846197e+01
4.686656743547448656e+00 1.982811969581769063e+01 4.131111253506002612e+01
2.926258460023443142e+00 2.149132659811277435e+01 4.023777567424465218e+01
-5.866906311326557599e+00 2.162827045552089444e+01 3.131835849790008552e+01
-5.037985979182901808e+00 2.241446002620443778e+01 3.222785172519251518e+01
-5.180915510378688360e+00 2.211198194646935278e+01 3.177152623656858310e+01
-4.826989940614754282e+00 2.267093733238709774e+01 3.261314859541271716e+01
-4.762993761249836311e+00 2.290567509781252298e+01 3.306798169271961285e+01
-4.639487999111848282e+00 2.230451436292029399e+01 3.175771714000412516e+01
-4.650624220595553915e+00 2.315358628752080250e+01 3.349380393546492485e+01
-4.964849513930388980e+00 2.326933683617539472e+01 3.407893195670395414e+01
-4.447799184177225307e+00 2.337440349101198578e+01 3.384777455787012457e+01
-5.324606600978885496e+00 2.181518751543962509e+01 3.130992201102658967e+01
-4.926199463442333837e+00 2.170520392421873979e+01 3.083988647859916910e+01
-5.468298902148342577e+00 2.151837632716141968e+01 3.084832076528983080e+01
-5.095761806857164622e+00 2.134815540652043708e+01 3.035790374111248013e+01
-6.010594674782738345e+00 2.133147386728269979e+01 3.085675865368315129e+01
-5.637853469638989701e+00 2.116140149693498529e+01 3.036643293264345900e+01
-4.590094350173010262e+00 2.368843710199728747e+01 3.517188824844802042e+01
-4.269030025333655942e+00 2.378695473150618866e+01 3.613332333183483769e+01
-4.417095254463516696e+00 2.379725342098020135e+01 3.568840342659162701e+01
-4.120857750130006103e+00 2.377663884585293275e+01 3.657857333137837941e+01
-7.187000480825595616e+00 2.041211672966042912e+01 3.041204666050667171e+01
-4.434997388491187520e-01 2.274894481461745244e+01 3.995291908633303990e+01
-9.592278463552880163e-01 2.297357575913901329e+01 3.987305958021524077e+01
1.170990593365600851e+00 2.209820977440955403e+01 4.014374635356923449e+01
1.755819063024039339e+00 2.189600653127114427e+01 4.017507490354203981e+01
-3.918913874517273577e+00 2.374346407023832128e+01 3.717713754974851526e+01
5.915939985616353702e+00 1.938537709207714599e+01 4.126770128213524913e+01
5.114697164959947528e+00 2.004220226048546039e+01 4.099963834773042493e+01
-4.782492870834185617e+00 2.200202369649923995e+01 3.130147024467905226e+01
-4.359283656170191534e+00 2.285249165229042845e+01 3.263400228871772413e+01
-3.955632305838150842e+00 2.279927507214296867e+01 3.220008693694826718e+01
-4.496482019616098391e+00 2.260698560221272402e+01 3.221395738791499497e+01
-4.098375771593719463e+00 2.249704902210963908e+01 3.174413886875159818e+01
-4.319147836941060525e+00 2.308928032631743932e+01 3.309449181100405468e+01
-3.787286132812501371e+00 2.317108345572826522e+01 3.283873334023036961e+01
-4.134653732741019105e+00 2.334827100397495414e+01 3.348558148982404248e+01
-4.381809447198626195e+00 2.356739404345972488e+01 3.426287999861667544e+01
-4.553669457223295858e+00 2.153669629139793784e+01 3.034937540525976019e+01
-6.166682218673328997e+00 2.095525412832073542e+01 3.035904457587891869e+01
-4.074580690880147849e+00 2.382692481704030385e+01 3.467369898515836013e+01
