-3.912429618977220525e+00 5.647718234589532038e+00 4.009420717822118263e+01
-2.769584038880475774e+00 6.402205450135739717e+00 4.113506041546290248e+01
-1.790058923435690508e+00 7.352160790142241886e+00 4.192822467591975766e+01
2.048728860690599340e+00 8.383542078422360433e+00 4.373432172018277697e+01
1.754148721086948415e+00 8.473465614223188780e+00 4.347443497371216381e+01
1.195742392815326127e+00 8.148938482190617449e+00 4.333832083085528097e+01
5.079048311535736104e+00 7.856957693068931547e+00 4.574948073393654369e+01
5.296837267869941357e+00 7.549223506617583901e+00 4.605426531959815861e+01
2.847931861437973833e+00 8.588743283818372376e+00 4.405854438940143325e+01
4.546012005702912973e+00 8.141887574231292390e+00 4.531226480549194235e+01
3.634435515202702582e+00 8.365072241461568581e+00 4.469795338690744302e+01
7.348521060082326528e+00 6.423396235061424875e+00 4.765340235256728363e+01
7.222548129940585149e+00 7.151704788892278231e+00 4.732230148843997597e+01
6.278436494435398529e+00 7.251444990232461585e+00 4.669390983712106902e+01
-5.109255887681462660e+00 3.212656941466113913e+00 3.910423277720708057e+01
-4.808739514881506416e+00 4.307411664317937650e+00 3.928059950339889639e+01
3.689450940314389915e-01 8.152810968002544456e+00 4.274708623762136739e+01
-4.205888532245468880e+00 5.205202342071472366e+00 3.985780299131591420e+01
-3.257109836781454604e+00 6.451071557827250835e+00 4.067219395443458296e+01
-2.443835661546522875e+00 6.913509344075055907e+00 4.125079374053897396e+01
-2.183355782323683769e+00 7.309984715926771237e+00 4.154551253363310082e+01
-1.177084194460284783e+00 7.797861063217405686e+00 4.211872955350975900e+01
4.201960059767217537e+00 8.460371844654575924e+00 4.496367030988786695e+01
5.926499189107925503e+00 7.684681978868006524e+00 4.636450350628314965e+01
-4.500794668957479594e+00 4.810996659277652299e+00 3.962826345376161896e+01
-5.956450527404116846e-01 7.997592457797307652e+00 4.234228010294357603e+01
8.285663609062949853e-01 8.487037504258440279e+00 4.289342503106520610e+01
-3.666845977709229931e+00 6.107699061735416102e+00 4.026792081380977351e+01
2.312610060647074306e+00 8.798032965983088260e+00 4.361057688177098157e+01
4.986074379369488163e+00 8.254548489130570488e+00 4.549911310132673492e+01
3.379989483574092457e+00 8.898950916866919414e+00 4.415874545022818154e+01
3.773339005286008074e+00 8.787242087310108474e+00 4.447833062507145740e+01
4.128831591846589433e+00 8.661018392363329710e+00 4.475977491069227909e+01
4.769285934264682503e+00 8.555659788275610467e+00 4.522933885705135282e+01
7.505511661960028391e+00 6.853159822184989203e+00 4.764230779411776950e+01
7.819282977673079671e+00 6.576552396788373223e+00 4.793176861501554242e+01
6.939408759450869546e+00 7.450057595232661534e+00 4.700229861247679963e+01
-5.088692479064167884e+00 3.850080412412804076e+00 3.896456299284553637e+01
2.856423797943388188e-01 8.476780949662154896e+00 4.265014526939518191e+01
-2.571349325820996845e-01 8.466529343223227144e+00 4.240689580016053384e+01
1.323170930866058637e+00 8.590672484189722624e+00 4.313117269117082486e+01
-3.991798882636135914e+00 6.162286687005905428e+00 3.985917847563904104e+01
-4.278186315325950062e+00 5.737686252676902576e+00 3.962646574961294732e+01
-2.931572243763096441e+00 6.962628440643880090e+00 4.078762095209310701e+01
1.817823242685175256e+00 8.694330928641170075e+00 4.337023443993566474e+01
5.730173933141054832e+00 8.075956683238437961e+00 4.602677700863959132e+01
4.623258633988221789e+00 8.956991571875432712e+00 4.482160338816427014e+01
6.556662443305334875e+00 7.820111246799674731e+00 4.667503387870396381e+01
-5.396558192525716890e+00 3.349104070126748933e+00 3.861738941092205124e+01
-4.844265410714208464e+00 4.855842156349557293e+00 3.907785518773403055e+01
-5.124038341383956308e+00 4.398615776584471782e+00 3.876198405641144262e+01
4.390120990345371399e-01 8.814569000456609515e+00 4.263571452089182401e+01
-4.564303433068294780e+00 5.313568551199275625e+00 3.939401626383103405e+01
-3.705554571515868645e+00 6.586746688489981238e+00 4.009181825955341338e+01
-3.419003681407244422e+00 7.011729263019380376e+00 4.032474959320411045e+01
-2.601580582362089000e+00 7.433910651844392703e+00 4.115748330253179432e+01
-8.003785849748590309e-01 8.456271311789359757e+00 4.216339835370156663e+01
2.845986515726643962e+00 8.935104483655916141e+00 4.382675772014180637e+01
5.491607826286123206e+00 8.300934542623052081e+00 4.575526517578156671e+01
5.337063147126198892e+00 8.651052180852197182e+00 4.549528567659780265e+01
7.752476357448543354e+00 7.358885531560845017e+00 4.762515349459290093e+01
7.469649687763093127e+00 7.657252639942142558e+00 4.730534005410683562e+01
6.194447581179152174e+00 8.069971630093201398e+00 4.631451349692615338e+01
-5.404181914326973590e+00 3.941029689412175685e+00 3.844577705381214372e+01
1.320761727646483585e+00 8.765567424338204461e+00 4.302440856852302886e+01
1.812925723160009994e+00 9.044083419715546412e+00 4.315494464170497224e+01
2.909369685370304381e+00 9.073902261200959884e+00 4.373299558712631807e+01
3.911937421232719370e+00 9.209102247781020267e+00 4.425892482215693491e+01
3.379174835903249630e+00 9.072147153055464486e+00 4.404290605871504738e+01
4.478236160960913814e+00 9.322252603366392165e+00 4.448750982207627658e+01
5.227482282674759340e+00 8.951977856586813331e+00 4.518935736068726072e+01
8.035263501477732717e+00 7.060190310248921186e+00 4.794513979505138934e+01
7.186659749014954635e+00 7.955396859535600385e+00 4.698552934622610877e+01
6.758683821423711713e+00 8.219077484435370451e+00 4.657717485013860426e+01
6.330609505829881023e+00 8.481575512156283025e+00 4.616892445350580232e+01
-5.162246154672300413e+00 4.966926083172458206e+00 3.863312158434274579e+01
4.954378153511801441e-02 9.142033959828808065e+00 4.237773415073696981e+01
1.062114172010002244e+00 9.098505182167276217e+00 4.282040466236437481e+01
-4.443136326348781751e+00 6.284171936139176573e+00 3.938533985604570375e+01
-4.729286362104306640e+00 5.859423889642856764e+00 3.915290018809044170e+01
-3.089176524297971849e+00 7.483000984948723122e+00 4.069440433066646534e+01
-2.109796470493106924e+00 7.888714067671966923e+00 4.168122069650083006e+01
2.305035750739511169e+00 9.322572795436188997e+00 4.328510462456843300e+01
2.801144012881705336e+00 9.338836336659953830e+00 4.357800629773468160e+01
5.117667829306391525e+00 9.252961400266386249e+00 4.488343371354167033e+01
8.060954002503818216e+00 7.780173903781049560e+00 4.759456736882872008e+01
6.508979937813167638e+00 8.823494186417406127e+00 4.603860810152621497e+01
-5.488542355231279757e+00 4.525482954653423207e+00 3.825228754091054384e+01
-5.684551121487104730e+00 3.485876262058159814e+00 3.812940507590262484e+01
-4.882287525568495212e+00 5.424437919981909495e+00 3.894927316468153577e+01
-4.970601425306653276e-01 8.896898791747192448e+00 4.219160298400754527e+01
5.857511012883976909e-01 9.227805385199529198e+00 4.258134262888200539e+01
-2.759344149208935892e+00 7.954346811892929026e+00 4.106427766536397428e+01
3.506567735014501253e+00 9.349977936184954430e+00 4.385790996943931219e+01
5.904235652797704681e+00 8.746385872788026816e+00 4.576105436225778789e+01
4.477294433004778362e+00 9.464928802104438432e+00 4.434968485983869613e+01
5.045473707836381827e+00 9.435614582462209299e+00 4.471651243676742382e+01
5.758348585963915411e+00 9.147546001247649272e+00 4.535316488940379998e+01
7.777907796630212367e+00 8.078405996976393055e+00 4.727467839054783383e+01
7.567313536460667400e+00 8.323550320960061200e+00 4.694752252944760329e+01
7.115496901112849493e+00 8.900768840078406186e+00 4.631632422513813196e+01
7.341466818065442546e+00 8.612696565417744310e+00 4.663191966472826522e+01
-5.801761448765866191e+00 4.079051016158341092e+00 3.788992248587562983e+01
-3.402719119757477428e-01 9.469796645988843409e+00 4.211931183604427531e+01
8.703312699233397565e-01 9.606527393235049672e+00 4.259481308086665052e+01
1.475437881971665144e+00 9.674873922157811279e+00 4.283243693448002887e+01
2.651084347897247895e-01 9.538170175098919401e+00 4.235711060682178442e+01
2.080576410264117104e+00 9.743225086513382038e+00 4.307004242471893463e+01
2.797471711150307794e+00 9.601255297287861978e+00 4.341505184965895126e+01
4.306480736847468904e+00 9.555596524321931184e+00 4.417964217286735362e+01
4.103719460057968504e+00 9.626035446116189220e+00 4.398304917734463260e+01
5.611916989817427037e+00 9.548844749698039536e+00 4.494524671112609582e+01
8.497901136525760180e+00 7.691995821159006930e+00 4.789927048695805922e+01
2.685151262082655421e+00 9.811514855955483227e+00 4.330739681018487630e+01
3.289652796766929121e+00 9.879797791866671730e+00 4.354469436686410688e+01
3.995140172589639160e+00 9.890917824780661505e+00 4.382622681235343265e+01
5.042379672054861928e+00 9.720637583568542794e+00 4.444040165571689727e+01
6.485983224157134686e+00 9.081694363745754117e+00 4.577726643659654826e+01
7.947406382382618872e+00 8.690949462040299167e+00 4.690957659503128951e+01
7.721563154516103644e+00 8.979718111720593754e+00 4.659387146428472448e+01
1.379944708030456768e+00 1.015931621218837400e+01 4.261708250691868471e+01
8.064239487275687290e-01 9.929423838826263449e+00 4.245128493674339154e+01
2.328626523218124134e-01 9.699521442291302975e+00 4.228534777611278628e+01
4.700825796135526424e+00 9.902075040664433558e+00 4.410761239979780157e+01
3.906738343142241998e+00 1.018128205958044141e+01 4.367386676712320792e+01
4.524226178132711773e+00 1.048296489810326726e+01 4.380285464105651272e+01
2.398972211959236489e+00 1.021931404159455070e+01 4.303665443489438758e+01
6.121721212880261831e+00 9.599810351500202898e+00 4.516139849545051987e+01
5.607403164768721915e+00 9.976321845523351328e+00 4.453111073803457032e+01
5.436860227954719349e+00 1.006718003014737839e+01 4.436502397624609983e+01
7.067691768613075354e+00 9.416997161254483828e+00 4.579349132199593697e+01
-1.007708796143135244e-01 1.004263851358456883e+01 4.201628090114445513e+01
1.953363995273996512e+00 1.038917701668041182e+01 4.278281780497253095e+01
3.653817766681119128e+00 1.040667025410574631e+01 4.352179688160821058e+01
2.844666742785509683e+00 1.004942014522667826e+01 4.329080048814445547e+01
6.135505315600573439e+00 9.783743791411840363e+00 4.500142164754751661e+01
5.892855070471929579e+00 9.890772687121708984e+00 4.478352707967788149e+01
5.305329752348672656e+00 1.018910804724300689e+01 4.420865702499467176e+01
6.631345047521640446e+00 9.650771831651669075e+00 4.537751497688856972e+01
-6.980094564549671476e-01 9.829742086033544268e+00 4.183376816129578657e+01
2.696799435344645612e-01 1.046938567573076462e+01 4.202287113738687196e+01
5.053671306585364675e+00 1.029678147134132971e+01 4.409306840203923628e+01
4.017942287084873776e+00 1.093352082771666289e+01 4.349865859407483981e+01
6.173369393560428797e+00 1.023243772122662421e+01 4.462197202177501509e+01
5.910932046408021279e+00 1.047666475910183870e+01 4.430942954806950240e+01
7.989372997376129604e+00 9.403495362310874128e+00 4.634107308119683921e+01
7.140444128708928417e+00 9.701698442312586934e+00 4.559347104657159377e+01
7.650060921105554357e+00 9.752703500173701912e+00 4.580974453422505377e+01
-2.911245227296154203e-01 1.049610461433885611e+01 4.176970184292495247e+01
8.306086048944990585e-01 1.044266287755335121e+01 4.227607317253013264e+01
3.168006677399954008e+00 1.092491914889351534e+01 4.312965956509032139e+01
2.560757257764818551e+00 1.065707945274296620e+01 4.295630421277537891e+01
6.658265382972484936e+00 1.001827832854770151e+01 4.505751444416878115e+01
7.676897995283463949e+00 1.011981591516749823e+01 4.548976238167070107e+01
7.180625820198080156e+00 1.025263760948335801e+01 4.511357503077647380e+01
8.264094325643393191e+00 1.000541228797929882e+01 4.582223405616735334e+01
7.703275438611401960e+00 1.048713394559652912e+01 4.516967598018524654e+01
1.392140026755675386e+00 1.041591154649474404e+01 4.252952554210389025e+01
5.141524380596608879e+00 1.078455594302472775e+01 4.393156939457948340e+01
5.406343778339190109e+00 1.069134239716661305e+01 4.407700302111600621e+01
3.775322391379615894e+00 1.119278789185233869e+01 4.330299463728366760e+01
5.070399333548151866e+00 1.127353041708542136e+01 4.376746692070921796e+01
2.303077170298726717e+00 1.093578980267745138e+01 4.281037836996908652e+01
8.187748196726211347e+00 9.785847469904579654e+00 4.603555007990950543e+01
7.193254878824417275e+00 1.040220394993296793e+01 4.498702900813761119e+01
6.683554509955902390e+00 1.031735183056825811e+01 4.480455992777696395e+01
1.530841796214185813e+00 1.066303630121182167e+01 4.251568441542028864e+01
1.108102112390169092e+00 1.093702991776127753e+01 4.224863934549798472e+01
6.851555962556856727e-01 1.121115485871854567e+01 4.198173555954362257e+01
1.609282940191771316e-01 1.104588667709213112e+01 4.180208136720372636e+01
4.382064247410092150e+00 1.146040363852615762e+01 4.347619247977568335e+01
6.515986507132153882e+00 1.076396398172581392e+01 4.440970176187652640e+01
7.325518915429608313e+00 1.072054664648930533e+01 4.477695032972847144e+01
6.749804215997381007e+00 1.047664274595272538e+01 4.469965453496509156e+01
6.647495925151214458e+00 1.064201897273949271e+01 4.456815305523188186e+01
2.652738597035907642e+00 1.148233424507610856e+01 4.283867419664439069e+01
5.759469591107043485e+00 1.108646199689025202e+01 4.406021978316034193e+01
5.034334993795464896e+00 1.167524544476184545e+01 4.363955065806395339e+01
1.687425259296544189e+00 1.114152889506575050e+01 4.246988855162894794e+01
3.462214668745712043e+00 1.183925531530277375e+01 4.306862957739911479e+01
3.922115158762233378e+00 1.164984053933178920e+01 4.327313884947459854e+01
6.440031182645904906e+00 1.106889055643614661e+01 4.428459361842428166e+01
1.264484444787174144e+00 1.141555602662520386e+01 4.220321518485718570e+01
4.763456032007873375e+00 1.188581018417666080e+01 4.356706195752529709e+01
4.265110848581813663e+00 1.238289727486273684e+01 4.330182911865232853e+01
3.634051090276428919e+00 1.220589386400217791e+01 4.308251834375611367e+01
8.242442111721722142e+00 1.218673442683834374e+00 4.731678595329382375e+01
8.204488280495832342e+00 1.667124514388026446e+00 4.735965759948110332e+01
7.898507014784997615e+00 2.583079392162800136e+00 4.748303157888057058e+01
7.668661118647279729e+00 2.960473777945094476e+00 4.754822184847356681e+01
8.135124138030386476e+00 2.160389448335872764e+00 4.741489505114154213e+01
8.813936918724870395e+00 1.256765437682530573e+00 4.725772559978279475e+01
8.126317463496302906e+00 3.366694764465647083e+00 4.753542173116721870e+01
8.738019160558684106e+00 2.153692457407965222e+00 4.734346552704147371e+01
9.061764889041237225e+00 1.724271174648686955e+00 4.727106678747854573e+01
8.585126494753836823e+00 2.611697766309792890e+00 4.740513733216047854e+01
7.750179126730999180e+00 4.103699556700044937e+00 4.767466279183622646e+01
9.271531836559141482e+00 2.640247053543941735e+00 4.732755722889764627e+01
8.395625588968073316e+00 4.141326690451765380e+00 4.759226072360415571e+01
8.583932662048416873e+00 3.772882656463997009e+00 4.752262357574150542e+01
9.614304962533454457e+00 1.986558646234993564e+00 4.723602118172758679e+01
9.156516099872495928e+00 3.409567339693900578e+00 4.741875892388165425e+01
7.728728418754668539e+00 4.865886576540691344e+00 4.776925303618845930e+01
8.212776094212747680e+00 4.894075440286999701e+00 4.770743708246830295e+01
9.834980559481728335e+00 2.739154250794789025e+00 4.727104820453861578e+01
9.041373532467922303e+00 4.178922817480707153e+00 4.750997230145561190e+01
8.627020704998830780e+00 4.536534992758410212e+00 4.760863543780882168e+01
7.798596898645135944e+00 5.251642646012101068e+00 4.780626165595197818e+01
9.758074744627625918e+00 2.978835958046257115e+00 4.730184052888015600e+01
1.024949315748513534e+01 2.304668175785884010e+00 4.718829612907578053e+01
9.186143545445943914e+00 4.706695048846802898e+00 4.754188071432000839e+01
8.702860895861256552e+00 5.124177782989204566e+00 4.765590465873503234e+01
9.707258365826641366e+00 4.217635623947386669e+00 4.743198848351869401e+01
9.975964251541370231e+00 3.767539957217316271e+00 4.735357333487455378e+01
1.039843099871897181e+01 2.837998702149682195e+00 4.721338401714609034e+01
8.081586743287674679e+00 5.660384527231657970e+00 4.780413336606609676e+01
1.024461689460759395e+01 3.317396132362666616e+00 4.727505103956546151e+01
9.331031383204809515e+00 5.234858073099859510e+00 4.757376761999564252e+01
1.102329771822298277e+01 2.233438539856049676e+00 4.709179237935165219e+01
1.037293877152165322e+01 4.256252013762289899e+00 4.735236544076484222e+01
1.073117721576630501e+01 3.655935339615708379e+00 4.724729860122673131e+01
1.096219243719414926e+01 2.936822015507932981e+00 4.715469900000403669e+01
8.298426281720292508e+00 6.144284648355983869e+00 4.781751825804018807e+01
8.778811360210916348e+00 5.711821052980724289e+00 4.770317679007031586e+01
9.870281036037827249e+00 4.811638930535182546e+00 4.746753930586877601e+01
9.476019256670262791e+00 5.763175324455515280e+00 4.760561526758806394e+01
1.003329365270631257e+01 5.405641117988890798e+00 4.750302027156242701e+01
1.155691419902591655e+01 2.684019121777107664e+00 4.706379825141972617e+01
8.515530862772681786e+00 6.628179135931007160e+00 4.783090444689322140e+01
1.059029934384235361e+01 5.048305125970796503e+00 4.739930394003056335e+01
1.103863456911124707e+01 4.294759890771232769e+00 4.727138943186576370e+01
1.119490296046876665e+01 3.405837495312455943e+00 4.716867799874282241e+01
1.152627291669548448e+01 3.035606417796949064e+00 4.709512808168976505e+01
8.995526349442650726e+00 6.195669094990506665e+00 4.771655685777358968e+01
1.121775826955718536e+01 3.994448528823150379e+00 4.721867983906007993e+01
1.156234606664884446e+01 1.837741204207177459e+00 4.705968465888884111e+01
9.030212288463063786e+00 6.696802370509957747e+00 4.775272822898984515e+01
8.614397796386320749e+00 7.089037437810772779e+00 4.785329594773795492e+01
9.767247396872164700e+00 6.233851942335392415e+00 4.759930043254945531e+01
1.003218054675604876e+01 5.729577714899672713e+00 4.752991882984299110e+01
1.209020170646392778e+01 3.134245948854285313e+00 4.703483517513721779e+01
1.182619655241598267e+01 2.485761326058375520e+00 4.704749927334616189e+01
1.058800741908524401e+01 5.695927734139488940e+00 4.745314103552694007e+01
1.114736225320674379e+01 4.690873251506024744e+00 4.729466758220559797e+01
1.170467506307653771e+01 4.333145174344370076e+00 4.718926060209243900e+01
1.189759610864060235e+01 3.733471898488884833e+00 4.711201411538903017e+01
9.479635617068842279e+00 6.675847772937383517e+00 4.767959219899655920e+01
9.192620421248868468e+00 7.117825319583594101e+00 4.776145179411051345e+01
1.032312154268796967e+01 6.200198549419161154e+00 4.752314252517177806e+01
1.225819952737322360e+01 1.807440495380657319e+00 4.703042003352993561e+01
1.005855281528646472e+01 6.704459085116065253e+00 4.759279070909310150e+01
1.258251641921631858e+01 2.893038612665585596e+00 4.701388329743130612e+01
1.266646219194930012e+01 2.229936907133689417e+00 4.701181948156072821e+01
9.771405635532280698e+00 7.146573232966346723e+00 4.767338178663977288e+01
1.235043751731618400e+01 4.370175771487665450e+00 4.710877888623493703e+01
1.260773952959443989e+01 3.571098955712496359e+00 4.700587016258849360e+01
1.307436977895328667e+01 2.652027968175168393e+00 4.699271027845500726e+01
1.287934261823338389e+01 2.036385354873254894e+00 4.700822746137215091e+01
1.326355333648113799e+01 3.249368624414868734e+00 4.697735830453783024e+01
1.312474051267558650e+01 4.007383037967500172e+00 4.697617529450012341e+01
1.299604678823330062e+01 4.406966398671507967e+00 4.702759209152898023e+01
1.318761321155076871e+01 2.077157614165435540e+00 4.699722831550819535e+01
1.357463540260625834e+01 2.793581969599178816e+00 4.697068376438852511e+01
1.364166259030931982e+01 4.443445348418194385e+00 4.694579903144052935e+01
1.330066185193629735e+01 1.502187155521890194e+00 4.700173764705483137e+01
1.393053078895708374e+01 3.438033878511770336e+00 4.694738129850138364e+01
1.345264435062960473e+01 3.846500699851609806e+00 4.696172354697253581e+01
1.378617268792731387e+01 3.940830911258801805e+00 4.694659058464608137e+01
-8.470676283725509847e+00 -2.860404118262318995e+00 2.992091855367315389e+01
-8.464660811294365317e+00 -3.196769971107641162e+00 2.947066308024225378e+01
-8.244187429536824041e+00 -3.490814193611874394e+00 3.000851753724001014e+01
-8.691032784588566429e+00 -2.566787022210483826e+00 2.938292514264215072e+01
-8.508395471706792890e+00 -2.417297995113472542e+00 3.035956735197758505e+01
-8.696997500610919474e+00 -2.230700367562269193e+00 2.983340048179428905e+01
-8.238305275107965286e+00 -3.826937459432156796e+00 2.955851447832139201e+01
-8.646616514100710305e+00 -1.778104274364170179e+00 3.028610354513309133e+01
-8.430954433215237742e+00 -1.959694137376290390e+00 3.090804285049909339e+01
-8.319517639765150463e+00 -2.604182220263451697e+00 3.088697212435391393e+01
-8.244968549630343091e+00 -3.108805172478642298e+00 3.051722455416097191e+01
-7.967507413264010907e+00 -4.372024306844449093e+00 2.953593439883658789e+01
-8.187805451513989752e+00 -4.078439915234554292e+00 2.899278468248313345e+01
-8.018003902568469954e+00 -4.120634792479249242e+00 3.009601601195356579e+01
-8.596282826066305560e+00 -1.325513273920556401e+00 3.073924073260511847e+01
-7.999067942224945327e+00 -3.834909462523418799e+00 3.055674675600520018e+01
-7.579226580052394802e+00 -4.621028032824212595e+00 3.027203438201652475e+01
-8.256830350174126920e+00 -2.318038265124470865e+00 3.127867367697460566e+01
-8.134545099685183800e+00 -3.067568665548646933e+00 3.102755869843480951e+01
-8.841461895593843323e+00 -6.923539113517732657e-01 3.063023950832673847e+01
-8.545993645101532366e+00 -8.729227252002131898e-01 3.119234949704448212e+01
-7.625588157192034089e+00 -4.810665744410037803e+00 2.952559903349497361e+01
-7.787980024974557658e+00 -4.263464523355208868e+00 3.058977303325623609e+01
-7.980145115080487628e+00 -3.549155372986565027e+00 3.101791907149136307e+01
-8.130850459600445390e+00 -2.790871962018473429e+00 3.141409302887267074e+01
-8.244113954143879042e+00 -1.924861351176349933e+00 3.156667451902497490e+01
-8.395105887778980147e+00 -1.398599001943775733e+00 3.137943523896079157e+01
-8.699890274001205626e+00 -3.337241946128600145e-01 3.109850626268581664e+01
-7.283744426023519125e+00 -5.249309434037769506e+00 2.951436686738938420e+01
-7.378778358743908861e+00 -4.990486142070673203e+00 2.993112705624310266e+01
-7.557940484862875508e+00 -4.406324462611157067e+00 3.108371762460935983e+01
-7.327972994312930588e+00 -4.549160832944430410e+00 3.157764223726606190e+01
-7.615555642605174036e+00 -3.924257877248764181e+00 3.159057951889194626e+01
-7.786300850108045069e+00 -3.993922175595598034e+00 3.097556869041847705e+01
-7.195512698956757269e+00 -4.859540496415237776e+00 3.109520557342072422e+01
-6.992200954502498789e+00 -5.436233830734862771e+00 3.007061032476917362e+01
-7.139942412255646076e+00 -5.122112648154899084e+00 3.044846252105092432e+01
-7.961231818025313878e+00 -3.263329403828813646e+00 3.147937826242883119e+01
-8.093142005033366004e+00 -2.451293220498985015e+00 3.175392181446517981e+01
-8.214166103565396782e+00 -1.594663027695447877e+00 3.197055141533098066e+01
-7.942328625207646375e+00 -2.977431172504053869e+00 3.194101394273906180e+01
-8.436470755088853579e+00 -4.641440056452511009e-01 3.156872857797786835e+01
-8.365162835045849121e+00 -1.068622113683388664e+00 3.178309631224212595e+01
-8.255568866979858811e+00 -6.597280117220654105e-01 3.215960427520018783e+01
-6.700969361155387105e+00 -5.622974100785691931e+00 3.062516602002810018e+01
-6.959003752804174603e+00 -5.637738368831363367e+00 2.949580247331011762e+01
-6.674700249201444890e+00 -5.840057841323953447e+00 2.996737577507745343e+01
-7.673234411090235518e+00 -3.442192755051504793e+00 3.209772694947471194e+01
-6.811797571211261726e+00 -5.098082446511734922e+00 3.191899625816891017e+01
-7.328415631049374213e+00 -4.273836489770869385e+00 3.196529118855276153e+01
-7.404474143629954597e+00 -3.906560857766312900e+00 3.225430198265654980e+01
-6.756379239843041340e+00 -5.360546564010713944e+00 3.127142670179052431e+01
-8.063327035849106039e+00 -2.120704121131065101e+00 3.215757330344705167e+01
-7.912440798602854208e+00 -2.646971151676217993e+00 3.234485359146734851e+01
-8.590446003495676663e+00 7.564515633769475222e-02 3.147492262178242939e+01
-8.326857649602391831e+00 -5.500925196709029880e-02 3.194525987324595917e+01
-8.480882045083369292e+00 4.847640513952382602e-01 3.185132152263800975e+01
-8.184228851629084645e+00 -1.264467892117423942e+00 3.237424999874725273e+01
-6.182239992957464736e+00 -6.094215048041236926e+00 3.069852741639453697e+01
-6.396038172869961791e+00 -5.775083541844008295e+00 3.108296962319571932e+01
-7.097648774894820711e+00 -4.692240848501819883e+00 3.207245483029703337e+01
-8.033382694073791797e+00 -1.790442117897767416e+00 3.256137394534108154e+01
-7.769086164723434607e+00 -3.151826643296471442e+00 3.244629455926300210e+01
-8.217351610692146480e+00 3.537479845273747703e-01 3.232122317012830592e+01
-8.369537699600739344e+00 8.939172903767145240e-01 3.222717052880769728e+01
-6.279039447268285556e+00 -6.247607170638866059e+00 2.985856165556016961e+01
-7.533620161356205713e+00 -3.567955677842550521e+00 3.255284959434444403e+01
-7.135973157095760300e+00 -4.370682225669876964e+00 3.241079707061312831e+01
-8.074672636264418557e+00 -8.555727432443858138e-01 3.275049556747439539e+01
-8.003448970298521203e+00 -1.460183220799749604e+00 3.296495877653262596e+01
-7.882567432133989804e+00 -2.316557215213737919e+00 3.274849185854547784e+01
-8.145981208382105265e+00 -2.508401157073052445e-01 3.253589902484564078e+01
-8.106661411141226736e+00 7.631005728058011250e-01 3.269745921976480929e+01
-5.916933021202534171e+00 -6.467660596279577234e+00 3.028349145854247837e+01
-6.252917242775131612e+00 -6.464422246726130972e+00 2.920007129313549044e+01
-5.883387995082738797e+00 -6.655158563192942189e+00 2.974974449828517464e+01
-5.853186894297239817e+00 -6.867362179197980865e+00 2.917038017539260508e+01
-5.488941690907323867e+00 -7.128745426464964119e+00 2.947923303368280656e+01
-5.514349354190384744e+00 -6.845646429947177758e+00 3.029868518195879545e+01
-7.754522041381341602e+00 -2.840620866028988889e+00 3.277496492888829493e+01
-7.595667628479349176e+00 -3.326401488846773447e+00 3.295217532423927764e+01
-6.867268065537808219e+00 -4.835378993099220146e+00 3.256750179542660106e+01
-5.663862066910118287e+00 -6.565152751512262519e+00 3.077186237083753895e+01
-6.091135200374438341e+00 -5.927189534473338739e+00 3.154115234944539026e+01
-6.267633636445165912e+00 -5.574902609905444173e+00 3.209800620714118224e+01
-7.852704774984001546e+00 -1.986145582463256787e+00 3.315193258511585839e+01
-8.036338940268246134e+00 1.578359329967794766e-01 3.291212159377366220e+01
-7.965123335109372427e+00 -4.466860400808836395e-01 3.312648464554656869e+01
-8.270142437129829105e+00 1.327331032649480491e+00 3.257222267710368158e+01
-5.210156340175988277e+00 -7.488851356261537084e+00 2.920748667724635084e+01
-5.188619740265010272e+00 -7.337677704694024250e+00 2.975478525058276702e+01
-5.167116790321926167e+00 -7.186761758383191534e+00 3.030118455564164037e+01
-7.279162004608604519e+00 -3.935685727541223144e+00 3.293392635357394482e+01
-6.444143724156523589e+00 -5.222615034158271996e+00 3.265529192931254698e+01
-5.673989886360362611e+00 -6.347719088117028008e+00 3.146218889240732963e+01
-5.786032330620065167e+00 -6.079407093580527999e+00 3.199987357321037607e+01
-7.893960126922312526e+00 -1.051207864368310929e+00 3.334081409949118324e+01
-7.615938545574064023e+00 -2.765153139905024648e+00 3.336790791014024649e+01
-7.842188358158252548e+00 -4.804382389948314708e-02 3.352470678896231249e+01
-7.913470688791675478e+00 5.568457134696845889e-01 3.331009013578803035e+01
-7.990867188070218674e+00 1.173893733860844835e+00 3.307703192094432865e+01
-5.145632423932274158e+00 -7.035973703360030918e+00 3.084520002568626040e+01
-4.861753291517315390e+00 -7.624274052686754288e+00 2.955824608724566716e+01
-4.604509583743379153e+00 -7.633560217158128935e+00 3.011602591730315126e+01
-6.919381290575216781e+00 -4.588949151182944775e+00 3.304207747113537863e+01
-5.155459658364724973e+00 -6.818757690861156462e+00 3.153592438590366598e+01
-5.165296894171859776e+00 -6.601599845788213905e+00 3.222688976763895141e+01
-5.849976547779730751e+00 -5.884301452369188112e+00 3.241167010237054313e+01
-7.822854686140309433e+00 -1.655736468768546965e+00 3.355510632971007823e+01
-7.770855385709354302e+00 -6.528268768956815293e-01 3.373961482387731792e+01
-8.154512080159948439e+00 1.738288195898261002e+00 3.295167590184215811e+01
-7.875199085511464858e+00 1.584407030774256597e+00 3.345605561887223445e+01
-4.553040012858035723e+00 -7.453625361473892319e+00 3.082316081266817420e+01
-4.740620035811090816e+00 -7.176905273555794551e+00 3.123688636736881463e+01
-4.858239032414231495e+00 -7.769957118652836670e+00 2.908636979650381704e+01
-4.485511360582778551e+00 -7.899870906294350625e+00 2.951090401263058638e+01
-7.422526932856568394e+00 -3.500699791514097381e+00 3.345731101390741458e+01
-6.573824122987255159e+00 -4.996829101704590492e+00 3.304231469514572694e+01
-6.971575471041774108e+00 -4.342508033051855953e+00 3.351697986536566987e+01
-5.480347010648044304e+00 -6.231925485671103715e+00 3.245962886535824055e+01
-6.020968914767797386e+00 -5.609933846669088453e+00 3.274311926796404748e+01
-4.498357749531891159e+00 -7.020632314664056572e+00 3.226025643077027638e+01
-7.636240226007370069e+00 -2.203909021622325159e+00 3.378321158669311330e+01
-7.798891862751294646e+00 9.675601882265385534e-01 3.368933884002553469e+01
-7.719269124805091309e+00 3.505824674743389102e-01 3.392247735766502359e+01
-4.112948545603638095e+00 -8.029728484078095363e+00 2.993522649417474213e+01
-3.959595120789671352e+00 -7.871895078796500300e+00 3.080125734702306062e+01
-4.213365547347361684e+00 -8.216785382519047332e+00 2.923618411181714549e+01
-7.190043136689741488e+00 -3.911123831677605356e+00 3.356408777763720508e+01
-7.409303657823438805e+00 -3.180266018876219736e+00 3.378888300529111177e+01
-6.204142574441637414e+00 -5.343187682505993408e+00 3.308793864851903521e+01
-6.642135665570239489e+00 -4.762247134490684708e+00 3.343752830596262982e+01
-6.280735711981742853e+00 -5.158084157757311772e+00 3.351667962009759805e+01
-4.335355381580351164e+00 -7.317926398187402093e+00 3.162952975064608552e+01
-5.175157561187873512e+00 -6.384208543122995572e+00 3.291874508740836802e+01
-7.449480931173050102e+00 -2.752581263647444931e+00 3.401148706239721520e+01
-7.699749904024934644e+00 -1.257453427090995390e+00 3.395394523824305111e+01
-7.612657409774257644e+00 -1.819084591334471535e+00 3.408684387760243339e+01
-7.647862756106685644e+00 -2.543553151016488267e-01 3.413768202601670509e+01
-7.683144265548920160e+00 1.378226897181375810e+00 3.406817100013636690e+01
-3.944847460936524719e+00 -7.665414161764346979e+00 3.141160710649081977e+01
-3.639166190234603970e+00 -8.700235944853076830e+00 2.914427787506015477e+01
-3.548313327606676282e+00 -8.563448969756185747e+00 2.969032691977061944e+01
-5.597845174054453032e+00 -5.997248233067933754e+00 3.283096045444947464e+01
-5.792876618564874569e+00 -5.658198755438001548e+00 3.341055280610790845e+01
-4.661369061120568702e+00 -6.723346482999835949e+00 3.289096218737418553e+01
-7.455997506631128147e+00 -2.313741950098136879e+00 3.425756949609566959e+01
-7.606905485211659546e+00 7.613299201275877115e-01 3.430144135343321921e+01
-7.524888794945570503e+00 1.440982200058545104e-01 3.453516140792574163e+01
-7.576599078994379788e+00 -8.589856332535694694e-01 3.435257690791965501e+01
-3.284292429104129329e+00 -8.106814386909722003e+00 3.145559358074978462e+01
-3.739937383093635326e+00 -8.159743424092297914e+00 3.035666869755305797e+01
-7.023822895476579120e+00 -4.096170795065089187e+00 3.399180262753744586e+01
-7.249500948465562367e+00 -3.674883817776562811e+00 3.396216760506057142e+01
-6.469086549539175834e+00 -4.727697699627866790e+00 3.405105432228694440e+01
-7.262862995954097123e+00 -3.300915501970422383e+00 3.423959173008233137e+01
-7.227846570912609181e+00 -2.723152949414692436e+00 3.469446172989874100e+01
-5.231837775354502895e+00 -6.198550403531758235e+00 3.342338095128369702e+01
-3.930100753203963126e+00 -7.458944799196937758e+00 3.202238972318362897e+01
-7.491103675041798304e+00 1.172021306636259474e+00 3.467985306649933364e+01
-7.453516371755283032e+00 -4.607023497483331842e-01 3.475048915861374610e+01
-3.366578851651475190e+00 -8.289880974637497957e+00 3.077944821747501791e+01
-3.457363587150073858e+00 -8.426534358858832618e+00 3.023495962251445235e+01
-2.843705873855452371e+00 -8.799802412874459634e+00 3.009066707342189062e+01
-4.758123637048381482e+00 -6.532573705405736675e+00 3.328740626150942461e+01
-5.987988625326746472e+00 -5.319152114377090790e+00 3.399057138172953074e+01
-4.147674321796292141e+00 -7.062425922039841986e+00 3.286327895705368718e+01
-3.971504396244491808e+00 -7.295896502530059280e+00 3.246959265135346584e+01
-7.402681719679945260e+00 -1.982289930916307785e+00 3.461804378204461585e+01
-7.489601726153885863e+00 -1.420636924243533494e+00 3.448540392413841715e+01
-7.330459411453302820e+00 -6.246819054539390348e-02 3.514759810541286811e+01
-7.413042264453885366e+00 5.544020771145269366e-01 3.491387025292188895e+01
-3.590691099938720487e+00 -7.765260730372235187e+00 3.182081842629829183e+01
-3.525205761565879392e+00 -7.599839898337725330e+00 3.241496856894197265e+01
-2.737959974529548202e+00 -8.640158644177734715e+00 3.072649938918136314e+01
-2.829898056390959038e+00 -9.038580052550397426e+00 2.940852022704306989e+01
-7.076259405213582099e+00 -3.849287962652292450e+00 3.446768978297043873e+01
-5.288551018327300568e+00 -6.012905743860279983e+00 3.392836719510181354e+01
-4.819609682472278500e+00 -6.337674837883642276e+00 3.381338938640697478e+01
-5.623394285628350531e+00 -5.660105978294604157e+00 3.403801641494285946e+01
-4.311237598508205870e+00 -6.836640236198706866e+00 3.323534937810870815e+01
-7.192831397934665638e+00 -2.145427564605310700e+00 3.514895089396382133e+01
-7.000284199661835238e+00 -3.504628268533224400e+00 3.490450053498502569e+01
-7.313990053216583576e+00 -1.062992185119403299e+00 3.501639449721051989e+01
-7.567542517580674755e+00 1.788734860993186571e+00 3.444617229245862688e+01
-6.060710350478532682e+00 -5.077451142349997504e+00 3.439085414470655877e+01
-3.633922523254828896e+00 -7.401546519490685760e+00 3.283565082262404644e+01
-2.874880292130578496e+00 -8.408707368907874624e+00 3.114344670894328004e+01
-3.202043628882730086e+00 -7.923843343359727065e+00 3.213180000842966422e+01
-2.379710184572819465e+00 -9.139507188750004119e+00 2.981223377826845677e+01
-6.657618365330536747e+00 -4.297318859171412875e+00 3.458553645546582800e+01
-4.340697590836036568e+00 -6.681079304889304460e+00 3.365665739931321099e+01
-4.945741538078931576e+00 -6.120095435602980416e+00 3.428136124866434642e+01
-7.037045020927021888e+00 -2.632495202197711937e+00 3.532189576540798015e+01
-6.770295524114181340e+00 -4.013354684834427921e+00 3.494411224989750053e+01
-6.924377063523318832e+00 -3.160284207080945595e+00 3.534078652678368826e+01
-7.197583673120424130e+00 -1.707138971882915079e+00 3.521341080302779858e+01
-7.190933913231572383e+00 -6.645473114611134546e-01 3.541384896685488570e+01
-7.209193078947045308e+00 9.737334238381374352e-01 3.535236407678968362e+01
-7.152979549377459279e+00 3.717534171040620672e-01 3.553439709965930149e+01
-6.238940713257397519e+00 -4.745474076486120296e+00 3.470340940850793743e+01
-3.778602856691162692e+00 -7.115562938726957221e+00 3.343079373315882918e+01
-3.119808831267640858e+00 -7.740911204159776737e+00 3.280803258258424648e+01
-2.108998723894920602e+00 -8.990649828658131781e+00 3.067354571108749894e+01
-2.382683806152877004e+00 -8.527655231337348596e+00 3.150808988120337872e+01
-5.695189944798436876e+00 -5.480249213180875323e+00 3.446459352373206286e+01
-5.345321067454384512e+00 -5.827190244931002461e+00 3.443372089185177032e+01
-7.229209137150864883e+00 1.551182801002930489e+00 3.525305137920597076e+01
-7.227618711396156748e+00 2.113242900694104698e+00 3.520540252755066035e+01
-7.435943733778676901e+00 2.259254334778224571e+00 3.470908996674430824e+01
-5.820556942530615174e+00 -5.193405111911407523e+00 3.482122631212444475e+01
-3.109597012017565554e+00 -7.535994860965585573e+00 3.346016032910856808e+01
-2.474860410352434759e+00 -8.277122377186289626e+00 3.213212647314729509e+01
-1.942296565142762832e+00 -8.876509439691714576e+00 3.120056431176458034e+01
-6.404809462223242100e+00 -4.416554458878156453e+00 3.501829805021109365e+01
-6.723439777898472691e+00 -3.689745933255166310e+00 3.530520010182596735e+01
-4.521310611543479574e+00 -6.368596762554853186e+00 3.432972624006097817e+01
-6.982611482141805048e+00 -2.308885640280685436e+00 3.568081784771317189e+01
-7.051417093255124335e+00 -1.267015573005448204e+00 3.568005331686540416e+01
-7.090836491839314526e+00 -2.184876664174756344e-01 3.568176172977256755e+01
-3.923283557080564421e+00 -6.829581473253723445e+00 3.402593815004792788e+01
-5.989722832828570098e+00 -4.767304974647950999e+00 3.535872297914250595e+01
-6.464672509573627934e+00 -4.177247560778899249e+00 3.541996030900808279e+01
-5.402119203926069702e+00 -5.641495657860414070e+00 3.493908363628366232e+01
-5.438455543703700101e+00 -5.398438202201027991e+00 3.541640096262611337e+01
-4.823562370218500206e+00 -6.012892334931876803e+00 3.489526466273833449e+01
-4.084386546542023488e+00 -6.606774325848871143e+00 3.443867052913206095e+01
-6.848519845157555075e+00 -2.816175589098040444e+00 3.577658264196386284e+01
-6.911988181052711511e+00 -1.869581623883742827e+00 3.594610249692030379e+01
-3.099391752697244762e+00 -7.331163339257609657e+00 3.411194175970069864e+01
-2.689362854422508331e+00 -7.627800772558597231e+00 3.377045945203671806e+01
-7.261376447705509385e+00 2.695483367672288466e+00 3.506885815870994350e+01
-6.995110863246047472e+00 1.386814165746860228e+00 3.581001931076524869e+01
-7.019606935415648508e+00 1.967443734078293982e+00 3.569994626661348036e+01
-6.913173723525162906e+00 2.157435783282175557e-01 3.606826523113796412e+01
-6.970738861330565861e+00 8.061505926979538605e-01 3.592002214813128091e+01
-6.862970394830353094e+00 -8.155973799655111822e-01 3.615071473711497418e+01
-6.850968033103928434e+00 -3.746764842222088943e-01 3.621616188207172371e+01
-2.567038039604463417e+00 -8.026605800968431126e+00 3.275620901356256098e+01
-1.890980125148741475e+00 -8.646483881803893823e+00 3.187241240873686721e+01
-2.603617647907453758e+00 -7.869539589001056434e+00 3.313995477224066377e+01
-6.465643382830268848e+00 -3.599086387036060763e+00 3.589551636434703852e+01
-4.245523661290968143e+00 -6.383968374537162482e+00 3.485143186954019257e+01
-3.506320424818593295e+00 -6.977924435619795140e+00 3.439474953568704052e+01
-7.027302884003293393e+00 2.531694864786597332e+00 3.562522436908656687e+01
-6.811339029105569765e+00 1.821457834371992268e+00 3.619833643568273374e+01
-1.878933609563863572e+00 -8.507961945181101271e+00 3.231031908812521181e+01
-6.466618227614939762e+00 -3.020970102992496908e+00 3.637066780200965610e+01
-4.968993395790792356e+00 -5.794240797053284986e+00 3.528229471063821165e+01
-5.474797234202194218e+00 -5.155441489332392990e+00 3.589344231408050945e+01
-4.390906400895918438e+00 -6.165401921571111110e+00 3.523819456749126999e+01
-6.751611843903135401e+00 -1.462256268031195461e+00 3.634905394891691799e+01
-6.772681171677666256e+00 -2.472156485677682092e+00 3.621197515880527362e+01
-2.705958100247356946e+00 -7.466577903952848594e+00 3.424844115955848167e+01
-6.786810270188354366e+00 1.241019588214573810e+00 3.630752093805499925e+01
-6.688977909347507911e+00 2.294958234141557529e+00 3.643638350419513472e+01
-6.612462294113851335e+00 8.634865607920932939e-02 3.673565791405485470e+01
-6.610916915545939965e+00 -5.309941474770315528e-01 3.675053745323114640e+01
-2.013975233297348399e+00 -8.312458254321896334e+00 3.270429973916439792e+01
-6.158946321195661433e+00 -4.341205789558204131e+00 3.589591498239737177e+01
-6.160245441007477396e+00 -3.570366200156341208e+00 3.652957523123215822e+01
-5.798693839277007100e+00 -4.736949818368268339e+00 3.597332349517638050e+01
-5.007199776377167844e+00 -5.539058687432010686e+00 3.578309084171212362e+01
-4.536296051011099451e+00 -5.946835049267301443e+00 3.562487051711775621e+01
-3.667797061959118032e+00 -6.754857996146368393e+00 3.480756154760207721e+01
-6.612283181969194956e+00 -2.064970425539312426e+00 3.661518973253679121e+01
-2.087272160562988699e+00 -7.998206627753948084e+00 3.347180387350657327e+01
-3.885420096306415161e+00 -6.427239088777159104e+00 3.538764899551440379e+01
-3.089188489324733666e+00 -7.126328460743876825e+00 3.476355813441291076e+01
-2.218363053706703170e+00 -7.740683036292785424e+00 3.408695954610793422e+01
-7.035078858590209094e+00 3.095397917206288430e+00 3.555107366847327910e+01
-6.713452174578979026e+00 6.940178225676559842e-01 3.649266567465848254e+01
-6.531318063279079489e+00 -1.094248682781372661e+00 3.688441729094644472e+01
-1.460747828704796802e+00 -8.598402911197851495e+00 3.265230780268704791e+01
-6.113620331334515434e+00 -4.009392014041108787e+00 3.626048644270915133e+01
-5.045422276917173043e+00 -5.283874451988501697e+00 3.628364108616359829e+01
-4.103062830132012451e+00 -6.099620481550947382e+00 3.596746418959328651e+01
-6.432363144017738676e+00 -2.630935316839195792e+00 3.666005694011135319e+01
-3.138725334249395260e+00 -6.885823610624334457e+00 3.539293121845138756e+01
-6.774947397953534178e+00 2.912833365644154515e+00 3.617497272788728679e+01
-6.511281162604655393e+00 1.172071803841704174e+00 3.692172629770088577e+01
-6.603148921415932016e+00 1.675518214564615027e+00 3.669759532285640802e+01
-6.443098216693829094e+00 -2.334554335259071411e-01 3.711635736536877062e+01
-2.450987994489163047e+00 -7.441007096600347204e+00 3.468922051488456049e+01
-1.570893238623929600e+00 -8.126884333497589097e+00 3.380340148059742233e+01
-1.515818844571650059e+00 -8.362637227772804493e+00 3.322790633664483551e+01
-7.848681779544913750e-01 -8.717469998835730038e+00 3.322212733895837999e+01
-5.511148079488256357e+00 -4.912478194560140565e+00 3.637021095877607024e+01
-5.853602039446079708e+00 -4.504969389921425815e+00 3.637121040289043350e+01
-6.174425975057228122e+00 -3.127111321610430039e+00 3.677365585826916572e+01
-4.579719501693216621e+00 -5.655273500663364317e+00 3.619702064838966038e+01
-3.701808030214393419e+00 -6.391202354346307679e+00 3.583489452530560015e+01
-6.451820772513264579e+00 -1.657507844251921103e+00 3.701771640263193319e+01
-6.271798882695054367e+00 -2.223650843084308271e+00 3.706292222132548630e+01
-6.419532503900406084e+00 6.686077683328911503e-01 3.714585801103049789e+01
-6.373600692572886750e+00 2.129400684752213113e+00 3.705512114441733473e+01
-6.371240279781608784e+00 -6.870782748723210931e-01 3.728345881444104748e+01
-6.326894967285922711e+00 1.650806442462187662e-01 3.737001341316856440e+01
-2.561572985306849848e+00 -7.255664459524952647e+00 3.507717053504080695e+01
-1.813176260060725742e+00 -7.755495509814550381e+00 3.461479256315458741e+01
-9.082541163712828380e-01 -8.883975665283202261e+00 3.260030858246633301e+01
-1.108101475315089512e+00 -8.420239892673244242e+00 3.361068227186270008e+01
-5.853900566187896004e+00 -4.119742632363636581e+00 3.668851352446946379e+01
-6.861037179076342696e+00 3.532236449160851333e+00 3.591338181340424995e+01
-6.433155528240340537e+00 2.733019721420599346e+00 3.684556227292645758e+01
-6.348625149779966392e+00 1.522944062678929900e+00 3.721941191148592054e+01
-6.283065402970697377e+00 1.069501329730007333e+00 3.738682274269172012e+01
-6.291581813555253255e+00 -1.250494091041429279e+00 3.741821191142673086e+01
-2.000568146875805198e+00 -7.540520877564644842e+00 3.498797063431232601e+01
-1.175579667149316165e+00 -8.069880174247048288e+00 3.454023359043179653e+01
-1.431061366964575976e+00 -7.754231959321426615e+00 3.511337541012552066e+01
-2.594324642996320041e+00 -7.036729043792012028e+00 3.566561834302503797e+01
-3.188299037918079559e+00 -6.645192484454980786e+00 3.602204736964575460e+01
-2.564647425929958313e+00 -6.880203970325344365e+00 3.615470710475081262e+01
-2.078632661726413478e+00 -7.168516322754638459e+00 3.595532574730505360e+01
-2.034086127120324328e+00 -7.384969220989857419e+00 3.539010502133180580e+01
-5.802592215201415549e+00 -3.534201861749846074e+00 3.712276180571907247e+01
-4.623163203307781188e+00 -5.363711737893011922e+00 3.676866843945294505e+01
-4.161253393655677257e+00 -5.710811373174338179e+00 3.672913566186782219e+01
-6.091904400322727398e+00 -2.789795311189428695e+00 3.710798376995819581e+01
-3.670298658980557516e+00 -6.252241019535374811e+00 3.630912857995950560e+01
-5.085144236421437647e+00 -5.016573075349072042e+00 3.680810509044422218e+01
-6.450687117016130401e+00 3.315783812734172109e+00 3.671857093194051913e+01
-6.144053886749293980e+00 2.580678507316798154e+00 3.741283579024486983e+01
-6.108922953408110423e+00 7.515368564815209096e-01 3.776090586333127419e+01
-6.229062999617892338e+00 -3.391489646510737477e-01 3.759447883638677013e+01
-6.614489635819692515e-01 -8.550925018360757690e+00 3.384382986949623984e+01
-1.054184162709993489e+00 -8.255642511901111646e+00 3.413484867355658281e+01
-5.379552387957615700e-01 -8.384282334807982906e+00 3.446548987360169747e+01
-3.253847366876080338e-01 -9.004139345708964015e+00 3.292584866788750730e+01
-5.547575113816357373e+00 -4.669110838433055299e+00 3.684748497565743008e+01
-6.025964488384691009e+00 -1.856424041426375737e+00 3.757612959770635541e+01
-5.793116507379910907e+00 -2.505634729099962765e+00 3.766814442326262480e+01
-6.093855723264261393e+00 1.370217401149442349e+00 3.774174944360320438e+01
-6.131330023742790125e+00 -8.433256912718664067e-01 3.781891888474567054e+01
-2.782529698558066644e-01 -8.841822396603552292e+00 3.344751030551002202e+01
-1.506579719134043982e+00 -7.514279193750308394e+00 3.570221208661663326e+01
-9.198484561938146120e-01 -8.015618154268569384e+00 3.502659164143648951e+01
-2.680288268378333782e+00 -6.678519740853328557e+00 3.658470078452505447e+01
-2.123187138496395843e+00 -6.952063669697293058e+00 3.651949733588100599e+01
-3.699564595602899963e+00 -6.057760697077688050e+00 3.668950769042240978e+01
-5.751289164610086324e+00 -2.948744988626632146e+00 3.755564672633028067e+01
-5.428112353792453604e+00 -4.318410738744971944e+00 3.724951478848569764e+01
-5.090911634878203529e+00 -4.823420440551417165e+00 3.715402987245785482e+01
-5.410505250444013647e+00 -3.107792530556692689e+00 3.800285787128420623e+01
-5.494470809301543746e+00 -3.436457878954431333e+00 3.767291594372245100e+01
-5.308743108465137084e+00 -3.967999196370348258e+00 3.765054622023208708e+01
-5.335004926741545361e+00 -2.660835302299027205e+00 3.829078721655442763e+01
-5.600131273302677570e+00 -2.055351363375452767e+00 3.813298864113671982e+01
-5.865423266786180534e+00 -1.449875882216567602e+00 3.797608981315471510e+01
-6.441936810295728399e+00 3.884725845630025987e+00 3.664324498110392625e+01
-6.166852719650886883e+00 3.166289401241483503e+00 3.727549636455674431e+01
-6.118919905310586493e+00 1.977611260971125384e+00 3.757728808998145809e+01
-6.011838455024606453e+00 1.436225543247261482e-01 3.800420438346868934e+01
