-5.652100597379748237e+00 2.115128466884153724e+01 2.953606842542210487e+01
-2.757016528305824998e+00 2.112895070036096357e+01 2.948622413165513834e+01
-4.935971360094850269e+00 2.115611254849888212e+01 2.952076807932649771e+01
-1.319459606342140567e+01 1.914741833160117679e+01 2.914544968358944743e+01
-6.323730023214589657e+00 2.110663127273368289e+01 2.956143063923128267e+01
-8.938352599889300976e+00 2.082290729799202467e+01 2.962605730469514498e+01
-1.018753949418009164e+01 2.061234884350072605e+01 2.964316778686358944e+01
-8.301220246829814187e+00 2.092022800663785631e+01 2.961905392381899915e+01
-1.196712377247103021e+01 2.011083999164566904e+01 2.965720044357158613e+01
-1.307833504076660347e+01 1.959251370901736422e+01 2.964475113439869602e+01
-1.366095096523600283e+01 1.885205707985534573e+01 2.915844036554562635e+01
-1.678343906250000117e+01 1.428544257812500184e+01 2.823572353515625011e+01
-1.667616229359256863e+01 1.480167378831493963e+01 2.873774616412369554e+01
-1.612899659437861999e+01 1.603264295684634533e+01 2.901123898419140446e+01
-1.571492129054365705e+01 1.665383854583071255e+01 2.883270520312330376e+01
-1.456982813241658725e+01 1.821926551118109572e+01 2.917064186155131011e+01
-1.708888980534021584e+01 1.295812348995975150e+01 2.802705260065037152e+01
-4.867735968112878453e-01 2.098551025985413432e+01 2.951237644451171604e+01
-1.259677686132285368e+00 2.105544603969767792e+01 2.947824455780238040e+01
-4.784556400243073604e+00 2.159313432237830099e+01 2.996181436550514121e+01
-6.994614306761796740e+00 2.106198146489742840e+01 2.958675760874107752e+01
-7.664920509309163243e+00 2.101732275130276761e+01 2.961205807410418345e+01
-1.003324566434916854e+01 2.105695040598070022e+01 3.016919733567101858e+01
-1.354464405007471584e+01 1.929716502966198988e+01 2.965778302103504060e+01
-1.401105483375826566e+01 1.900175063986150548e+01 2.967072334672023715e+01
-1.698647007670554032e+01 1.367321055646021932e+01 2.848684766185751016e+01
-1.709118908593750064e+01 1.173182929687500042e+01 2.627449149993421784e+01
-1.682207821108390178e+01 1.440539798884339362e+01 2.888755512388086899e+01
-1.529981929378779704e+01 1.731477168022604118e+01 2.913531687640458756e+01
-1.724210904648623810e+01 1.208971439641108603e+01 2.762989093745003899e+01
-1.714647832884561351e+00 2.141784850660542361e+01 2.982084182497175462e+01
-4.069388544175751576e+00 2.159790643310352110e+01 2.994647412276740184e+01
-2.549644527537155536e+00 2.159031858040303220e+01 2.995684545196390047e+01
-1.646155236640662878e+01 1.583440764198365081e+01 2.974205552366744243e+01
-1.656893695996387095e+01 1.531765718652491870e+01 2.923952760318945465e+01
-9.426319875418501582e+00 2.117600070396681033e+01 3.012422787096505061e+01
-8.789374953353052078e+00 2.127322559514410116e+01 3.011695824294246293e+01
-1.064539854226159221e+01 2.094187259679024038e+01 3.017953993187056483e+01
-1.237822204610408683e+01 2.039506745336186100e+01 3.025129447141749139e+01
-1.125754859067267333e+01 2.081973694861095581e+01 3.018987988512238374e+01
-1.182285444339627745e+01 2.065482455677310014e+01 3.025728479943879279e+01
-1.293359402038778327e+01 2.013660922799934383e+01 3.024528306657698806e+01
-1.338303958315875342e+01 1.984100266399081747e+01 3.030007602710951176e+01
-1.386954640880281353e+01 1.947741477107546615e+01 3.023244165426740793e+01
-1.718964822733439135e+01 1.306053432942997006e+01 2.873815244646710454e+01
-1.731754222082088646e+01 1.226859450472749913e+01 2.830981399774957552e+01
-1.716665892970705087e+01 1.191079492537892293e+01 2.694989148161299752e+01
-1.593100717921171849e+01 1.665767306066712905e+01 2.949408290638274721e+01
-6.167895833586809928e+00 2.154291442849230975e+01 3.001589191014820912e+01
-3.364042086146467714e+00 2.161251996135380793e+01 2.994342692249175641e+01
-5.499725694342774140e+00 2.158833564729108900e+01 2.997714624549960405e+01
-1.624159928504311523e+01 1.619156939380212989e+01 2.962644451438235649e+01
-1.562041530677124257e+01 1.712377568038861853e+01 2.935998454986765438e+01
-7.509638810756874783e+00 2.145306544685545447e+01 3.006607330538153278e+01
-8.152429758210502087e+00 2.137033610736728306e+01 3.010968885518926186e+01
-1.447742542531609011e+01 1.870636231062551502e+01 2.968353691822365192e+01
-9.884220501791999069e+00 2.150736277605702540e+01 3.066038153030321922e+01
-1.500179187950131166e+01 1.814970740305044927e+01 2.978550950122465579e+01
-1.705057746679769082e+01 1.371641654933050880e+01 2.917030562014748440e+01
-1.727916728758806997e+01 1.302717409348680455e+01 2.945128468698028001e+01
-1.739296335546875127e+01 1.244744531249999930e+01 2.898962732031250056e+01
-1.748579620923779743e+01 1.185217959200851645e+01 2.850315323301296999e+01
-1.686071684570312357e+01 1.452535253906250112e+01 2.953937991992187051e+01
-1.731564020531588000e+01 1.117717664192118754e+01 2.653053317277633738e+01
-1.741895520195974711e+01 1.128712266532976471e+01 2.724092960324269086e+01
-1.757849476506673980e+01 1.125777435337499455e+01 2.801738182688018952e+01
-6.838766836515714154e+00 2.149801538454002880e+01 3.004098583395789390e+01
-1.668051302919089451e+01 1.523965735447288594e+01 2.996658333294938359e+01
-1.635428203125000124e+01 1.635060781250000161e+01 3.024404782812499803e+01
-1.552601054687500159e+01 1.759320947265625179e+01 2.988668965491574170e+01
-1.594024278543693107e+01 1.697176387536432429e+01 3.006581972344709897e+01
-1.435601027784926131e+01 1.911440521539546822e+01 3.016548508226275871e+01
-1.049124434332902744e+01 2.138818582926065304e+01 3.070563226811006174e+01
-9.277197800554137785e+00 2.162628116759190533e+01 3.061513611615317032e+01
-8.640365918905825282e+00 2.172342534032387462e+01 3.060773391969426527e+01
-1.278910411837702021e+01 2.067976298827592174e+01 3.084470310809627591e+01
-1.368747221614004950e+01 2.008926945629191252e+01 3.095482300816956922e+01
-1.753979488886064786e+01 1.178704469391724530e+01 2.929716636755487258e+01
-1.735757201432356212e+01 1.255019384430154084e+01 2.964578628735099031e+01
-1.716538519698246645e+01 1.360683072354991197e+01 2.991255538777413392e+01
-4.632696759070963566e+00 2.202977611882662856e+01 3.040249822073345953e+01
-3.927517524962306439e+00 2.204453280890307454e+01 3.039955652602881386e+01
-5.347565952656388788e+00 2.202473612504321920e+01 3.041760503083123268e+01
-1.689935573730468477e+01 1.464530751953125076e+01 3.019341995120599265e+01
-1.674359746229759693e+01 1.529323911360096844e+01 3.064559977833396687e+01
-1.705169024469799410e+01 1.418604541260943108e+01 3.037377196191004813e+01
-1.654891866478185491e+01 1.582198075211194244e+01 3.044377814244511882e+01
-1.717653364987615916e+01 1.344025266663411244e+01 3.059602882191616047e+01
-1.725403799875480004e+01 1.308329969148286764e+01 3.002875084733818056e+01
-1.732214888171250777e+01 1.265303482645863120e+01 3.030750288473035425e+01
-1.704245208208025630e+01 1.412968544080562516e+01 3.109826742866465921e+01
-1.714690948404498272e+01 1.349410869319688722e+01 3.136472136603541472e+01
-1.710935722258411928e+01 1.342833942979288508e+01 3.207000479635181733e+01
-1.703911969713847796e+01 1.288164225887573622e+01 3.228080262537326917e+01
-1.692389817224169235e+01 1.340798347787872125e+01 3.263556743086559919e+01
-1.696734375159419272e+01 1.399816362584351559e+01 3.250845158316322880e+01
-1.725136757812500221e+01 1.285852773437500041e+01 3.163256765060798514e+01
-1.728674539818051414e+01 1.275581866219046034e+01 3.097005805243710697e+01
-1.728723094154429774e+01 1.211623839883865728e+01 3.197995543507595784e+01
-1.705148572432848653e+01 1.207354595322966340e+01 3.274255097026442485e+01
-1.624411618014423908e+01 1.683957365221700897e+01 3.072094338187687157e+01
-1.751404166180673627e+01 1.183945462259117321e+01 3.006721858070731912e+01
-1.542115038140465622e+01 1.804632964088207103e+01 3.037388672731645656e+01
-1.468735536879360737e+01 1.893942163040111382e+01 3.040100559356239884e+01
-7.997317153043052684e+00 2.180626887635757427e+01 3.056404147780680347e+01
-1.110340872861730332e+01 2.126690152129834388e+01 3.071630197394455308e+01
-1.223367901587097073e+01 2.093833006260874541e+01 3.085070512820846389e+01
-1.166854494748941562e+01 2.110009186310982798e+01 3.078350292379520425e+01
-1.322683489339129892e+01 2.032786687418569471e+01 3.081000807380696926e+01
-1.423471904967811419e+01 1.952203272854194793e+01 3.064686735245817673e+01
-6.683246239797421495e+00 2.193404734827917935e+01 3.049528151906131868e+01
-6.015406379267522752e+00 2.197941535419512959e+01 3.045645113343805832e+01
-1.693799462890625307e+01 1.476526250000000040e+01 3.083514847743187559e+01
-1.662827206645790312e+01 1.583163380128802267e+01 3.110308225969586005e+01
-1.687430041454888396e+01 1.485850288115439710e+01 3.147310242373592004e+01
-1.698089820714375620e+01 1.417359001265142204e+01 3.184118475866401710e+01
-1.741966945612902862e+01 1.220638058240374413e+01 3.061867626097510708e+01
-1.739681022280839429e+01 1.226079173151729051e+01 3.120276715333790207e+01
-1.754233843017019723e+01 1.166270417698209627e+01 3.077295062530510350e+01
-1.682683898081756624e+01 1.290476194392924469e+01 3.292933828259943141e+01
-1.674374785081337791e+01 1.371847292325980661e+01 3.318742960413108989e+01
-1.687461668494536937e+01 1.452060033212429069e+01 3.238629994543981638e+01
-1.682528421561822540e+01 1.456817099513561509e+01 3.294796596290671431e+01
-1.681060659201970608e+01 1.495174280484409834e+01 3.211138002209554543e+01
-1.745315072766603492e+01 1.139708599500651864e+01 3.151780701870441703e+01
-1.732309104968110702e+01 1.137401819872128783e+01 3.232753178633002022e+01
-1.565524289796254109e+01 1.783010535518577555e+01 3.064404213370231034e+01
-7.354267639987411620e+00 2.188902297287818044e+01 3.052034509388300876e+01
-1.411347661553153188e+01 1.992949764232856680e+01 3.112799076091746642e+01
-5.862921639357915993e+00 2.241583906866309661e+01 3.089696908225030114e+01
-4.490339628321510901e+00 2.247597232419068192e+01 3.085519525306254707e+01
-1.682282327210311834e+01 1.530321136169204088e+01 3.129747203275315925e+01
-1.639517707278897873e+01 1.654010556744800198e+01 3.105364349662403711e+01
-1.670762481980076331e+01 1.584128842276875027e+01 3.176133456068484762e+01
-1.658936637145583148e+01 1.440906899389213791e+01 3.366406298277216536e+01
-1.674691282971342687e+01 1.504498240812925580e+01 3.274980377474770421e+01
-1.682052914332316007e+01 1.239081765434811366e+01 3.326736506232820290e+01
-1.661403815839173603e+01 1.292793544481135193e+01 3.357958450476336054e+01
-1.711986417510867042e+01 1.121107933525494360e+01 3.306323999676943259e+01
-1.688032859021201659e+01 1.179144242647901031e+01 3.345190365695980006e+01
-1.664095518767324222e+01 1.237141257126633676e+01 3.384028958142192067e+01
-1.655162560207860523e+01 1.622529077045571810e+01 3.149908981810783715e+01
-1.609633201191866192e+01 1.289754910168123736e+01 3.493308550377378197e+01
-1.625433246141636801e+01 1.349622223966605361e+01 3.466997253474577434e+01
-1.640171536045819778e+01 1.295105954287503636e+01 3.422844847183637285e+01
-1.594817658232946833e+01 1.344288773686968064e+01 3.537762511642985430e+01
-1.579058616378197577e+01 1.284397727199110406e+01 3.563959021366334667e+01
-1.531620838371551230e+01 1.849980342125967780e+01 3.086137765976373615e+01
-1.151449535583200579e+01 2.154542169402150975e+01 3.130956386706031580e+01
-1.331825761039878664e+01 2.078038149987306227e+01 3.152707463975689350e+01
-1.264457619717966885e+01 2.122306158316817459e+01 3.144421822370575015e+01
-1.489711980211046161e+01 1.917229878701906998e+01 3.111790744309926282e+01
-5.195416517677776902e+00 2.246106937919851632e+01 3.085803318725450595e+01
-1.613407367814645355e+01 1.732799523038343992e+01 3.119964024789355150e+01
-1.643606197572652761e+01 1.672955696129902847e+01 3.186702877759207553e+01
-1.666960771086377235e+01 1.571239305300985301e+01 3.248455949079900051e+01
-1.649549129039992934e+01 1.367968754647327501e+01 3.394488989364192832e+01
-1.678012935595067745e+01 1.117493165711587544e+01 3.375805217835752359e+01
-1.662388809382305510e+01 1.171365682689707555e+01 3.398479382601113485e+01
-1.659226744987689628e+01 1.638010694635256215e+01 3.222201587104240872e+01
-1.566880842279298136e+01 1.350588294191497063e+01 3.603564391649468490e+01
-1.548178139467578518e+01 1.279044826342748742e+01 3.634650371893059173e+01
-1.626815921892621120e+01 1.212949462843115533e+01 3.463649153401784986e+01
-1.633845186654607318e+01 1.436186179800631635e+01 3.442117856269786103e+01
-1.610474450391497570e+01 1.404179718835965929e+01 3.511778710663823944e+01
-1.614495997023391283e+01 1.463194635686043377e+01 3.499739453261295097e+01
-1.595175775188906897e+01 1.458674527055083203e+01 3.557196913178676567e+01
-1.584385337724878973e+01 1.401156986503627699e+01 3.571834012399429525e+01
-1.578458526831104614e+01 1.806720304055867032e+01 3.140126717015904845e+01
-1.549801616899703838e+01 1.850985177851335095e+01 3.137552310197343886e+01
-1.207945390258082874e+01 2.138294260780415001e+01 3.137687764949992442e+01
-1.399203203124999995e+01 2.033763916015625028e+01 3.160985133671433900e+01
-1.454942430601854930e+01 1.987128458661427644e+01 3.172235794403956533e+01
-1.619701421114249484e+01 1.741948754743674854e+01 3.191077819653974146e+01
-1.661449274543956989e+01 1.573139603674855280e+01 3.315196855631113237e+01
-1.668321203515625228e+01 1.513823242187499929e+01 3.338837566858464356e+01
-1.654573988768223813e+01 1.632484668980632847e+01 3.291860460133970179e+01
-1.646457374631606285e+01 1.513678119717571313e+01 3.404912221767846603e+01
-1.628918192319201097e+01 1.738105292430055115e+01 3.250152533316118308e+01
-1.647691941940044202e+01 1.691888080593403387e+01 3.268019432430644144e+01
-1.538095258375593843e+01 1.353609892594884911e+01 3.670964416785134432e+01
-1.558984165479001760e+01 1.433400923681248962e+01 3.636930577678170806e+01
-1.602073483620544891e+01 1.513388307859307957e+01 3.537182858103609107e+01
-1.624257106312872878e+01 1.513533158725780936e+01 3.471005741911582732e+01
-1.602409417025160465e+01 1.781613634888233122e+01 3.167851579148321761e+01
-1.521144688673096113e+01 1.895250092577641965e+01 3.134796366998477879e+01
-1.647314033173160297e+01 1.633310296322199306e+01 3.356532304800099098e+01
-1.655019368782339129e+01 1.566599222158913030e+01 3.382825751850943163e+01
-1.635501722480078612e+01 1.562309206740521184e+01 3.440693704935902275e+01
-1.517177018636103902e+01 1.273686199508865968e+01 3.705513614074223483e+01
-1.452421472043026895e+01 1.255626964678761048e+01 3.759064809153967701e+01
-1.471881075448520448e+01 1.332748952715362378e+01 3.742937381715120893e+01
-1.421265480075706478e+01 1.311256604468974096e+01 3.784902970123359722e+01
-1.490065939267247863e+01 1.420578767941231568e+01 3.710597382098635677e+01
-1.510672909540602227e+01 1.940499895204838054e+01 3.183426756835680393e+01
-1.610166004248650751e+01 1.784269385391020890e+01 3.232337172309931361e+01
-1.591405624999999802e+01 1.830453623046874867e+01 3.215777370851544958e+01
-1.188257726130541414e+01 2.184747740257148507e+01 3.189970900543787025e+01
-1.244752567262313647e+01 2.168754566348234292e+01 3.196695789500898144e+01
-1.289334716137205383e+01 2.143401401686950436e+01 3.205377024401330743e+01
-1.379123806511249661e+01 2.084384447305668431e+01 3.216398920454629717e+01
-1.416098156309316991e+01 2.056441735755212363e+01 3.227118076398352997e+01
-1.639586995039008244e+01 1.700061447737229869e+01 3.329932153380591586e+01
-1.616999080927101673e+01 1.588346803289570985e+01 3.497702414246887059e+01
-1.633132323155048482e+01 1.740982467034018555e+01 3.312049682711150211e+01
-1.426683252054131046e+01 1.391588204666578577e+01 3.780899341195536323e+01
-1.387742493222103946e+01 1.237582182972242251e+01 3.812608064792385676e+01
-1.579891824955719315e+01 1.513243100523196638e+01 3.603463696835220276e+01
-1.530271158842106161e+01 1.497641477673266586e+01 3.657509195714845873e+01
-1.369224525269698844e+01 1.312827183440203349e+01 3.828197483086770347e+01
-1.323089914600267392e+01 1.219362989049411361e+01 3.866186523516258688e+01
-1.551006257852323955e+01 1.885521827342464007e+01 3.199822482540588808e+01
-1.517481586705176788e+01 1.963040110824528739e+01 3.254563669737875387e+01
-1.334579924426669173e+01 2.119178514078102538e+01 3.219462016774454582e+01
-1.452992884393222006e+01 2.030771512690639469e+01 3.243426634773521045e+01
-1.289247437048819478e+01 1.263396154072443167e+01 3.894506906723417927e+01
-1.320007476655158030e+01 1.325756502672239456e+01 3.869375049391494059e+01
-1.631423903988816448e+01 1.708240291696950663e+01 3.391884765808774205e+01
-1.641361551623873538e+01 1.619336468781177985e+01 3.427048807396897701e+01
-1.611947489168076331e+01 1.795340815403675450e+01 3.301528783916221954e+01
-1.480652390156834564e+01 1.482007670099867269e+01 3.711559989636261037e+01
-1.555648414496862131e+01 1.576707554605356343e+01 3.653108022809256283e+01
-1.431083393959358219e+01 1.466193561205044560e+01 3.765563136521096510e+01
-1.591320477641928832e+01 1.583739811507723338e+01 3.574202525689192811e+01
-1.350738348666179434e+01 1.388055876073351236e+01 3.844417662891905962e+01
-1.490372199806055065e+01 1.994280000420412335e+01 3.242064242235451843e+01
-1.432969175081433733e+01 2.079087752385970234e+01 3.293159433943965553e+01
-1.396244957856236724e+01 2.101844128312121640e+01 3.273879179587243016e+01
-1.359067468426163039e+01 2.134947098067538462e+01 3.271738791802701485e+01
-1.618579390818064923e+01 1.790054217567122308e+01 3.356055929760898238e+01
-1.576310948295526515e+01 1.874930383575007653e+01 3.261191736941121633e+01
-1.514210140348431288e+01 1.552586893567227122e+01 3.694613010712193102e+01
-1.472949364582902199e+01 1.550664401916283630e+01 3.743190366204139252e+01
-1.602744825567475218e+01 1.654209054901486198e+01 3.545127473884011238e+01
-1.381480471265713206e+01 1.450377461393482470e+01 3.819608933352295566e+01
-1.590764780583880267e+01 1.849699623719793706e+01 3.291079020175549630e+01
-1.470085610579218383e+01 2.048022619791961318e+01 3.300635962346749608e+01
-1.394437345874525036e+01 2.143596591811019536e+01 3.343122090333812224e+01
-1.331006414689447226e+01 1.433716036774027103e+01 3.858518847227107784e+01
-1.627747403038256024e+01 1.671972315685215094e+01 3.471526594892856821e+01
-1.622767457165342719e+01 1.716417834767543837e+01 3.453827924638670765e+01
-1.613617079285016587e+01 1.777760357076965647e+01 3.426926144194075619e+01
-1.423381333415576044e+01 1.534881785979464830e+01 3.797207416473492714e+01
-1.341126150728972810e+01 1.499355687211116006e+01 3.855771571294220479e+01
-1.561245515748105639e+01 1.919320791458399711e+01 3.306440365396763781e+01
-1.498122430451405585e+01 2.011511258657434809e+01 3.304205039394474142e+01
-1.280519130577740405e+01 1.417052943497738404e+01 3.897436658221428019e+01
-1.590124313817258894e+01 1.868933533062421404e+01 3.367546995265228560e+01
-1.531423292307517059e+01 1.640140848980794885e+01 3.702850022779554706e+01
-1.576000839698821565e+01 1.648931285433819838e+01 3.604266954926963251e+01
-1.614154425848393970e+01 1.724586938432283034e+01 3.515705693164066048e+01
-1.552058605879111397e+01 1.654581303034715134e+01 3.656648523143370966e+01
-1.296559776392960295e+01 1.478884613583448804e+01 3.889658954032769600e+01
-1.524291509806053924e+01 1.985584795516756174e+01 3.325699628197663316e+01
-1.449820834151678106e+01 2.101707333530764998e+01 3.359126057706139079e+01
-1.490443419911237299e+01 2.054942887259307938e+01 3.378067645309383238e+01
-1.605988540460717928e+01 1.779110762963328796e+01 3.491816642109115776e+01
-1.604032848814892631e+01 1.839104327523967086e+01 3.400038383004235243e+01
-1.587429000026478754e+01 1.719357098019741059e+01 3.575015845427043359e+01
-1.249855458998300861e+01 1.482763359008251491e+01 3.927243104507135740e+01
-1.300770065865951430e+01 1.548340880328584213e+01 3.892012817946459791e+01
-1.362415682836698849e+01 1.574938283636129377e+01 3.848139279390643708e+01
-1.409721994769475018e+01 1.601934607626679252e+01 3.815223491863203265e+01
-1.465247555196737572e+01 1.619321272649091981e+01 3.774947369776477046e+01
-1.597846054489947676e+01 1.833634791464655933e+01 3.467924578208328512e+01
-1.568144641793078087e+01 1.916339414016868758e+01 3.359083941539354612e+01
-1.592134665853472519e+01 1.770651717283531212e+01 3.555865100180054839e+01
-1.533929382617116666e+01 1.708885512354044067e+01 3.693686597845381669e+01
-1.383706886998823116e+01 1.650525868153822984e+01 3.840655700998804178e+01
-1.445435871109349968e+01 1.677196559364237771e+01 3.796743372877431000e+01
-1.322058205259908803e+01 1.623903845348652553e+01 3.884509863584045775e+01
-1.560684762962151417e+01 1.714122807317439268e+01 3.634370451095443144e+01
-1.546177112009216792e+01 1.963720329695754074e+01 3.351647600680726669e+01
-1.589484032653205503e+01 1.888162243393911410e+01 3.444020823216278870e+01
-1.531103359374999862e+01 2.008135429687500206e+01 3.396836191609602906e+01
-1.501070805972052113e+01 2.058637852287990455e+01 3.450772546884055458e+01
-1.518971047243778116e+01 2.025029685270186874e+01 3.470148472512610027e+01
-1.550555105202585793e+01 1.968161783736422166e+01 3.412022687198609816e+01
-1.582929245899795134e+01 1.832028367716568695e+01 3.529015496159524901e+01
-1.507176075152446693e+01 1.703647794671725890e+01 3.752822041683882048e+01
-1.568873947695397675e+01 1.762358230996938246e+01 3.608125025542404529e+01
-1.570000888740139544e+01 1.928200438829152930e+01 3.426806389684612242e+01
-1.573772323419305330e+01 1.893367401091769509e+01 3.502113436370974853e+01
-1.513451523229250206e+01 1.772121172563643654e+01 3.727539665069693342e+01
-1.543822026226998112e+01 1.782143350929436210e+01 3.659439036987324556e+01
-1.467905451517463966e+01 1.750460882571017862e+01 3.796971193541197920e+01
-1.260434986523912926e+01 1.597304867253676974e+01 3.928345022443690482e+01
-1.412088260991813193e+01 1.720268587832511997e+01 3.835168684581334730e+01
-1.365087075707159059e+01 1.706207173434478364e+01 3.870178745637456075e+01
-1.491916927009964056e+01 2.070772522207278499e+01 3.515143393373153913e+01
-1.542361347246985126e+01 1.977962589824810635e+01 3.477901590222136718e+01
-1.506842394912382410e+01 2.041918853136848355e+01 3.543401979668828972e+01
-1.565751471570375131e+01 1.930895815741709143e+01 3.486507623668746447e+01
-1.570059132842430571e+01 1.816833392990310614e+01 3.596110531563797252e+01
-1.303427958647697338e+01 1.679550990892407469e+01 3.914006316249006545e+01
-1.557832190365507863e+01 1.898573151102514700e+01 3.560207226401198000e+01
-1.542052712380783142e+01 1.973568472165861465e+01 3.528828009205852823e+01
-1.518381923891458030e+01 2.016190761243458596e+01 3.572789950114935209e+01
-1.494714557300986790e+01 2.058806839854075221e+01 3.616623094850432807e+01
-1.548024122958172377e+01 1.862930510965643904e+01 3.636262698325255371e+01
-1.428700737295181966e+01 1.797195874184154718e+01 3.840640862429983571e+01
-1.346470089997659514e+01 1.761892747275297921e+01 3.899173634590005122e+01
-1.457808849310652199e+01 1.817554982598424473e+01 3.794709723557546255e+01
-1.485603970674158525e+01 1.824283092100709780e+01 3.753963062232305248e+01
-1.519730535252717019e+01 1.840572168071174630e+01 3.701943835232678026e+01
-1.467858903387380920e+01 2.109227493937493136e+01 3.587773123089340999e+01
-1.505329341747563099e+01 2.008830034291469246e+01 3.634405044455373712e+01
-1.530275924326256742e+01 1.959968194076277825e+01 3.594784804557372127e+01
-1.541900475265718740e+01 1.903781453671043167e+01 3.618330372536039619e+01
-1.526011744692311645e+01 1.908980494599870781e+01 3.676349324938610152e+01
-1.389513376089773722e+01 1.843911203515624919e+01 3.884180957324840477e+01
-1.457757683657617420e+01 1.876445140761228103e+01 3.780297408266937254e+01
-1.329642643965008020e+01 1.810260534264429921e+01 3.909420188283738185e+01
-1.423634740269811161e+01 1.860178285944406440e+01 3.832244190244611559e+01
-1.377723386531397765e+01 1.922129841171295794e+01 3.873119680629942962e+01
-1.515663856137093468e+01 1.958865642066666268e+01 3.655462485736755696e+01
-1.491882634856770373e+01 1.892712301039535561e+01 3.728335800988868698e+01
-1.459685163701519883e+01 2.063765283289367503e+01 3.675740577399419351e+01
-1.415451954048283589e+01 1.945481662949611845e+01 3.813860104799569939e+01
-1.483049593203816308e+01 1.951391345595181548e+01 3.720060717521374016e+01
-1.454303011185052696e+01 1.933174963736022534e+01 3.765384544176719572e+01
-1.471390513062380023e+01 2.007578159762332604e+01 3.696480940124199321e+01
-1.440093566533385427e+01 1.993799220208984835e+01 3.763732053045679038e+01
-1.424552800185100843e+01 2.068719710867851802e+01 3.734648303126932234e+01
-3.892228026566518118e+00 -3.829543678524144901e-01 1.807100832252916334e+01
-2.940892802348342716e+00 -4.562885083375455841e-01 1.816098672810286629e+01
-3.425003938848961482e+00 -8.025810770310062292e-01 1.806925870591608430e+01
-3.138908532977178201e+00 1.663501731782360826e-01 1.821501754500282999e+01
-2.742877355474752310e+00 -1.078945407903889819e+00 1.810694068343712360e+01
-2.542181512265435650e+00 -2.689146528692062249e-02 1.827754314252942081e+01
-4.084677522892696366e+00 2.345896237540198159e-01 1.812497540959158115e+01
-2.022737246239486808e+00 -6.196926182608343270e-01 1.827509648628631922e+01
-3.336924148949722113e+00 7.889719442295958229e-01 1.826903436254015745e+01
-1.879648038175565583e+00 1.416839716400121185e-01 1.839825280002535024e+01
-2.640757558583957110e+00 6.770122633969170023e-01 1.835718932081456245e+01
-1.838936251465709715e+00 -1.385817849547314351e+00 1.819970460026368997e+01
-1.201996904290379087e+00 -2.768226711613329116e-01 1.844256100940110699e+01
-1.133049572181362263e+00 -1.069985344254070325e+00 1.834652409392469963e+01
-1.727114664821709944e+00 7.979777916128844018e-01 1.850873341220737700e+01
-3.064340762727555401e+00 1.622113880159729904e+00 1.842095728824903844e+01
-1.144899905506899351e+00 -1.766921952176987887e+00 1.833491725844521270e+01
-2.395727720305153685e+00 1.210052305992279642e+00 1.846485962876126052e+01
-1.058501486276493209e+00 3.858906388019462952e-01 1.855257526631742593e+01
-4.256296939713467009e-01 -7.541527451742154886e-01 1.849333834984030034e+01
-4.373837483822256011e-01 -1.451083664387376349e+00 1.848170807453431408e+01
-1.015191833573935165e+00 1.006709588410336975e+00 1.865870651045576167e+01
-1.583180624140524628e+00 1.546711863662250552e+00 1.865172929943829772e+01
-3.894287497853484159e-01 -2.620938988819149565e-02 1.859638113742726873e+01
-2.447660171728197831e+00 1.954334086803255266e+00 1.857501046589687022e+01
-3.927031333324313978e-01 -2.237153618671250399e+00 1.848020177051170876e+01
-4.343881975863825851e-01 6.114965066115629622e-01 1.869084618791827879e+01
-3.116639374974924603e+00 2.366181307254321631e+00 1.853098737934111284e+01
3.993849171877359994e-01 -1.769026963707028610e+00 1.864611784389481741e+01
3.406118188678579628e-01 -1.103658626504796736e+00 1.864316914764816957e+01
-3.956030426314559034e-01 1.207157468062967975e+00 1.879222652163719331e+01
-1.698097355287484955e+00 2.300956059773874962e+00 1.875314516976841972e+01
2.817652912146272337e-01 -4.383219942987504614e-01 1.864014639744362967e+01
2.366869840214411991e-01 1.993692602305801032e-01 1.873464538810450719e+01
-2.500081253256032365e+00 2.698331238963244783e+00 1.868500790517055421e+01
-8.325387666463534009e-01 1.498974539977927067e+00 1.876715534390331186e+01
1.915590897595583764e-01 8.371017857550928642e-01 1.882911857563148672e+01
-7.610421643908577005e-01 2.016579529486957068e+00 1.886141512798250730e+01
-3.387839853554997838e+00 3.082540962097140014e+00 1.868743371788299257e+01
1.253719404812998262e+00 -1.349821885202885152e+00 1.890851446783088718e+01
-3.621452750850715496e-01 1.682443879873843251e+00 1.887351641147331094e+01
1.463661874847727584e-01 1.475100852343093738e+00 1.892360208638536534e+01
7.678347603410247135e-01 -8.940610587177346691e-01 1.877438624557889923e+01
9.499753743716847776e-01 -3.575055787125982487e-01 1.878960725624409989e+01
1.014350014482410023e+00 2.618496679270241878e-01 1.890339393616224228e+01
-2.663360592135319393e+00 3.487767147091253239e+00 1.887230230270883524e+01
9.121342453672436346e-01 1.331463206520253184e+00 1.905631801592033980e+01
-8.911332841414796313e-01 2.572223091421530494e+00 1.892867972097995377e+01
-1.882910800036039278e+00 3.030808769642807210e+00 1.883918255013631438e+01
1.216169530202838578e+00 7.744824215406792556e-01 1.902783850010237998e+01
1.349007261056112350e+00 -7.796735795520504109e-01 1.890228009120539099e+01
1.099054981353981830e+00 -2.120263650820608969e+00 1.884582901463389959e+01
1.010905567853848247e-01 2.113618955074957562e+00 1.901813569128340831e+01
1.737852260023442064e+00 -1.806101280674610177e+00 1.904265941805866547e+01
7.485441580867110423e-01 2.109463240090851954e+00 1.914934112823479495e+01
1.618313708396422523e+00 -2.766398648419545747e-01 1.893914180318731511e+01
1.764248216009282721e+00 3.844569414248132921e-01 1.907630022603430930e+01
1.794932939555069940e+00 1.075986483861258503e+00 1.919484105230577242e+01
1.988296367729116110e+00 -9.575461909309260777e-01 1.905888916579377934e+01
1.374382590331538978e+00 1.716618949176105469e+00 1.921309237893113675e+01
5.611489573381730350e-02 2.751687247981777773e+00 1.911257814574287650e+01
-1.266116753579404675e+00 3.363082778219014912e+00 1.899326481001519795e+01
-1.882754303973906529e+00 3.588924202023641374e+00 1.898428670100787485e+01
-4.931963008032585472e-01 3.066791417141755627e+00 1.907275869861359752e+01
2.585213848403488335e+00 -1.548319020657555667e+00 1.922698351367018432e+01
1.533889200866476621e+00 2.286817991645870407e+00 1.933816506701096571e+01
-2.176313237092351915e+00 4.110348257470719524e+00 1.908761677852515248e+01
2.428401126218632022e+00 4.652827331374054243e-01 1.922570356660334667e+01
2.280840553236552992e+00 -1.957565180175362407e-01 1.908869110187239571e+01
2.056107765054809633e+00 1.706596483745864701e+00 1.935046075283899825e+01
1.158727302306945817e-02 3.389725872907141557e+00 1.920699366424154420e+01
1.011315080412830580e+00 2.867047375318461544e+00 1.932587921683976617e+01
-6.492200178488878315e-01 3.695412630535048315e+00 1.914737457248769914e+01
-1.425070137573261064e+00 3.952607140556754661e+00 1.912907234236375942e+01
2.576791481534005612e+00 1.126361026062817183e+00 1.936276799840619134e+01
2.810484655903969564e+00 -7.873950500464907964e-01 1.924134213424566653e+01
4.884060835990509108e-01 3.447240610388857984e+00 1.931360381918962688e+01
-8.084666650169134439e-01 4.284773189474688770e+00 1.928311116771217115e+01
3.437143727352282685e+00 -1.290539112612152373e+00 1.941121306779586675e+01
3.089092426227199262e+00 5.461089410949671041e-01 1.937508772603077745e+01
2.942314345575269829e+00 -1.149544831628584451e-01 1.923807083613470326e+01
2.475093013818555399e+00 2.515442553658990388e+00 1.951522115367905386e+01
2.975976724192763712e+00 1.806198556787367293e+00 1.950944510466605308e+01
-1.584022312344564698e+00 4.542124917814519769e+00 1.926488480496822575e+01
-3.291750000000004395e-02 4.027420886521429821e+00 1.930133748782457559e+01
1.833348155131197199e+00 2.894665193503272782e+00 1.945952826427373594e+01
1.545683465044797478e+00 3.595597516886403611e+00 1.949909493604435440e+01
3.359466309457573185e+00 1.234163078441869565e+00 1.950180932538594902e+01
-5.084987051514275880e-01 4.608873992196434344e+00 1.940964458680129923e+01
3.521747563371387724e+00 -6.623314211766513360e-01 1.939946809100778324e+01
7.557709992310923663e-01 3.811509725874492105e+00 1.940022691372763930e+01
-2.359570256243262332e+00 4.799470661927184523e+00 1.924665858379279726e+01
6.513733793617738632e-01 4.398794946846646070e+00 1.946013386960812497e+01
3.875889005834128653e+00 6.568173464221995772e-01 1.951431588837764863e+01
3.606355985975958411e+00 -3.415845096586048180e-02 1.938742071461922833e+01
2.334978049863999594e+00 3.379681749418109060e+00 1.959794046462434736e+01
-9.840808481520908479e-01 5.190323869560208969e+00 1.951795489055384536e+01
-1.909689965133753553e+00 5.285710409401870535e+00 1.943647756337868060e+01
2.280508618263010420e-02 4.673876601870254888e+00 1.946542857063058563e+01
3.888968591663991781e+00 -1.028057983225091787e+00 1.956034114168364013e+01
1.325413123719054287e+00 4.170694895322421658e+00 1.953873746263519351e+01
3.707938616035054924e+00 1.792841873630128147e+00 1.962523045432083890e+01
3.121527736123548280e+00 3.163678002405252876e+00 1.969679838261464155e+01
3.675011063403121003e+00 2.461706943625898703e+00 1.970093214630515632e+01
7.852760831250184259e-02 5.320326420427508474e+00 1.962952624825403092e+01
2.178992076158327240e+00 4.260836662878128678e+00 1.968781323594567212e+01
4.145436076383938406e+00 1.347744188145731270e+00 1.964109167596181749e+01
-1.459809676502401787e+00 5.771948855324827932e+00 1.962630128113524464e+01
7.071647710480917226e-01 5.045247129534343067e+00 1.962421611963072721e+01
4.019203380557817340e+00 -5.261294932911471101e-01 1.957406340353237439e+01
4.381774566362879320e+00 -9.914110994252353648e-02 1.966162470532341189e+01
2.868596056284649087e+00 3.722746919051143522e+00 1.972859264827858539e+01
3.900233989332161144e+00 2.947513970641765013e+00 1.979569805856057130e+01
1.337015585860296563e+00 4.770168131257753075e+00 1.961885049697297134e+01
-5.526063932171940696e-01 6.050020587133817962e+00 1.976291230188508052e+01
4.415229765657162631e+00 2.039228143047691511e+00 1.976785764846685822e+01
4.938846989562718726e+00 7.109259176204534292e-01 1.989635920428964511e+01
3.642739421617117834e+00 3.578163155449915145e+00 1.983579216223984076e+01
1.343242200862003743e-01 5.967630899452836424e+00 1.979384846478930626e+01
4.433037471113145500e+00 -1.018471655445950308e+00 1.976060480057136459e+01
2.022981900567484281e+00 5.141975869430621238e+00 1.977767101921484993e+01
4.817231345756057159e+00 1.537930722447992560e+00 1.988946005037005094e+01
3.271554843705516635e+00 4.171471838891067208e+00 1.985196043534071819e+01
4.685258636104202346e+00 2.731246699193635052e+00 1.989460826885607148e+01
4.425078088869843995e+00 3.361858719174285692e+00 1.993464877557247661e+01
6.794319005664382072e-01 5.668946821104712264e+00 1.977448941292221463e+01
1.318274576878520676e+00 5.494640439115127784e+00 1.979471703711609010e+01
4.796161303266686105e+00 -5.913164497101763839e-01 1.984846290556028237e+01
5.159383752164230508e+00 -1.641976053100876465e-01 1.993613019753477644e+01
-1.250611217908619288e+00 6.515902071712532440e+00 1.982602317772550649e+01
-1.935699484878031784e+00 6.353766676525058443e+00 1.973468677895092327e+01
1.901066495198283635e-01 6.614771922322348452e+00 1.995813626402565077e+01
2.943988895213358603e+00 4.820247200266289944e+00 1.988384519129483152e+01
5.090331668815552213e+00 2.126047127263665626e+00 2.001278487381682680e+01
5.620772848312623360e+00 3.248589145252372412e-01 2.012239544824623749e+01
5.496036126850243342e+00 1.520917350298955251e+00 2.013089612834346909e+01
4.165971060109678881e+00 3.992641023236426445e+00 1.997471011726961976e+01
1.145576287361607770e+00 6.331036783169913917e+00 1.998288042789799235e+01
3.908431506386626619e+00 4.623710620465323551e+00 2.001479866159496979e+01
5.115782662831336758e+00 3.242761336935998440e+00 2.009984669494976472e+01
4.832861364569104978e+00 3.781615654339142818e+00 2.011788554338677315e+01
5.441135351907628426e+00 2.568478084935800876e+00 2.017364062242284461e+01
-5.425703278286480025e-01 6.884815475771566717e+00 1.997022173376661769e+01
-1.737734528567620451e+00 6.879992094691344207e+00 1.987970327059562692e+01
2.008690983629683124e+00 5.920281888220925381e+00 1.996717973249649702e+01
2.708505499818220308e+00 5.513747664113096469e+00 1.993639250976914923e+01
5.902325770521681392e+00 9.156120267185910988e-01 2.024897798886838274e+01
-1.275247200950202053e+00 7.154857152080883687e+00 1.998229106705971603e+01
8.199081877114628991e-01 6.938831572729269759e+00 2.009989761539313946e+01
3.653416415359546754e+00 5.254958465703388093e+00 2.005490677041531811e+01
5.765989856627187216e+00 2.016804922795635502e+00 2.026417648086098211e+01
4.906532808891260089e+00 4.523318679581688428e+00 2.026722291143818566e+01
2.458540821495050210e-01 7.261491250840825806e+00 2.012232375033482157e+01
3.393472672360963838e+00 5.885380315042246124e+00 2.009496935499221948e+01
6.429290637764874639e+00 1.579282454831978155e+00 2.049059702757058687e+01
5.871734265806774822e+00 3.079788640022911750e+00 2.037853101103744180e+01
5.546145173155522023e+00 3.753741408426816140e+00 2.030468907909100906e+01
6.197727489928279709e+00 2.405826725286822843e+00 2.045237858385804586e+01
2.157412620348850396e+00 6.694435169677122488e+00 2.017174549450829701e+01
2.775571635104035373e+00 6.289950456237469290e+00 2.013339635467659150e+01
1.538705018809094272e+00 7.098999542193516810e+00 2.021004031419077762e+01
-5.786813210794781170e-01 7.420380022307225154e+00 2.010004843988901513e+01
4.327864347834116110e+00 5.042366991170383450e+00 2.020161140739478256e+01
9.196478288069419582e-01 7.503484607177677290e+00 2.024827262226634872e+01
4.142286812920523253e+00 5.608273796322321481e+00 2.024987640959385615e+01
5.976687149997196080e+00 4.264698253922123428e+00 2.050934266239493198e+01
3.015805468749999108e-01 7.907968900029274550e+00 2.028645610368159424e+01
4.893411170611150496e+00 5.331165805090092746e+00 2.040465903059335773e+01
4.121306267920239463e+00 6.344383871346474635e+00 2.039352777410783446e+01
6.956331433100197081e+00 2.242879465019534280e+00 2.073151371427634615e+01
5.649153126975314798e+00 5.053958999081429759e+00 2.055935123905609530e+01
6.302839697391107165e+00 3.591259433924593125e+00 2.058338943855104830e+01
6.629243563900527825e+00 2.916978173959932530e+00 2.065735426679841424e+01
2.749949354678331126e+00 6.890376750796115779e+00 2.031083543496234256e+01
3.325643965659072165e+00 6.561393848015108610e+00 2.028948096383342303e+01
1.647345281351164425e+00 7.597843758318731489e+00 2.037501750422787694e+01
2.381665759475277699e+00 7.402128996013509266e+00 2.041526803322190631e+01
6.407964029908741921e+00 4.776353045041858536e+00 2.071410181142021401e+01
1.240892585559483008e+00 8.135406435084719945e+00 2.048206935347185009e+01
5.013983098159109808e+00 6.061348062670695036e+00 2.058735329450566454e+01
3.997057467733811986e+00 6.875121917717763154e+00 2.052972622608709230e+01
7.381169265747018038e+00 1.288484390582654626e+00 2.083571384628391243e+01
7.387723865226252684e+00 2.753625497632903318e+00 2.093619475918072226e+01
6.734017742769810688e+00 4.102706390926827318e+00 2.078805277437101751e+01
3.257793347086150870e+00 7.237480144838941420e+00 2.048402173264469894e+01
4.520522160491288743e-01 8.512954013993880409e+00 2.053088167781422513e+01
5.510742149875406781e+00 5.609960236112645049e+00 2.063424161079281660e+01
7.714313571422274585e+00 2.080134089341735049e+00 2.101017668689186024e+01
7.041920528131671908e+00 4.656058390751192100e+00 2.103327248184451292e+01
6.200315006696691000e+00 5.397664749162502495e+00 2.078324975003632957e+01
7.060800054673445736e+00 3.428106541184518630e+00 2.086212276386186559e+01
2.182117612644344895e+00 8.363212619576072981e+00 2.067789081968653164e+01
4.848708094266219071e+00 6.803897649882683751e+00 2.069230907096558170e+01
8.125099219126168393e+00 2.818518132760442718e+00 2.133729533369908182e+01
6.892143727745974502e+00 5.395848366061632539e+00 2.107569882351271318e+01
3.189862742231631909e+00 7.914223753465965849e+00 2.067875885998763152e+01
1.470262290647409209e+00 8.830734248366152173e+00 2.076954519990870196e+01
5.785737710927381983e+00 6.641688248081167423e+00 2.092172053674073240e+01
5.992843769821254440e+00 6.019532463440935288e+00 2.085246677893435319e+01
4.119553772029133754e+00 7.416322911358106396e+00 2.072298089916117902e+01
8.109870758918205524e+00 1.436436884733453656e+00 2.123702778939825464e+01
7.676533104394295037e+00 4.535698752135234102e+00 2.135246323888845410e+01
7.688347633831357442e+00 3.788706859642820834e+00 2.124859420026291801e+01
6.030732742783749822e-01 9.118774156243928175e+00 2.077564896464924971e+01
8.339112531241886117e+00 2.006355365908180310e+00 2.143043044114146056e+01
7.651175216742588603e+00 5.322156302685129958e+00 2.146921294499077959e+01
6.534314546135189694e+00 6.215875597046843559e+00 2.113164582432852256e+01
3.121928728925386753e+00 8.590880541162976058e+00 2.087347757440642582e+01
5.579393206388757243e+00 7.263327787039415284e+00 2.099092029884113941e+01
4.966250975662919842e+00 7.595149789046913291e+00 2.096175565062576496e+01
8.852967460402890509e+00 2.929707787910261096e+00 2.183936783340307741e+01
7.376473068316015791e+00 6.015427511839805064e+00 2.143725918748353365e+01
8.535836392568970865e+00 3.556755227259755792e+00 2.166408107881322564e+01
3.741915655206025537e+00 8.258952727176064101e+00 2.090301418391543820e+01
1.276656554148771106e+00 9.367069903016318477e+00 2.094778124253464924e+01
2.567984008008649344e+00 9.025833033104740721e+00 2.097152114073845652e+01
6.338001916774090638e+00 7.054114813137694284e+00 2.126037464973101621e+01
8.964460407347708326e+00 1.932506920531559702e+00 2.185095543272683472e+01
9.048083352143359903e+00 1.325542751696745958e+00 2.186814867047766597e+01
8.505664683777203194e+00 7.924427489437703143e-01 2.146383721624686913e+01
9.272666764208787882e+00 2.486708921901680025e+00 2.209620121277302474e+01
8.312152532787411729e+00 4.415180113204811185e+00 2.167192561123906813e+01
8.109519381042300523e+00 4.948824159888492780e+00 2.165215765908778778e+01
4.359571681586666969e+00 7.927019745451958421e+00 2.093244777277837443e+01
2.013931176737187911e+00 9.460631322686193556e+00 2.106942641340767253e+01
7.099124741615269407e+00 6.844701865355614423e+00 2.152980718372552005e+01
3.149022023552877858e+00 9.138132910425364130e+00 2.113730334501458685e+01
3.843588608568599074e+00 8.882274047843342402e+00 2.118538371394549458e+01
7.545154767418077446e-01 9.724211316213230205e+00 2.102026546791883987e+01
6.054795177346962376e+00 7.653745898996884733e+00 2.132067456431765251e+01
5.502603454062034771e+00 7.813742899232211769e+00 2.119554155887410474e+01
9.234483619010170230e+00 7.365039060651557001e-01 2.195623851195215792e+01
9.580872888677749444e+00 3.040871208068093523e+00 2.234133778331629827e+01
9.263639569437769339e+00 3.668001416597658881e+00 2.216595986411182650e+01
8.675351662210616155e+00 4.879334942909394179e+00 2.194270897718174496e+01
8.403738331204310796e+00 5.464822278498322028e+00 2.189473826501290077e+01
8.132150082089498966e+00 6.050497826938833867e+00 2.184678097698455446e+01
7.861103020662485896e+00 6.635306770480682736e+00 2.179890576631332522e+01
8.946558176852297706e+00 4.294906398255244007e+00 2.199065327215468457e+01
4.552640250824734558e+00 8.586763478482648537e+00 2.125385912741223393e+01
3.176111505134713742e+00 9.685311344016664492e+00 2.140107106996216757e+01
6.814502693364329566e+00 7.444675413675994946e+00 2.159017772259978685e+01
9.590495454858508850e+00 1.858566483222231502e+00 2.227187392617063821e+01
8.902104817258582159e+00 1.474001599347569136e-01 2.169080162459826866e+01
5.426470902884373615e+00 8.364109218450760608e+00 2.140011814138627955e+01
4.564968208101752190e+00 9.173689896690277124e+00 2.149728416553078603e+01
1.460106226039864064e+00 9.894996109519869520e+00 2.116714309611777267e+01
6.531061188271457318e+00 8.044520783766477834e+00 2.165070699768443774e+01
9.898731137150214465e+00 2.412533684397068612e+00 2.251706474350355336e+01
9.909901475851411234e+00 1.024092594393632760e+00 2.243473123517013690e+01
8.964397891637855054e+00 5.375936632789317215e+00 2.221862184570755261e+01
8.608360103180768164e+00 6.633582123491350124e+00 2.225415407764170439e+01
7.576242808504668247e+00 7.234709176787196050e+00 2.185941090383675700e+01
2.331965756359584141e+00 1.006399771332743853e+01 2.141611400472634585e+01
7.291186212528756094e+00 7.835222467442202188e+00 2.191994130027307364e+01
1.018444133212556579e+01 3.023845093794201411e+00 2.279866977864495325e+01
9.866990917792678673e+00 3.651035209677045312e+00 2.262300980828075936e+01
9.549591798616427596e+00 4.278110590068544994e+00 2.244743082935446310e+01
9.235820563130001659e+00 4.878371544762393874e+00 2.228418232450943393e+01
8.981970857698053479e+00 5.973316465004733011e+00 2.234929104927920207e+01
8.089848341812519550e+00 7.149259182356227704e+00 2.209085639835095805e+01
5.351151722401312760e+00 8.914512945098307384e+00 2.160468317415075745e+01
3.875274460219409800e+00 9.520938034880902734e+00 2.149334287837695356e+01
3.203229561229287814e+00 1.023307589075584367e+01 2.166510024490613873e+01
6.427414719801688214e+00 8.778188387962270411e+00 2.192354470199450134e+01
1.021635427128016360e+01 1.784634407545308887e+00 2.269268114383413248e+01
9.603552649694030663e+00 2.637198441377320290e-01 2.217619950455657118e+01
5.276831677654088892e+00 9.465311410277116977e+00 2.180937190247349733e+01
7.007013174728319527e+00 8.434787097006925194e+00 2.198028496849416058e+01
1.050233443704706104e+01 2.396071279875354065e+00 2.297501492075711838e+01
1.047034978293889829e+01 3.634063974933745556e+00 2.308226614861546366e+01
9.297498060706164580e+00 -4.960174328766957519e-01 2.191686901263921783e+01
1.024173918896937785e+01 4.368360160716378560e-01 2.269785819030820306e+01
9.525155711479204257e+00 5.461966146755630191e+00 2.257781865944270550e+01
8.935496442620646462e+00 7.212499025453138479e+00 2.262536198268872312e+01
8.318906864227436415e+00 7.663907758047315610e+00 2.238321166776903937e+01
9.356002291271067861e+00 6.631844739403016220e+00 2.270950466825711089e+01
9.838903954625402903e+00 4.861638542835010846e+00 2.274129903480336523e+01
3.915844269575583070e+00 1.034235255457294222e+01 2.188932955123545909e+01
4.601369720499826954e+00 9.903849809926759562e+00 2.184946183565074307e+01
5.849779444318301103e+00 9.121798223608212908e+00 2.186654632597565850e+01
7.596527987087361211e+00 8.520928123106575214e+00 2.230955417864647927e+01
1.054817425043186851e+01 1.197335629357130227e+00 2.295599116161338316e+01
1.015270104234123139e+01 4.261308349439251408e+00 2.290604948134390639e+01
1.078800120535206553e+01 3.006814141553745046e+00 2.325848173527772644e+01
1.080326052043095686e+01 1.773058734939256587e+00 2.320291658643901300e+01
9.858382512174163281e+00 -5.128436353640117851e-01 2.237380546518906499e+01
7.988040283765717398e+00 8.161081357691355009e+00 2.238539929554102414e+01
7.044290792302795090e+00 9.053002814434430334e+00 2.229527831538977267e+01
1.108914904887429209e+01 2.384151333883256729e+00 2.348659005911364872e+01
9.814631969229004937e+00 6.045829894577503971e+00 2.287167517897125535e+01
1.012858379837335576e+01 5.445036713773379944e+00 2.303631590328867418e+01
1.044223396517045188e+01 4.844749593092688933e+00 2.320096763857772260e+01
9.691611294169497626e+00 -1.034857787323377298e+00 2.224147330112718990e+01
5.247510828433929575e+00 9.999175302603203974e+00 2.209054759615824892e+01
6.465232629028030864e+00 9.396444912260182747e+00 2.223834856107881564e+01
1.075587247315596606e+01 4.244499540283037220e+00 2.336559171669291501e+01
1.087886250829072310e+01 6.099161439960454345e-01 2.321929093728344284e+01
1.113446281991194553e+01 1.185710228324960092e+00 2.346620141641627200e+01
1.107366670968190547e+01 3.617529659813067511e+00 2.354194698379918904e+01
1.064869329365460260e+01 4.014608702484187552e-02 2.302535695270041671e+01
8.873193750112255529e+00 7.743127937985115672e+00 2.274479890334411536e+01
