9.100552229286803296e+00 1.313526875769941782e+01 4.459043336556052850e+01
9.702089284593986562e+00 1.355293646423479537e+01 4.447664794850011560e+01
6.884301877263246716e+00 1.217901756210144448e+01 4.471992458393126668e+01
5.684361480488735907e+00 1.187986760993541502e+01 4.450977577701627297e+01
1.942788118338136627e+01 1.116362014451997275e+01 3.977376646433755525e+01
1.959696781250877962e+01 1.065036763238127726e+01 3.950971982100687541e+01
1.901872085923284317e+01 1.162685337723160472e+01 4.017469932212029704e+01
1.491633074138919390e+01 1.244025020127254955e+01 4.294902664747534260e+01
1.721727145159245254e+01 1.260633371357119259e+01 4.189763019648319187e+01
1.646198437059852537e+01 1.219367592946533918e+01 4.245644623288530539e+01
1.190237149694148755e+01 1.336427155825158941e+01 4.382932239406765973e+01
1.083131335773899373e+01 1.347350088010276536e+01 4.439379192516701522e+01
1.144882610343586826e+01 1.338449144420232351e+01 4.442483380861276743e+01
1.081658227755390556e+01 1.358434525337989385e+01 4.419381939049856101e+01
1.142940860393466806e+01 1.353224960168327407e+01 4.415819093643492721e+01
1.075863739043307277e+01 1.363853942630482230e+01 4.413101664678017499e+01
9.763670504643828352e+00 1.325028737892404962e+01 4.462142468563856568e+01
1.252662059196434718e+01 1.319483862409429875e+01 4.381180474956823900e+01
1.376708584644112499e+01 1.280569325592079544e+01 4.319510065464659476e+01
1.327493776520582713e+01 1.293287585491327363e+01 4.342208348439744015e+01
1.315082654443508758e+01 1.302541444741604870e+01 4.379428615646529011e+01
1.595499788132041807e+01 1.251868257871309886e+01 4.241073929587310687e+01
6.438819589607200022e+00 1.181602700988525179e+01 4.480310426997976236e+01
7.123687141361085828e+00 1.203744442337910137e+01 4.485752461042574879e+01
5.791390918056330328e+00 1.151438877176128450e+01 4.473428012544965782e+01
1.861096197271196928e+01 1.208919121074397296e+01 4.057486154629205544e+01
1.560098053278522912e+01 1.224962182323485038e+01 4.279999133743956463e+01
1.709305015185596588e+01 1.223738345793879034e+01 4.219998434663772713e+01
1.107542921866070529e+01 1.331959896497231632e+01 4.460479699478720761e+01
1.042618700440881696e+01 1.336520155690116596e+01 4.465228878790876621e+01
1.117822388700780323e+01 1.331237793422334370e+01 4.459726623563348369e+01
9.802818470683151375e+00 1.303356993671248354e+01 4.482867259701145457e+01
1.201597525410049094e+01 1.336315440458418280e+01 4.406283243916711712e+01
1.434132542737863858e+01 1.262311168866153999e+01 4.307215870423335957e+01
1.458822450541423343e+01 1.245677772274241590e+01 4.338436866057170960e+01
1.393168052031357362e+01 1.269480145261969994e+01 4.340322459128607591e+01
1.319684959713783456e+01 1.301337508421330291e+01 4.360877031113115976e+01
1.260235996823291238e+01 1.319410416016620857e+01 4.396750359972836719e+01
9.180036071344066073e+00 1.270226097434222545e+01 4.501811875910382810e+01
1.628507866560036987e+01 1.205910563607970154e+01 4.265104965744794185e+01
8.551912205523722221e+00 1.229701630180062466e+01 4.518736502912928898e+01
7.181585238348541900e+00 1.185395201654152508e+01 4.507963680580404287e+01
5.965772200048578888e+00 1.135037135551563736e+01 4.499165010810229148e+01
1.976391067266931501e+01 1.013732567774209414e+01 3.924579042942441731e+01
1.975886374921229915e+01 1.057675746717693599e+01 3.989690623010887549e+01
1.900576907700134655e+01 1.162885131862098653e+01 4.113413720663695017e+01
1.860538223660790536e+01 1.209003560271088773e+01 4.105452276342920470e+01
1.837976038911551413e+01 1.213216276611134781e+01 4.131824363835797698e+01
1.772004676159858860e+01 1.216875139892148461e+01 4.193348685959330169e+01
1.043638874311594655e+01 1.290165391231827741e+01 4.503746858211859205e+01
1.105947350920428107e+01 1.323325868403743932e+01 4.485124424005725530e+01
1.205569530295857028e+01 1.336948650859592469e+01 4.432257312276431804e+01
1.109307908610020554e+01 1.327425092659116856e+01 4.469555953449361141e+01
1.540877659830876745e+01 1.221043327752242114e+01 4.314788525868915769e+01
1.377551757565437818e+01 1.285585435698738621e+01 4.377675205405127912e+01
1.318871092964894665e+01 1.302505251715202483e+01 4.387217099845981494e+01
1.696867674628104083e+01 1.186865950262566649e+01 4.250215629150797980e+01
7.923913738372331039e+00 1.189185837604107476e+01 4.535666423343486287e+01
6.708650486128535206e+00 1.138831420557218443e+01 4.526916828490156774e+01
1.955520740215085951e+01 1.101102927438931367e+01 4.028046397257691780e+01
1.933405862284886112e+01 1.125845535456923230e+01 4.071799872222869965e+01
1.106446111802527099e+01 1.300133705864713107e+01 4.504713430047829092e+01
1.193015640431163327e+01 1.325956075036465087e+01 4.454209033640906767e+01
1.206540943198685234e+01 1.329561385421327380e+01 4.445583201738160994e+01
1.209747537935293416e+01 1.333594637191193044e+01 4.415687312873622972e+01
1.176027359240039694e+01 1.318325993536801732e+01 4.473884221893148805e+01
9.807986906097257318e+00 1.280192242043833062e+01 4.502778961576416350e+01
1.276533608143437171e+01 1.313970265792067238e+01 4.415555503703005513e+01
1.268183626885177873e+01 1.320676008382659639e+01 4.448681915306289625e+01
1.524445821818948765e+01 1.221883129877235596e+01 4.336551807630557676e+01
1.430699026429401322e+01 1.263710371444940073e+01 4.366924322337601438e+01
8.565736056396483278e+00 1.207205512384249069e+01 4.539085662162275980e+01
9.206778944134532239e+00 1.225203316758002181e+01 4.542509796537964917e+01
1.590094475261859408e+01 1.198072589378592490e+01 4.334665460172436013e+01
7.316457796243242662e+00 1.164015724310243982e+01 4.531290302897864564e+01
1.990110223828173019e+01 1.040544909032846022e+01 4.046676991364661546e+01
1.855121284669954207e+01 1.171280339463030984e+01 4.166173762765861710e+01
1.822206157353089750e+01 1.173102316174290749e+01 4.196935107749968097e+01
1.755359960409994713e+01 1.167698822731805031e+01 4.233655691438631408e+01
1.109206450789242382e+01 1.285686110133742943e+01 4.528393043725472467e+01
1.169348161413110354e+01 1.310116669451670290e+01 4.505681258571238601e+01
9.834515130463678645e+00 1.265733600235265577e+01 4.525762751034778830e+01
9.847897563904547624e+00 1.243203304542521792e+01 4.545946882978172709e+01
1.343321990092719176e+01 1.294345045075948342e+01 4.415423544730159477e+01
1.324864866683827458e+01 1.302867322966895536e+01 4.439583432954320585e+01
1.483814931321096431e+01 1.241844579190185627e+01 4.356178166979795918e+01
1.535734313159943554e+01 1.217789422450947967e+01 4.336227584219322750e+01
1.435761472767669211e+01 1.260101069737078205e+01 4.377586333938190677e+01
8.676041701003981643e+00 1.188986161022261889e+01 4.560915609768854040e+01
1.643484797199531400e+01 1.192469731782489895e+01 4.292444173284471987e+01
7.558630600392982402e+00 1.149140922191844538e+01 4.557895013747072710e+01
8.309362943377186284e+00 1.148900703936075374e+01 4.583144381139096168e+01
7.193175130465734313e+00 1.109077865980985322e+01 4.580162520437153972e+01
2.008740979150757866e+01 9.990346992739258525e+00 4.001995180196557556e+01
1.993143847862188878e+01 9.623732481582422338e+00 3.898158830222809001e+01
2.017387495977520118e+01 9.513886245057220137e+00 3.956226073769119722e+01
1.968245191788078330e+01 1.085853736280563453e+01 4.078685316714800990e+01
1.940812161516360135e+01 1.116701234312926871e+01 4.121386165574133287e+01
1.049010076745499731e+01 1.261233675647631891e+01 4.549408158907380795e+01
1.208383266054185157e+01 1.324876609756620383e+01 4.453079857541441555e+01
1.309507351185859569e+01 1.300122398457704875e+01 4.482541185153411334e+01
1.242754932707151383e+01 1.309225905785509525e+01 4.478212159835452155e+01
1.327023922867111771e+01 1.301253188800481020e+01 4.449905308732117959e+01
1.536958240062889658e+01 1.219961878177672965e+01 4.345423485123816931e+01
1.427266555328353448e+01 1.270327123442230999e+01 4.396422429109023966e+01
1.410169436819469269e+01 1.274702208715064167e+01 4.415291388291534957e+01
1.337770141718976546e+01 1.298812551030710516e+01 4.437511847627938977e+01
1.407383667422065621e+01 1.276939305848366502e+01 4.426334139899191200e+01
9.958458015618987247e+00 1.224992695581038404e+01 4.567738687896904537e+01
9.427325482962171321e+00 1.188787030895707453e+01 4.586141471315833940e+01
7.751177140808560573e+00 1.128985966558896870e+01 4.581652157148409543e+01
1.654792176969225537e+01 1.171016580328320700e+01 4.317701811003286849e+01
1.740346730829710609e+01 1.151916271572016370e+01 4.267016731602761581e+01
1.926880984065769198e+01 1.099968360712832727e+01 4.164926554844048212e+01
1.872711947115384845e+01 1.129348345040786583e+01 4.200520195113070088e+01
1.813781619375183851e+01 1.148522907966533957e+01 4.217087717991007167e+01
1.828482356847171530e+01 1.123161282004392092e+01 4.242162391203181215e+01
1.060129803914086821e+01 1.215562690922094902e+01 4.588058678600015128e+01
1.113369898886245757e+01 1.251824453142016402e+01 4.569683888261007354e+01
1.107013292318273123e+01 1.268248855598200642e+01 4.549650817062173758e+01
1.164998487786962045e+01 1.275261865974106534e+01 4.549932849306870253e+01
1.227270411832705754e+01 1.304770412024921100e+01 4.500142895175011404e+01
1.222931041905365213e+01 1.282268520950329460e+01 4.550284274652518945e+01
1.322191455329774357e+01 1.305857051567602412e+01 4.467791325414486892e+01
1.307323239959624672e+01 1.297381366551210391e+01 4.492920454970960265e+01
1.493935365809007010e+01 1.234630769860371480e+01 4.377497655471314886e+01
1.476957229725544174e+01 1.255076455323309048e+01 4.415159238389209406e+01
1.385910247391961292e+01 1.281815240027037284e+01 4.451129508449395900e+01
8.868311177748436691e+00 1.168842668193654433e+01 4.584641251314256749e+01
1.001429353913897913e+01 1.202174425323538287e+01 4.587097612138453684e+01
9.299580184070434186e+00 1.147892313673285436e+01 4.616393669449620774e+01
9.997952078217162253e+00 1.181050934803168317e+01 4.602342476429947027e+01
7.852482260401238534e+00 1.108388741717506676e+01 4.602313942776230959e+01
1.719275020648096941e+01 1.144005313752983710e+01 4.300765243583972364e+01
2.004349464019207616e+01 1.023391887787312271e+01 4.103659011465018125e+01
1.118950455022219970e+01 1.228978377961767876e+01 4.589028089319424453e+01
1.177811605249527815e+01 1.242403358171581829e+01 4.590006645717763689e+01
1.113979720069410106e+01 1.165570915978729793e+01 4.634763345830336334e+01
1.145899117140383972e+01 1.203991026034484513e+01 4.612374750180239147e+01
1.228985892462518237e+01 1.300751374244596725e+01 4.510519028577650857e+01
1.225103394423472736e+01 1.299687643871145326e+01 4.528154970037396509e+01
1.238350841509138078e+01 1.303747692506611244e+01 4.499082921563146442e+01
1.552173551079251546e+01 1.209129283131652777e+01 4.377408583876006531e+01
1.540857039736883927e+01 1.222765835607679286e+01 4.402519582119651176e+01
1.444821828628846383e+01 1.262369017093301871e+01 4.452353943203106468e+01
1.376275514014239221e+01 1.291016860718440640e+01 4.486870313695307289e+01
8.511745070627185328e+00 1.107699942189692166e+01 4.624464028966371387e+01
9.828573506612432453e+00 1.126552037595057421e+01 4.642672959622929341e+01
7.228276943475624883e+00 1.068223259843734141e+01 4.617796306443150200e+01
1.610394548361940537e+01 1.183629467249375367e+01 4.377319662068141781e+01
1.629353852759090771e+01 1.178094486290235032e+01 4.355953424175919508e+01
1.980974333337353244e+01 1.070598870681380710e+01 4.129344684302053281e+01
1.913576263593638416e+01 1.075668710813877915e+01 4.214195151330704192e+01
1.784242191807859967e+01 1.116972633576333429e+01 4.283815270015985277e+01
1.056849529848359204e+01 1.173316155288409313e+01 4.618541675428763682e+01
1.229343721397292555e+01 1.265851390921172559e+01 4.570133660249017993e+01
1.288572144072274028e+01 1.291394176660949356e+01 4.515352645430679246e+01
1.540736684242850885e+01 1.222185397566281573e+01 4.416221902501276730e+01
1.604762495914909692e+01 1.190441058541282793e+01 4.389873546964272322e+01
1.503667924374436993e+01 1.242944513119372374e+01 4.453576747488222054e+01
1.726218074911154687e+01 1.137541248621590739e+01 4.330504501833339503e+01
1.438384206947217514e+01 1.268508331191864613e+01 4.476196643068768566e+01
9.171869853953978691e+00 1.107010062571826658e+01 4.646643725724784701e+01
8.535365913233643909e+00 1.080453776881648587e+01 4.649567900446034940e+01
7.899760672886424473e+00 1.053935232646718489e+01 4.652490731534401647e+01
1.668588784718928508e+01 1.158126612358473118e+01 4.377230636860012680e+01
1.182755009806177959e+01 1.176474598148328710e+01 4.630364652861793218e+01
1.048390463537334938e+01 1.146053014522920677e+01 4.638716188208880453e+01
1.280807151297589108e+01 1.289268378240523028e+01 4.550608353436771836e+01
1.247574585141461156e+01 1.247365166529528224e+01 4.588511656391456484e+01
1.249121778163654461e+01 1.220339899524303462e+01 4.605816043687790540e+01
1.251581597394174494e+01 1.187386270903896879e+01 4.625979222706296667e+01
1.320376713201431329e+01 1.198293130040476129e+01 4.621622225432551545e+01
1.348118320311978025e+01 1.282043371757344907e+01 4.520182656501384599e+01
1.332474153246082516e+01 1.282082102252428690e+01 4.544853282765797076e+01
1.562537038957456481e+01 1.223512439009072850e+01 4.454799869156160241e+01
1.604531040989936130e+01 1.189285433602525366e+01 4.417284617464115115e+01
1.500453928804078707e+01 1.246013343462015754e+01 4.465507327048786124e+01
1.439765371049755238e+01 1.266599045866691320e+01 4.489617427007492978e+01
2.012033865399998334e+01 1.012637442220166584e+01 4.146521723539979121e+01
1.967532479003931201e+01 1.046281565193678098e+01 4.178601580810394722e+01
1.840958719898153717e+01 1.085316969825355926e+01 4.265180464681073147e+01
1.897717186356641506e+01 1.053617355668452760e+01 4.246519163032262156e+01
1.729995080817336728e+01 1.117886370458249345e+01 4.358925461104718124e+01
1.171348196175751610e+01 1.155144727490292489e+01 4.649207053491101505e+01
1.116707368870042316e+01 1.131834558803206647e+01 4.672330157839436993e+01
1.052037263931990552e+01 1.101059867782384671e+01 4.688828127010707902e+01
1.317241452774251798e+01 1.252320117599901295e+01 4.587047632436610201e+01
1.333716613447434973e+01 1.276597553313758837e+01 4.553591974308367440e+01
1.503219733403318159e+01 1.242194991243179381e+01 4.492362423833763074e+01
1.791912535313567645e+01 1.077677394746829087e+01 4.340633243954047060e+01
1.421763089934956703e+01 1.277173971895028437e+01 4.507888540022636192e+01
1.407707333052047893e+01 1.272685971843559649e+01 4.525016148881721989e+01
9.846244136430868821e+00 1.104034351929273683e+01 4.667739059785400713e+01
1.954066466436547955e+01 1.021954739908437304e+01 4.227879081773736658e+01
1.819022502812179098e+01 1.077217616652595567e+01 4.303084238349498492e+01
1.668353295100850175e+01 1.156368581679099705e+01 4.418347861686327605e+01
1.228710158948535103e+01 1.144719555134178357e+01 4.663655386256264990e+01
1.286104327885908560e+01 1.134288246434746128e+01 4.678120438216430443e+01
1.333852043820544964e+01 1.273272503616879270e+01 4.568113773949865219e+01
1.342937248335932132e+01 1.280626830947115380e+01 4.543687565130003492e+01
1.566726361330195694e+01 1.217771143451868632e+01 4.495109551716539897e+01
1.405097505828652871e+01 1.271980999701816550e+01 4.536763708571289300e+01
9.391514410572888494e+00 1.071575189029750952e+01 4.693414711172481191e+01
8.436604384004871449e+00 1.031773515424986876e+01 4.697763923259712016e+01
1.994085370557508341e+01 9.802299408751091292e+00 4.212223848128081016e+01
1.903829446427412719e+01 1.029720196578252711e+01 4.275132167952467199e+01
1.853639014384946293e+01 1.037479131350588091e+01 4.322345416301508436e+01
1.619065747355140061e+01 1.190178183584814597e+01 4.443018180965357544e+01
1.732198254641672008e+01 1.123432376916983166e+01 4.419411933420814620e+01
1.174988598899652992e+01 1.110152825014530187e+01 4.699302127967202125e+01
1.353643035722689980e+01 1.227786585202893299e+01 4.603605157271717019e+01
1.344220863165534396e+01 1.137609347123954251e+01 4.667316804609512815e+01
1.386902949223305193e+01 1.257274803559762155e+01 4.585634422516623232e+01
1.467217022900764256e+01 1.263340920954793667e+01 4.529843506066475101e+01
1.521509531996176356e+01 1.240029505117007602e+01 4.518914838240965537e+01
1.772430922390376651e+01 1.094784834139902863e+01 4.387063803805621376e+01
1.348969090197983256e+01 1.272944857486936066e+01 4.554452130289907785e+01
1.417123749415411638e+01 1.256623168381059941e+01 4.558295125297652817e+01
1.442403525426187549e+01 1.246175203765455386e+01 4.579387549841911920e+01
1.444189262999853085e+01 1.227247540395469194e+01 4.595517642171869710e+01
1.380755999033538295e+01 1.197934753794802809e+01 4.616125889569854479e+01
7.850218242984099426e+00 1.029579186947516689e+01 4.676600293943112518e+01
9.023518341849307234e+00 1.033969849982018729e+01 4.718947163226659569e+01
1.675613211196560215e+01 1.156826428337564394e+01 4.431224985058221222e+01
1.230590070044123863e+01 1.122229840281513447e+01 4.688693432380069481e+01
1.196786557101477833e+01 1.096895761314092788e+01 4.729253540486335794e+01
1.013895783752530377e+01 1.056814982568800509e+01 4.730063933042804791e+01
1.119434931290749269e+01 1.098085721622131672e+01 4.709914804937992017e+01
1.615614856910661246e+01 1.191369540162744123e+01 4.457205418997095592e+01
1.575901319164594128e+01 1.216675434583095239e+01 4.508204540123700355e+01
1.524135819521518087e+01 1.235321875133143443e+01 4.531072067434078576e+01
1.813086477803300056e+01 1.066135330160394545e+01 4.354709963874132939e+01
1.441132481512382668e+01 1.197576402475320734e+01 4.610724158357500357e+01
1.390497217467398805e+01 1.171250797924390952e+01 4.633737085042638171e+01
1.501478477946360002e+01 1.197218244918252417e+01 4.605420359783235540e+01
1.460496318615525269e+01 1.144253889415754877e+01 4.646034298122102513e+01
1.402366327298528859e+01 1.140932095392679990e+01 4.656580578242499513e+01
1.351983544685938021e+01 1.125498160613655507e+01 4.689774377959047769e+01
1.066654772089597358e+01 1.077446188077099087e+01 4.719988800265910811e+01
7.685414840975796302e+00 9.875249872067856316e+00 4.712060078042477329e+01
1.986759496251410440e+01 9.538987055162548856e+00 4.244830677787599171e+01
1.908910655512704224e+01 9.869046173454258053e+00 4.302156308146693675e+01
1.668744548406507633e+01 1.159195994185636280e+01 4.459612622920335667e+01
1.536460918571911982e+01 1.135081563051126530e+01 4.630743582452609530e+01
1.556976285662652693e+01 1.161552363644404906e+01 4.610269037694118310e+01
1.274126001501976191e+01 1.095706164247759240e+01 4.748590907239746173e+01
1.630226696320233515e+01 1.193350046148316856e+01 4.497856536332964339e+01
1.485317906448675629e+01 1.240292128255778970e+01 4.562140207623600929e+01
1.497904003364656766e+01 1.237278008528874018e+01 4.562849893993204375e+01
1.497993888807637575e+01 1.235057618486435871e+01 4.572935273004689805e+01
1.581144808933688140e+01 1.207258587571926434e+01 4.532301909225219561e+01
1.553670076334594441e+01 1.223923095502033753e+01 4.565994404712267141e+01
1.788841587242256992e+01 1.079559617433153385e+01 4.406978019282091452e+01
1.417840503424350196e+01 1.116710987579206993e+01 4.701438608805955255e+01
9.610975790796002727e+00 1.036168280035243860e+01 4.740150716175280365e+01
1.127304068927551128e+01 1.071108585893299647e+01 4.753215082400903668e+01
8.608016494314814082e+00 9.771983781561456084e+00 4.759126847038506014e+01
1.509581313820446979e+01 1.126428688351707486e+01 4.652561087276605889e+01
1.721893821346002440e+01 1.127012486488529497e+01 4.462020146219370531e+01
1.346034093790619401e+01 1.106216035708679968e+01 4.724964807941891820e+01
1.624381768238533041e+01 1.187543702648283173e+01 4.550371035373409967e+01
1.573441183018981349e+01 1.176061887780041815e+01 4.593195203533142035e+01
1.638078502327494590e+01 1.179232556847013669e+01 4.533525402433413376e+01
1.845826317357287039e+01 1.035692225553050605e+01 4.394541872676386873e+01
1.774963944579668862e+01 1.094882650030542415e+01 4.464423943209089884e+01
1.488232156715698551e+01 1.112659928271105159e+01 4.680561700280246384e+01
1.019137786994107131e+01 1.038820683426932057e+01 4.758949136307913363e+01
1.077156776358158119e+01 1.041472385120429855e+01 4.777740817579388732e+01
9.109265187228407612e+00 1.006669754307608500e+01 4.749641944093599477e+01
8.106799652323692484e+00 9.477288134457127811e+00 4.768613175198381526e+01
1.678446148626403200e+01 1.160544239022122426e+01 4.486748159749908638e+01
1.612439417306086753e+01 1.125907586284894890e+01 4.615113671847479537e+01
1.558658234906333995e+01 1.108607018128809329e+01 4.658750949588156942e+01
1.204558356486128012e+01 1.069880831831726908e+01 4.772586778036151145e+01
1.599537358230876016e+01 1.189419382673143311e+01 4.573478283422947044e+01
1.817283365002007045e+01 1.060532109509574994e+01 4.437000435373359863e+01
9.824836959709520201e+00 1.002442347637785858e+01 4.789601503875841360e+01
8.750559700418529374e+00 9.547286252869492174e+00 4.792078415163472727e+01
8.497245112432780800e+00 9.067422071153488972e+00 4.820416113790219725e+01
1.902517754041158327e+01 9.918061020117074023e+00 4.382098570976228302e+01
1.859995468407079144e+01 1.026173069032771323e+01 4.409557427111879946e+01
1.695036266632848765e+01 1.151195220893242244e+01 4.534778048780509607e+01
1.677261027014035122e+01 1.158156807439089420e+01 4.499187369244162227e+01
1.726770051900863479e+01 1.127668015550759861e+01 4.475581491493190356e+01
1.692221603381348771e+01 1.146963176425370001e+01 4.499607123674910980e+01
1.755659451214603095e+01 1.102675253131311806e+01 4.518982351248259022e+01
1.623899053945558890e+01 1.091813951625282719e+01 4.639704368175974736e+01
1.754236502949452969e+01 1.100572558266122236e+01 4.501333636601470545e+01
1.641505005840281228e+01 1.178734394944340558e+01 4.546587356144257797e+01
1.645424395233703763e+01 1.154899911502971932e+01 4.580962378814206915e+01
1.821358794400499548e+01 1.053262219279892875e+01 4.451736826749360176e+01
1.135175120945175031e+01 1.044124080081248529e+01 4.796532871523159969e+01
7.443523236311573754e+00 9.411857153220333672e+00 4.742008550779848974e+01
7.726600534795785791e+00 9.093633869750515686e+00 4.776514441025597790e+01
9.394630224876191704e+00 9.617320998582970404e+00 4.815555374780844744e+01
1.705305763138436603e+01 1.116759101519796715e+01 4.567491231201475443e+01
1.730129188399569884e+01 1.114889542297155245e+01 4.544699272833267401e+01
1.672750493163623275e+01 1.100100205507144402e+01 4.601962767856758063e+01
1.688879827405888534e+01 1.075051440184328477e+01 4.621788149390913247e+01
1.732883335008702730e+01 1.074303561944216234e+01 4.589472749632635384e+01
1.689227280731739000e+01 1.114600418583358099e+01 4.584963218008122965e+01
1.816202008124029987e+01 1.054143628501021901e+01 4.503046022686900329e+01
1.765092500155700250e+01 1.078635321212795262e+01 4.554530103617484116e+01
1.069524360952987685e+01 1.006434018513174244e+01 4.817775176507234391e+01
9.462782955313846500e+00 9.171851533618948338e+00 4.855656936872249929e+01
1.003857637488463261e+01 9.687346991494823811e+00 4.839028237987575665e+01
1.744405187196087326e+01 1.044405176430813142e+01 4.608905232439214927e+01
8.247293526112191131e+00 8.546997608336184271e+00 4.845602873348769180e+01
1.782567609939938791e+01 1.034437161046682085e+01 4.578840790302805885e+01
1.779212372547287657e+01 1.032405415026863871e+01 4.593961326211761786e+01
1.814280180463598313e+01 1.030577435117730900e+01 4.542282397397299576e+01
1.798593369940223141e+01 1.036581765080549644e+01 4.561368252265256018e+01
8.887986697685771986e+00 8.657240739167161081e+00 4.872260285803703539e+01
7.606731048043482879e+00 8.436782748779473096e+00 4.818951696852276712e+01
1.777184193465329898e+01 1.026234072640107264e+01 4.601220190288168510e+01
1.863208323344898076e+01 9.825395563500041618e+00 4.529992422054721857e+01
1.831816921816120924e+01 9.945621757318338751e+00 4.568153215676721857e+01
1.799652721513003684e+01 1.013757025656705402e+01 4.595933364243182950e+01
1.842284183482577831e+01 9.723017472017772889e+00 4.587299256412454440e+01
7.954365764255533655e+00 8.119717067847233238e+00 4.852268458739169432e+01
8.448325868519221515e+00 8.015863490447735273e+00 4.882266059660578605e+01
1.429711030619003509e+01 1.058997262346893642e+01 4.700274221773746319e+01
1.387707646956020646e+01 1.066017631984902891e+01 4.712725116105810486e+01
1.441582740690751585e+01 1.001283594870887583e+01 4.699114000581790407e+01
1.474973796484382049e+01 1.048167815509108891e+01 4.687173076222666168e+01
1.281828679535322735e+01 1.035024262516228788e+01 4.747973354386819977e+01
1.357561533335366555e+01 1.015293886615922503e+01 4.724042498550161184e+01
1.488463411511864898e+01 9.985671460082645723e+00 4.685256360162982503e+01
1.523577590507528612e+01 1.053565025394692789e+01 4.672161426529697792e+01
1.572243553885039269e+01 1.039996185552107022e+01 4.657786136237564278e+01
1.538623421433718086e+01 9.938371242484802082e+00 4.670300498104104747e+01
1.401258863734627269e+01 9.336473366250460870e+00 4.714140084164848332e+01
1.375411416275451693e+01 9.676909365565277810e+00 4.720601872331383930e+01
1.453294854596622798e+01 9.435702332215493371e+00 4.697960580634374139e+01
1.239959158426424679e+01 1.010304715092696703e+01 4.762709023753421178e+01
1.289536837738702779e+01 9.743951502416937416e+00 4.747355392030863186e+01
1.327354691624333682e+01 9.645115451265668938e+00 4.735389685584432584e+01
1.585643894563491507e+01 9.714062812585462225e+00 4.656814043105137557e+01
1.658941443962314821e+01 1.017647141433465130e+01 4.633044105958726533e+01
1.629319860205085035e+01 9.602487331158579664e+00 4.644148124244222942e+01
1.699631513446732711e+01 9.582912503449675157e+00 4.625859579609402061e+01
1.526345330383402477e+01 9.232004552048193702e+00 4.677411328070593299e+01
1.599661316064312011e+01 9.028126573528600929e+00 4.655825729909425803e+01
1.649638267809764614e+01 9.305562835498948360e+00 4.640740292225662955e+01
1.749659723918311727e+01 9.860360757575248769e+00 4.610902056220375300e+01
1.568732260020486713e+01 8.435550628037397303e+00 4.667927274222790857e+01
1.459167167101415075e+01 8.741727303605987487e+00 4.699224896328669843e+01
1.512160889072001524e+01 8.491019059753345033e+00 4.685118782723594677e+01
1.432449493939109786e+01 8.889972148681605901e+00 4.706489703109909328e+01
1.380358238080366817e+01 8.790710505474551795e+00 4.722742633156268965e+01
1.243155628795192591e+01 9.572793653263703462e+00 4.763350751532558292e+01
1.349189063045686332e+01 9.237181452804467341e+00 4.730416694891096085e+01
1.189151307714666572e+01 1.000708273728883491e+01 4.779943255812299441e+01
1.768014209314356577e+01 9.541918803960655282e+00 4.607684892447628044e+01
1.464986090434331878e+01 8.047752781825852963e+00 4.700492954370484000e+01
1.537908991123295799e+01 7.843414385299751324e+00 4.680015790430111622e+01
1.411815933959275959e+01 8.344240780476061659e+00 4.715070868838636642e+01
1.297093848352525569e+01 9.137841303581954122e+00 4.746736763424230077e+01
1.141874098625658540e+01 9.807335798360446333e+00 4.795747059796843104e+01
1.191425925469079594e+01 9.451110257271039927e+00 4.780424507569423298e+01
1.102354301304073303e+01 9.480533954132656760e+00 4.808740406425597058e+01
1.226104982824436718e+01 8.838444112035809042e+00 4.770467208975364315e+01
1.310042105541043789e+01 8.530176612085885068e+00 4.745296913865777810e+01
1.054347545742998093e+01 9.304607437863738895e+00 4.824072111986808409e+01
1.104821114959155182e+01 8.922055859813712075e+00 4.809122947913861879e+01
1.148580449808442339e+01 9.173434367393607403e+00 4.794960995073302712e+01
1.358712249368201164e+01 8.309215975350879191e+00 4.731397661313557990e+01
1.261591639482611704e+01 8.221526100500669898e+00 4.761925480470139149e+01
1.203486078922636260e+01 8.081591992985337924e+00 4.780888992100147306e+01
1.155224923422836270e+01 8.539533524585058544e+00 4.794174866344867070e+01
1.252157891611759055e+01 7.623330638512123336e+00 4.767593168979867357e+01
1.323305053746935123e+01 7.922633101984516202e+00 4.743857386980851487e+01
1.176084490736285382e+01 7.914613759146511107e+00 4.789867066720336197e+01
1.095776125748015772e+01 8.047422293952164907e+00 4.813143772218651861e+01
1.300662827178680914e+01 7.164528380530063245e+00 4.754280855591812838e+01
1.060746569588535948e+01 8.673080691261628061e+00 4.823020420638317773e+01
1.014686090504799587e+01 8.976860438216098359e+00 4.836729215675347149e+01
1.390944731563635273e+01 7.798509492768012308e+00 4.723682537588178576e+01
1.470643954411069920e+01 7.353778905954005296e+00 4.701764953100921218e+01
1.420330569046123337e+01 7.303212233973565226e+00 4.717015116454132340e+01
1.197239771396185581e+01 7.289695025319583799e+00 4.785558922053262876e+01
1.137120816370083887e+01 7.466224425704075074e+00 4.802668203053134732e+01
1.254545239038999505e+01 6.991907135616267865e+00 4.769019564248186072e+01
1.336150049223321723e+01 7.314435427828399838e+00 4.742416333808392181e+01
9.763294422120697647e+00 8.633405436709187697e+00 4.847807501565369392e+01
1.507123299594768540e+01 7.251611093249338502e+00 4.691614592751038515e+01
1.137790725796458879e+01 6.797229673878907974e+00 4.804533074974300888e+01
1.086911404881394816e+01 7.176027142716597140e+00 4.818327195409768393e+01
1.025528745377170203e+01 8.266180017836227023e+00 4.834429541605462077e+01
1.218303714088890821e+01 6.664777827838372914e+00 4.781250424189628490e+01
1.370018256444246418e+01 7.252645149266464308e+00 4.732315689195461061e+01
9.379737406212244721e+00 8.289946348835970369e+00 4.858887341043023156e+01
9.871999413817217572e+00 7.922372444649477430e+00 4.845503723815023989e+01
1.476344813115211529e+01 6.659804584171363118e+00 4.703041030395471012e+01
1.036296026018459848e+01 7.555046866308484432e+00 4.832128685234584253e+01
1.008994310490991175e+01 7.082499237922682767e+00 4.836893286332841058e+01
1.038667675087716269e+01 6.590470868407457772e+00 4.827756594396396395e+01
9.774392944958252727e+00 7.510056269025995768e+00 4.847168291694925557e+01
9.185626896591895019e+00 7.465051227419784219e+00 4.862213399790444868e+01
1.090123311187583965e+01 6.610730143493651845e+00 4.815372653842224082e+01
1.349093611152176209e+01 6.705972367701508396e+00 4.740974734939644009e+01
1.294183712987572399e+01 6.372836965578076551e+00 4.758949358801282159e+01
1.361661427400192537e+01 6.115998849864690889e+00 4.739575507094064477e+01
1.412739420116478684e+01 6.682881633600963767e+00 4.721977998142187261e+01
1.288452515705896850e+01 5.671963411820738266e+00 4.763546958466746162e+01
1.239251842370146051e+01 6.039565657204355453e+00 4.776939525827881283e+01
1.188576008936366435e+01 6.418434627207910914e+00 4.790738177931372377e+01
1.125477263260785143e+01 6.078819751975044205e+00 4.804726586786275533e+01
1.068640997302129136e+01 6.098444175849007109e+00 4.818619553265802580e+01
1.446488428759827727e+01 6.085681896530983792e+00 4.714251082972982942e+01
1.416633713820435503e+01 5.511558645509649246e+00 4.725505448439052003e+01
1.182352790834815437e+01 6.059194459772964336e+00 4.790834118803770991e+01
1.214400557719039675e+01 5.412448860288613162e+00 4.779907280810216008e+01
1.337618242103519783e+01 5.304674760634801700e+00 4.750164200177464124e+01
1.374225730106638821e+01 5.526430708489819210e+00 4.738177474895388031e+01
1.156582639713466243e+01 5.591263954208635312e+00 4.794801131747836109e+01
1.072131105112389449e+01 5.461373677712927588e+00 4.814651651843053060e+01
1.495144282502623412e+01 5.623801301505141126e+00 4.704064157973058258e+01
1.279900800271647832e+01 5.231851623427394848e+00 4.763520211783952618e+01
1.255300230150274743e+01 4.835901438757994164e+00 4.767510677677436348e+01
1.386780208311430584e+01 4.937433744048670192e+00 4.736781043352234377e+01
1.321038825823093710e+01 4.886666977824194902e+00 4.752145461259350157e+01
1.189547273479425726e+01 4.785124337006074313e+00 4.782879842361346334e+01
1.512833626690360234e+01 6.313394985597704512e+00 4.695543059673411790e+01
1.440962176787422777e+01 5.280617694242529581e+00 4.720374131445233701e+01
1.130819840222198280e+01 5.123332785158615010e+00 4.798770254734577634e+01
-8.661673612938251665e+00 -2.345936904779776455e+00 2.139978373947023726e+01
-9.096615969912322797e+00 -1.944151629728969821e+00 2.187093133791107391e+01
-8.886564656789364136e+00 -1.809125231927464883e+00 2.127778830658987630e+01
-8.777739707869830710e+00 -2.522485630150418157e+00 2.184070851891512532e+01
-8.976751030108523821e+00 -2.548664715019258953e+00 2.228956679763782844e+01
-8.526111347939467677e+00 -2.353716417440849806e+00 2.114763110201727159e+01
-9.306738466605411375e+00 -2.079238325241998808e+00 2.246423997569396036e+01
-8.436912264941108575e+00 -2.882591388890481721e+00 2.152170681818633113e+01
-8.537678296819382950e+00 -1.723594856775103157e+00 2.087708706750241561e+01
-8.646625253737390437e+00 -3.018342119600838203e+00 2.211481844425503240e+01
-8.002936268843956924e+00 -2.225509311699298109e+00 2.054669202802732642e+01
-9.112994453201212153e+00 -2.572880290684294469e+00 2.264963189436195989e+01
-8.165833142269377731e+00 -2.898247377463155416e+00 2.101753679975449884e+01
-8.919394865137590500e+00 -3.066234086929654712e+00 2.283488075975100173e+01
-9.512755026812326875e+00 -2.235572197268019590e+00 2.319280230728868375e+01
-8.212034243349597418e+00 -3.419598779439429137e+00 2.164369099427737808e+01
-7.816939187465028915e+00 -2.813018056745610451e+00 2.061688038457086591e+01
-9.322785293128859507e+00 -2.946236676107358399e+00 2.368239085787462628e+01
-8.564743445449748194e+00 -3.443811891231588262e+00 2.247941842761155939e+01
-8.316872375679110974e+00 -3.487530631114211133e+00 2.194026564764364906e+01
-7.506080632167190458e+00 -2.678749032308975320e+00 2.035365542371171443e+01
-7.847682770618893855e+00 -2.158106320551981039e+00 2.041511527482511212e+01
-8.927472954964507323e+00 -3.499968394415232442e+00 2.344428965384831898e+01
-7.805000495645273872e+00 -3.443717344550687454e+00 2.088724032020683552e+01
-9.718624912778814462e+00 -2.391808073342656549e+00 2.392081115945813252e+01
-8.725586195913349385e+00 -3.560169634131978622e+00 2.302032865048315458e+01
-7.987103010955033611e+00 -3.956773771504992876e+00 2.176570171298391543e+01
-7.715858277333194515e+00 -3.972404001743004454e+00 2.126113496754057053e+01
-7.164567150036241117e+00 -3.199312629967800969e+00 2.029221012508949684e+01
-7.630908932195047178e+00 -3.400670627153004943e+00 2.068707953408745936e+01
-7.296891243760561530e+00 -2.115295717352833282e+00 2.023680280599459635e+01
-9.118824007107157570e+00 -3.528041498599661985e+00 2.400108967805404347e+01
-8.259403086118412673e+00 -4.005610257529088614e+00 2.248587913536294280e+01
-7.003603619020061899e+00 -2.686646171695700414e+00 2.019519297695223514e+01
-9.986179021548013068e+00 -1.753546218773813115e+00 2.376848394676865084e+01
-9.514334515776528889e+00 -2.974114099796650645e+00 2.423945601701529284e+01
-7.444984528571464644e+00 -3.988012134686086618e+00 2.075723705584538692e+01
-8.531662132595373649e+00 -4.054429784076341470e+00 2.320588559185551958e+01
-8.723217275943747850e+00 -4.082300819048975349e+00 2.376292102383470350e+01
-9.879360519745343794e+00 -2.487250179231344838e+00 2.445890170090034843e+01
-7.610069868571122775e+00 -4.604951830494580456e+00 2.168064775510447717e+01
-6.509477910290992320e+00 -2.873781338086048187e+00 2.005545628699251282e+01
-6.823190376118859035e+00 -3.719703472266247424e+00 2.023078785615614095e+01
-6.523537496140502157e+00 -2.191035365063861207e+00 1.999860862210458379e+01
-1.003166159936972335e+01 -1.907260732240894985e+00 2.428221779903438104e+01
-8.914777430901660082e+00 -4.110173280217267688e+00 2.431994603157850676e+01
-9.675126233742636472e+00 -3.069664255902906369e+00 2.477776140575517516e+01
-8.148305032133942305e+00 -4.652628814957907366e+00 2.307188511174023660e+01
-7.785380328499917013e+00 -4.587396309542613793e+00 2.211189412925642017e+01
-7.248644162109815881e+00 -4.625923288933282862e+00 2.100842635375103029e+01
-6.495405735214105469e+00 -3.557146424913644633e+00 2.011235283249109784e+01
-6.963492997808161888e+00 -4.114340787037527036e+00 2.046347657812529519e+01
-9.310181902800506393e+00 -3.556116675526828086e+00 2.455788406841514515e+01
-7.926404230887629687e+00 -4.704940639473673691e+00 2.260655657517238737e+01
-5.942987945879689704e+00 -3.675422503081103631e+00 2.002182929170046677e+01
-8.331710516744298189e+00 -4.629167697640779622e+00 2.361976434088139953e+01
-8.523382828513435427e+00 -4.656674723543520855e+00 2.417647619360987932e+01
-9.471022222373399302e+00 -3.651589823108046140e+00 2.509615067503673203e+01
-1.004031721773836949e+01 -2.582846720449865519e+00 2.499771240103540748e+01
-7.233185000019012989e+00 -5.252929839404672840e+00 2.159562729144096593e+01
-7.146452485873583171e+00 -4.532489237262522508e+00 2.076379104803368492e+01
-7.583733409645730283e+00 -5.217829350126437227e+00 2.245795272497196748e+01
-6.481326816678479652e+00 -4.240861419270289367e+00 2.016927623037675943e+01
-5.677323966350733109e+00 -3.222456493481819173e+00 1.993391945322283831e+01
-9.106087125142328986e+00 -4.138009749869675957e+00 2.487622086371214891e+01
-9.835921488880245533e+00 -3.165228014324328321e+00 2.531605935627261772e+01
-7.764957530845623346e+00 -5.250841116354974858e+00 2.293788786736938690e+01
-5.964076140048629959e+00 -2.651212613730459022e+00 1.993654732849902800e+01
-8.715060764321213682e+00 -4.684181263848870458e+00 2.473317996060302448e+01
-1.020117839574848162e+01 -2.678402397629768394e+00 2.553618397526948414e+01
-7.948453369328224660e+00 -5.227112101360945395e+00 2.348556410741716860e+01
-7.119076734868754031e+00 -5.874801926538739671e+00 2.215728722369000891e+01
-7.052401699327071505e+00 -5.263531005755039516e+00 2.125948374306680932e+01
-6.848080674288422820e+00 -5.076704324252714784e+00 2.077034107102240057e+01
-6.404572105286585604e+00 -4.882641437591900946e+00 2.037407514510900697e+01
-5.390574236531440633e+00 -3.793714058199493255e+00 1.993129048402404280e+01
-5.926250267413753825e+00 -4.472782232188666107e+00 2.008816030321174750e+01
-9.301122644469231204e+00 -4.119381171164172351e+00 2.546112571548838233e+01
-8.131956363115953934e+00 -5.203381226533725368e+00 2.403323262186511755e+01
-9.666396471346939023e+00 -3.632833127829955711e+00 2.568189981442139924e+01
-6.171055580592043732e+00 -4.860458067530724513e+00 2.025749808999352908e+01
-5.317592396701101620e+00 -2.777995175232203628e+00 1.984368434134689352e+01
-8.899492050594565384e+00 -4.621865557719577744e+00 2.535090610057310911e+01
-8.323740782564685858e+00 -5.230776837524986789e+00 2.459003184577958478e+01
-1.003140679531358614e+01 -3.146410659109908359e+00 2.590206267937028173e+01
-6.856133301153385595e+00 -5.901228827672436061e+00 2.151056688952454365e+01
-7.382062362156800006e+00 -5.848368293222019787e+00 2.280404806436697029e+01
-4.872194297502693949e+00 -3.413598986859619266e+00 1.982075081555609231e+01
-5.103827436694269970e+00 -4.364980516096167662e+00 1.992866024622439269e+01
-1.022180977835752991e+01 -2.683084339713505795e+00 2.626094475194634015e+01
-7.565304702760454525e+00 -5.824844796263564994e+00 2.335128951078426951e+01
-6.549735797205968879e+00 -5.620891643663859405e+00 2.077689027402191257e+01
-6.327872190929262786e+00 -5.523954393572322985e+00 2.057871684026092396e+01
-5.371407889339264052e+00 -4.704621056808170998e+00 2.000706518499709574e+01
-5.529020489833658125e+00 -5.075176949611615917e+00 2.014906914203757182e+01
-9.496466787757132266e+00 -4.100728838309523283e+00 2.604692921393227323e+01
-9.094451028314574970e+00 -4.603711796994153005e+00 2.593662385232731182e+01
-8.508209292764815856e+00 -5.168517896887858676e+00 2.520806288951985863e+01
-9.861775400640871325e+00 -3.614082874231959952e+00 2.626763594369765187e+01
-9.967194388086547008e+00 -3.385076151496293928e+00 2.680940002574821435e+01
-7.748570975501823277e+00 -5.801317202068311474e+00 2.389857021393407877e+01
-6.690152574457484569e+00 -6.436540418495928506e+00 2.189789955984484848e+01
-7.041112222712657243e+00 -6.400483152446112989e+00 2.275986202944073966e+01
-6.553477873992983760e+00 -6.033458841163556130e+00 2.114682712955499255e+01
-5.860913890701023199e+00 -5.479820003190840616e+00 2.034568307282372501e+01
-4.817084103848585208e+00 -4.936255150080847365e+00 1.992602874022430370e+01
-4.821793361622420448e+00 -2.475101150542562856e+00 1.974250148416503592e+01
-8.692683125436731828e+00 -5.106259932761683551e+00 2.582607487560118642e+01
-7.932160587062323742e+00 -5.777746775389604572e+00 2.444678878487920670e+01
-1.024244045715593288e+01 -2.687836820035141461e+00 2.698545260694095305e+01
-6.588471241144386426e+00 -6.408044290885066552e+00 2.155086299985834586e+01
-7.184091738561547480e+00 -6.368214475205816960e+00 2.328588552671581979e+01
-4.437374779478853171e+00 -4.330632504023355978e+00 1.982055779259451711e+01
-4.249871401374518243e+00 -2.797238835257432221e+00 1.967605722911221022e+01
-8.117037871621672451e+00 -5.715127532506778962e+00 2.506555232629089147e+01
-7.367197263356055181e+00 -6.345090237103996778e+00 2.383352035000802616e+01
-6.251137741657219138e+00 -6.165555727267209463e+00 2.078344386280044276e+01
-4.057665560767941493e+00 -3.725009280088503960e+00 1.971508342877426401e+01
-5.404699684749551203e+00 -5.583837058266937881e+00 2.025539554160815214e+01
-4.958426515655235178e+00 -5.530385412774387000e+00 2.012475456774139815e+01
-4.411670234723517936e+00 -2.188125266713534245e+00 1.970137274125791293e+01
-4.793365625663166263e+00 -1.677472287704070641e+00 1.974943689022050108e+01
-9.692046802971079345e+00 -4.082058701031634484e+00 2.663341407993716814e+01
-9.289412979554279914e+00 -4.585561543002414808e+00 2.652232432614124846e+01
-8.301571762964407242e+00 -5.652628056662575950e+00 2.568313120297602481e+01
-8.887747040096801499e+00 -5.087861003867208964e+00 2.641150301846813164e+01
-9.967442243095275600e+00 -3.052082361145322054e+00 2.764320853578141168e+01
-6.320962872448175673e+00 -6.914582352500387330e+00 2.159113623063743148e+01
-6.524445007158640841e+00 -6.970984942225067371e+00 2.228459513029124750e+01
-6.842925408144641786e+00 -6.920820191629105445e+00 2.324200486169774038e+01
-5.550843411886745571e+00 -6.099054392465745877e+00 2.043384661461289653e+01
-3.896751105924367575e+00 -2.442162338506509212e+00 1.964199881244523738e+01
-7.550310840024326176e+00 -6.321963441232551162e+00 2.438114860503402426e+01
-7.682970195193442819e+00 -6.230253671215227662e+00 2.499641547640343120e+01
-9.692293652282529592e+00 -3.859877926519283520e+00 2.718930148105903655e+01
-6.152409616072596066e+00 -6.793097220756206589e+00 2.120738727625579045e+01
-6.699993232655570452e+00 -6.952888495341776220e+00 2.271565387423611782e+01
-6.985867159981357766e+00 -6.888749434872360133e+00 2.376834292905102686e+01
-3.790613270783900202e+00 -4.719644245448835207e+00 1.986633662700325331e+01
-4.290400303809681404e+00 -5.188891819582998721e+00 1.995313342134963008e+01
-3.677956962533650564e+00 -3.119386764787939637e+00 1.960960558531911246e+01
-4.562914460725011168e+00 -5.547018314583986864e+00 2.008701916359744999e+01
-4.115549111107077884e+00 -1.764945977107859054e+00 1.967439122846294453e+01
-8.486110712336262907e+00 -5.590127870823012657e+00 2.630068843842255433e+01
-7.867812833935820649e+00 -6.167451392066768179e+00 2.561427282131945304e+01
-5.746053819714377120e+00 -6.441742902216198274e+00 2.065272047035837844e+01
-5.958601457008572133e+00 -6.791851175334232771e+00 2.100940741236915699e+01
-5.099714563167280446e+00 -6.124290101843114620e+00 2.032339990654676143e+01
-4.036121009501573376e+00 -5.799729603677461043e+00 2.011413012344159768e+01
-3.763510142322137764e+00 -5.441635523898122884e+00 1.998024222085629020e+01
-9.358336951800261261e+00 -4.410875826267704802e+00 2.717067329781484375e+01
-8.956515996523600975e+00 -4.913431262517667264e+00 2.705939482089561565e+01
-9.692541036648989916e+00 -3.637920258553295039e+00 2.774460777875573214e+01
-7.169137129846932410e+00 -6.865226278922320624e+00 2.431562591692551223e+01
-6.053667816953223202e+00 -7.420726434334323329e+00 2.163137707905706009e+01
-6.358684781969001776e+00 -7.505612741063749205e+00 2.267141651671735048e+01
-3.290827614750108321e+00 -4.250395890956890632e+00 1.977953274664172767e+01
-3.484391269693030591e+00 -3.684888822796538843e+00 1.969456992805019624e+01
-3.377395088065927364e+00 -5.188972982156890623e+00 1.993061485334769856e+01
-4.308732113979642619e+00 -6.157823614142105662e+00 2.024801658907906088e+01
-3.360209712619740774e+00 -2.021391395917958356e+00 1.963109267776608391e+01
-3.190262485567017414e+00 -2.736942690030998548e+00 1.959969042525778349e+01
-8.052660382290746099e+00 -6.104648720991614042e+00 2.623210735823514739e+01
-8.554695669877711239e+00 -5.415990826932670643e+00 2.694811343404548865e+01
-7.301586197219715579e+00 -6.773766117884462368e+00 2.493054899767533072e+01
-9.358920899600562393e+00 -4.188386888885334614e+00 2.772593998590390640e+01
-6.206025802605053876e+00 -7.463129938909724537e+00 2.215090355280630874e+01
-5.665914039698167315e+00 -7.418481980295807077e+00 2.123548810470818538e+01
-6.573476110309034226e+00 -7.457037113049442389e+00 2.346142100969022692e+01
-5.240947059483489490e+00 -6.717954525911026487e+00 2.052196006108856352e+01
-3.043299197791642818e+00 -3.469918011302313143e+00 1.964356441268893860e+01
-3.097266471340971439e+00 -4.815907908533294091e+00 1.986449413871491743e+01
-7.434042432546116963e+00 -6.682304245036548629e+00 2.554545122473539820e+01
-9.692789588742886764e+00 -3.415902865265201260e+00 2.830001902280458026e+01
-9.978730576047311729e+00 -2.867552739874491330e+00 2.824610385403492074e+01
-6.146385673287282359e+00 -7.945421348055800692e+00 2.319583702065908071e+01
-6.787935129342804075e+00 -7.408536699759973310e+00 2.425009548458094955e+01
-5.285027979306688550e+00 -7.160338097607795049e+00 2.083516121414767852e+01
-3.236774677450858118e+00 -5.694311558276464957e+00 2.000733479555214700e+01
-3.691364576444400747e+00 -6.291275518536422418e+00 2.023055120959648789e+01
-2.702531950863234833e+00 -2.354470533671032761e+00 1.958977296011371294e+01
-9.025239385205981790e+00 -4.739110377697898890e+00 2.770687303864876228e+01
-8.180333405089916354e+00 -5.814450625169101272e+00 2.684610907148888970e+01
-7.618836116920302715e+00 -6.619618081344249561e+00 2.616346530943624415e+01
-9.359506409906325430e+00 -3.965905346052923885e+00 2.828113408931437789e+01
-5.869802834508350386e+00 -7.860387379005149278e+00 2.198705374202468121e+01
-5.373202324239304772e+00 -8.045172671752020221e+00 2.146158759854668574e+01
-5.930112309608751353e+00 -8.123138751103782695e+00 2.268510406235583332e+01
-4.520740664052625313e+00 -7.048423188220491298e+00 2.054592699477858631e+01
-2.903708274375738529e+00 -5.381422098038095569e+00 1.994945365014261185e+01
-2.555588148802493187e+00 -3.087459281744906026e+00 1.963364589547530059e+01
-7.682776864712917764e+00 -6.388102189349392113e+00 2.684005968588735414e+01
-8.623276543846706943e+00 -5.241872142838695403e+00 2.759540214066364072e+01
-6.920139342656788983e+00 -7.317334180760990847e+00 2.486442187026449702e+01
-9.767462717035824582e+00 -3.085665742225472297e+00 2.882906768305914724e+01
-9.025559799752439716e+00 -4.517001332267509994e+00 2.826220930606192638e+01
-5.329109089111961239e+00 -7.602707308641830863e+00 2.114834433974781902e+01
-6.289654790957385444e+00 -7.912774496333689456e+00 2.372193947653989810e+01
-2.435634227449731348e+00 -4.493452874807565500e+00 1.978798088267961575e+01
