1.449049070481776980e+01 1.551061929815427476e+01 3.682160660072496228e+01
1.169495039835094019e+01 1.696783782799859708e+01 3.715312696655769287e+01
1.309406539707830497e+01 1.597889666756567628e+01 3.747331866180654458e+01
9.644848989328458799e+00 1.811813906906717975e+01 3.670989565332343574e+01
8.671106258594932115e+00 1.872958274209416629e+01 3.637931666664211150e+01
1.574483837559551347e+01 6.382422997558640176e+00 3.083048582832658369e+01
1.528790558322079463e+01 5.659800453599906689e+00 3.021834189676637550e+01
1.703200110121860433e+01 8.837081609126775206e+00 3.292478665125160120e+01
1.720875291057837231e+01 9.906101838040697771e+00 3.347137689182395803e+01
1.736240634482831524e+01 1.106758515246797892e+01 3.422928217414987984e+01
1.691762867852234820e+01 1.308569997759185988e+01 3.503102985898318877e+01
1.680452695312499856e+01 1.359057410664497922e+01 3.523162013755464272e+01
1.438879060434218538e+01 1.520163167878088473e+01 3.745279894597645409e+01
1.219714996618266944e+01 1.659252388754676488e+01 3.740928062278747035e+01
1.063816815726017140e+01 1.726673771752690101e+01 3.738879863308036988e+01
1.012972117691633400e+01 1.759212722814159591e+01 3.721555533655079984e+01
1.624761224838930218e+01 1.412675549596798064e+01 3.635975146159123739e+01
9.113135632882155335e+00 1.824263516327989620e+01 3.686922407485398878e+01
1.605934133052599933e+01 6.515154653647468486e+00 3.122885219594039441e+01
1.569010859996317464e+01 5.829768871140107223e+00 3.066625692307692219e+01
1.687970170170306616e+01 7.949595137379914966e+00 3.246271539054774991e+01
1.671921825871621792e+01 7.153716699410407109e+00 3.212911586505701678e+01
1.700847718955753862e+01 8.329681675562190080e+00 3.275009667563485038e+01
1.746671580655268130e+01 1.002313645711784851e+01 3.386670202675762198e+01
1.748059927641430633e+01 1.218118767448701156e+01 3.523145818487457603e+01
1.755932040288503160e+01 1.179094860000997613e+01 3.506552777238403706e+01
1.544707870090381086e+01 1.488904441158025449e+01 3.671592129662724346e+01
1.651730207324546029e+01 1.386829794638184055e+01 3.597769668796709652e+01
1.513235024149794938e+01 1.492626405163144732e+01 3.714991254193255088e+01
1.262826321607399649e+01 1.613506276134089390e+01 3.769066548919809634e+01
1.367244795626084120e+01 1.556117235799615983e+01 3.758412391144068465e+01
7.780663798732144087e+00 1.901026310715002410e+01 3.624342148550338294e+01
1.114617556646699015e+01 1.694160648416183435e+01 3.756190879572048402e+01
9.621303171029197188e+00 1.791747393231354479e+01 3.704233870383201577e+01
1.030304523490434221e+01 1.688393411595405169e+01 3.755213903374219342e+01
9.906444981623009127e+00 1.733680234475140480e+01 3.732451277243724519e+01
1.603514947821971148e+01 6.018979798508945045e+00 3.111111805360670601e+01
1.744983843223081976e+01 8.942768674589027356e+00 3.354215102384935676e+01
1.745822175624837413e+01 9.482962543381862730e+00 3.370442502019966469e+01
1.763816724791973556e+01 1.116616405772499476e+01 3.472560448960551582e+01
1.775088951893235745e+01 1.066181193527918047e+01 3.452531295921554744e+01
1.716252365091708043e+01 1.306370848946853869e+01 3.538813927445612961e+01
1.165421295307810290e+01 1.661643435866792728e+01 3.773504570994912655e+01
1.327066212042022109e+01 1.555007709893433621e+01 3.801966651096672223e+01
7.925116331954629167e+00 1.861689355817496860e+01 3.668773426271283000e+01
1.700803709537985853e+01 1.340231328411135792e+01 3.587494648319254509e+01
1.593880094614632092e+01 1.442322141199879937e+01 3.682739419655560908e+01
8.518968468823226559e+00 1.842981936485137950e+01 3.677845238788958682e+01
9.509635430194631311e+00 1.778990013029555683e+01 3.709677530651075017e+01
8.839337928900445007e+00 1.772732904902252216e+01 3.715444891387161874e+01
8.527195060134989291e+00 1.824256011596307303e+01 3.693237213087681425e+01
7.940423905879569588e+00 1.824248820369341217e+01 3.699560382666891201e+01
7.972239946960910650e+00 1.741822850999043482e+01 3.740123668262319256e+01
1.070011759189980971e+01 1.643051695499907439e+01 3.778004546807735409e+01
1.123014448922498687e+01 1.645046284976722006e+01 3.779376786196487359e+01
9.330343260429080132e+00 1.733245623176358663e+01 3.734767220461442605e+01
9.736987953374308447e+00 1.653726634294105224e+01 3.775784591115792210e+01
1.032247957704347030e+01 1.619975205926015605e+01 3.791701073489351614e+01
1.672544938077088972e+01 6.397916024968095527e+00 3.200113962449965044e+01
1.638017319776399461e+01 6.208303059858149453e+00 3.155596501260300357e+01
1.744154640257509215e+01 8.402315521220998562e+00 3.337981056022947968e+01
1.775453640664537858e+01 9.974333345415624663e+00 3.422090118802439207e+01
1.751563146497294099e+01 1.253695233695421152e+01 3.554463790758133257e+01
1.793088712017993203e+01 1.132467717604405877e+01 3.529168081209743946e+01
1.484614997354979238e+01 1.479625780001414093e+01 3.766804110570359398e+01
1.382511776359775268e+01 1.517929092204095731e+01 3.807545161874885054e+01
1.216211384065795365e+01 1.629132937057452324e+01 3.790815257482637435e+01
1.182761059557333105e+01 1.590789105350120280e+01 3.807180678583935673e+01
1.258154752320813863e+01 1.584591483911381538e+01 3.803228821741986110e+01
1.271657349990733366e+01 1.592059105154611487e+01 3.796392523579927314e+01
1.672301659596007894e+01 1.367672639448453076e+01 3.645332011508135395e+01
7.332004703560735415e+00 1.880372193951452431e+01 3.659713619612620050e+01
7.354336958335772501e+00 1.824241582141943852e+01 3.705875745167735857e+01
8.565693252730108398e+00 1.721239365598517068e+01 3.743947625839810911e+01
6.767656927475143469e+00 1.824234420411575641e+01 3.712196930134765438e+01
7.378101588209481143e+00 1.762428673982360650e+01 3.736295695849106124e+01
9.151031395597845730e+00 1.687502155633393031e+01 3.759856975836540016e+01
9.902077521516510217e+00 1.581100373219863187e+01 3.814667967049614816e+01
1.591328791563677214e+01 5.263330738288122923e+00 3.089151607832200241e+01
1.715650762377604721e+01 7.905656240034094395e+00 3.284008079636876687e+01
1.714818037364370440e+01 7.364467230277110588e+00 3.267761580022646228e+01
9.191298427629805090e+00 1.614401375052971233e+01 3.799526868534292845e+01
1.786989435280807115e+01 1.200966399087638514e+01 3.570130151959127573e+01
1.555218316314999250e+01 1.455467549146239747e+01 3.719456177148475007e+01
1.437900550838928915e+01 1.480885934150406769e+01 3.813118536601430009e+01
1.248568768486980574e+01 1.540759686128163608e+01 3.819597409343631256e+01
1.300089663572551757e+01 1.540058079144012027e+01 3.815640250244621257e+01
1.643062892563703770e+01 1.395745242369112660e+01 3.693885899313838195e+01
6.532198865530445708e+00 1.865147187873657941e+01 3.680909083816980853e+01
6.784701380100587542e+00 1.783029548914102591e+01 3.732468664691025850e+01
7.947739889280716952e+00 1.726365782826160711e+01 3.747835530602451115e+01
1.109675905149984310e+01 1.597758231611040003e+01 3.800771373525599017e+01
1.090807988536997541e+01 1.586215486610900172e+01 3.807621674279452151e+01
8.494048966725479488e+00 1.629725847057756738e+01 3.799117981884252515e+01
8.878391347086578733e+00 1.667841144137676324e+01 3.771726034367324587e+01
1.707135651282890620e+01 6.588066629288143794e+00 3.244712515891579585e+01
1.743333241199590944e+01 7.861747684690470805e+00 3.321744562186638206e+01
1.780411818755812092e+01 9.101289705455450019e+00 3.403960679532571731e+01
1.769422011633887237e+01 8.595468661118923492e+00 3.375716880391939156e+01
9.503775023483278517e+00 1.561029846172972846e+01 3.827293036364415713e+01
9.247565618249776520e+00 1.535636201797485612e+01 3.845545354380065106e+01
8.678911140044768047e+00 1.563611450110409073e+01 3.836031909524795935e+01
1.342076533019471363e+01 1.495468463954239802e+01 3.828067460835961100e+01
1.809236513631299559e+01 1.003461867788824335e+01 3.480231739224486631e+01
1.802657023702324679e+01 1.076008254522633223e+01 3.502145839417985940e+01
1.732026376693471548e+01 1.293352561190161509e+01 3.595993685922371697e+01
1.530947272139717086e+01 1.449711002972908780e+01 3.769633649592010727e+01
1.202461311602426797e+01 1.520680558337931210e+01 3.830501436970342155e+01
1.721155754354816381e+01 1.321404529307915432e+01 3.651831144228449944e+01
1.692295453928813131e+01 1.349151532514559193e+01 3.705037569794852459e+01
8.034101095254582603e+00 1.696702485183131159e+01 3.765118081316984444e+01
7.328887895220590032e+00 1.731499331302434896e+01 3.751729006365112440e+01
6.193487339466654973e+00 1.803644276702168625e+01 3.728639099318364458e+01
6.184795055618980797e+00 1.824227341601226371e+01 3.718510529766948025e+01
1.043000059641212474e+01 1.570234056036853332e+01 3.818355622966313234e+01
1.636529512952085597e+01 5.477203419860163791e+00 3.147116394432027064e+01
1.700223342439214846e+01 6.017778121992873430e+00 3.230967328738879729e+01
1.677129943845944737e+01 5.599801895688917064e+00 3.198551313516306749e+01
1.772476062076212244e+01 8.083838971981755606e+00 3.365257653063390109e+01
9.816213494958729413e+00 1.507659687884530264e+01 3.855059357926136698e+01
1.037493574601672641e+01 1.522589438015603491e+01 3.844556622758423003e+01
1.149329734166392569e+01 1.552475171871481052e+01 3.823533413385997193e+01
9.224030080486196326e+00 1.496405901655534798e+01 3.868654282237885411e+01
8.109704323095494161e+00 1.591612626401979114e+01 3.826509693212305763e+01
7.955325760174803307e+00 1.644729254421644882e+01 3.796925664287651614e+01
1.308711284538434860e+01 1.457092692607156614e+01 3.844437699940584707e+01
1.384055006597194115e+01 1.450886596709958276e+01 3.840492629253169810e+01
1.822429856831366379e+01 1.148308139785753745e+01 3.585777182960622866e+01
1.830264208595424336e+01 1.085841231530882212e+01 3.551784621542562803e+01
1.762738001790062370e+01 1.253699119541461826e+01 3.636720992472211833e+01
1.595382892302043842e+01 1.411524385305954254e+01 3.739981803021409235e+01
1.493292718648585549e+01 1.443837351720538287e+01 3.818693101997690320e+01
1.255609412892777854e+01 1.488873653208314529e+01 3.837472356690328468e+01
7.502745577951673184e+00 1.672177707682426373e+01 3.786279066269417370e+01
6.710927947925755532e+00 1.736625388984359475e+01 3.755616617927431378e+01
6.922889314073723988e+00 1.692239833150300754e+01 3.780534637122923414e+01
6.095927172667891192e+00 1.741747600881804203e+01 3.759501168843093666e+01
6.442150080029456660e+00 1.673738118456439850e+01 3.797409543248134867e+01
1.742519503469678455e+01 7.321549597658062680e+00 3.305520535312071218e+01
1.741711282717376363e+01 6.778379880579846528e+00 3.289290958710894586e+01
1.778816766614050948e+01 7.531045685506187581e+00 3.357839384825641105e+01
1.798787493064916987e+01 8.400213438136459487e+00 3.407787471548055436e+01
1.093411035898070693e+01 1.537531722668473577e+01 3.834045261262347282e+01
1.034534083717011654e+01 1.479757876518895543e+01 3.859534888809184139e+01
8.631170269452525190e+00 1.485140015524891233e+01 3.882264693586984805e+01
7.682426738207223771e+00 1.531816919112908160e+01 3.866390253615292494e+01
1.803343301685398714e+01 9.385854650539405597e+00 3.441252698279119926e+01
1.792904865815880555e+01 1.200782280137003788e+01 3.612505670602601526e+01
1.835074612041572806e+01 1.030282455182759271e+01 3.534680543389435314e+01
8.038311980077736507e+00 1.473874536335174490e+01 3.895875232210973138e+01
7.494344187451870809e+00 1.496755198439633716e+01 3.889948833654055704e+01
1.548656146507875064e+01 1.406804689715201206e+01 3.824265650454271537e+01
1.596884632790652248e+01 1.380727191358245776e+01 3.797224526902517283e+01
1.459664113446550715e+01 1.425072334565068743e+01 3.835804942006146234e+01
1.186781920581035088e+01 1.499422404897109828e+01 3.838125171771480382e+01
1.137113686371498922e+01 1.475638936774530485e+01 3.851067830493860100e+01
1.741513810546875263e+01 1.302572261029411926e+01 3.716186667459915327e+01
1.645109755013312025e+01 1.354645828183983802e+01 3.770180422940484277e+01
1.693304477654029938e+01 1.328611705471135096e+01 3.743185931164497049e+01
6.970882170120122012e+00 1.647630533098136141e+01 3.807460255960163664e+01
7.540359419694827814e+00 1.619619056913316513e+01 3.816985794749928118e+01
5.913920350420617034e+00 1.699818347465244628e+01 3.787369549324225204e+01
1.087444682485692482e+01 1.451855868561012208e+01 3.864010541523352771e+01
1.140363066241556744e+01 1.423948455826998405e+01 3.868487139243410411e+01
1.224234138369899583e+01 1.446366319032480696e+01 3.852718141689798159e+01
1.125092446029359294e+01 1.377624245468747866e+01 3.890546060805997541e+01
1.067070600833554472e+01 1.390117347765868239e+01 3.893412869169710433e+01
1.024349817062061518e+01 1.448886245379359217e+01 3.874236565585059111e+01
8.650423206734165760e+00 1.445355930399794175e+01 3.899221544447247823e+01
8.405149218439776249e+00 1.428752549487562895e+01 3.923397985391370923e+01
7.326799780708014964e+00 1.589706586627136353e+01 3.836933380368264324e+01
6.867204059826285345e+00 1.566084699341050523e+01 3.857521569783558135e+01
6.360617605189399448e+00 1.658051784022950059e+01 3.804524359303202630e+01
6.420617106296227838e+00 1.627793365721699104e+01 3.827077193442090675e+01
6.407604288851589835e+00 1.542464120791202653e+01 3.878109639588865321e+01
6.950828472974693639e+00 1.519616042843476222e+01 3.884027637287071855e+01
9.262027613862773734e+00 1.416859979132950187e+01 3.902565253307562188e+01
9.873952175800502218e+00 1.388348004510358003e+01 3.905910974878821662e+01
8.771795646231922206e+00 1.383648806623136451e+01 3.950911144925449037e+01
9.138120053717466718e+00 1.338580578519111164e+01 3.978404302523128422e+01
9.791600831174459785e+00 1.336152871984731938e+01 3.956467217028742311e+01
8.591549523225777918e+00 1.359828700201432206e+01 3.974226365484164347e+01
9.700192572771340949e+00 1.317527337943274901e+01 3.985329855284987133e+01
1.361811241389975358e+01 1.425310834085497902e+01 3.851403396425800452e+01
1.831214178626939670e+01 8.797873949917375924e+00 3.460401511934561114e+01
1.857902344638895187e+01 1.095674194384643840e+01 3.601418668826153180e+01
1.841600515321995246e+01 9.781244149667733367e+00 3.521872823054343371e+01
7.493809175579274395e+00 1.464187383213835503e+01 3.916426004620687706e+01
8.045089224370800096e+00 1.381071993407262966e+01 3.970049493017886988e+01
1.426029684158701549e+01 1.406307684871025465e+01 3.852917038381514203e+01
1.414882006616955934e+01 1.393544301100452287e+01 3.858365909175165598e+01
1.765156256689441250e+01 1.261213487253088061e+01 3.693241936639007150e+01
1.654362936543170548e+01 1.321274204690299392e+01 3.840042232628167085e+01
1.193284184290315153e+01 1.396038400887689157e+01 3.872964199508000860e+01
1.261705894031573116e+01 1.393279806720453529e+01 3.867319746230980115e+01
6.949551081043800593e+00 1.454505767297789198e+01 3.936967410878593654e+01
7.498609037433525693e+00 1.402315621922352662e+01 3.965872631338363874e+01
5.870689780712727845e+00 1.607969597782687643e+01 3.846681935152299303e+01
5.751020031440990721e+00 1.668461565820838999e+01 3.801591571395548641e+01
5.140984287668262986e+00 1.678878524335807754e+01 3.798656746227472780e+01
5.864370018823838571e+00 1.565311636404966578e+01 3.872191934716813932e+01
5.321109514072743352e+00 1.588159437841428989e+01 3.866274198295023012e+01
6.043857078273614292e+00 1.492601833760133978e+01 3.927099384584766995e+01
1.109820628248912122e+01 1.331302181636313442e+01 3.912604948796854387e+01
1.048622317873508258e+01 1.359819013909227081e+01 3.909258600052658039e+01
1.172927545914502367e+01 1.334262293002065469e+01 3.902380173153873955e+01
8.613406548935502727e+00 1.343401825231937252e+01 3.996586341717210900e+01
9.572772196879828499e+00 1.290378734269881100e+01 4.063136278138814816e+01
8.967349537188374242e+00 1.302402471689026164e+01 4.082174809480781619e+01
1.044470742679658137e+01 1.333727661021045563e+01 3.934542691538643311e+01
1.314706007754029038e+01 1.400554366256398708e+01 3.861952405730846039e+01
1.837838941244606517e+01 9.337540537852289546e+00 3.495673610553787114e+01
1.834808971117364962e+01 1.137020971490400001e+01 3.624351046987811031e+01
1.862675405416216634e+01 1.040135646792351487e+01 3.584322754816130896e+01
1.788802182589289913e+01 1.219849072137959745e+01 3.670295525078460486e+01
1.508283082122656005e+01 1.384267912404427747e+01 3.844814398400519195e+01
1.601520711798526975e+01 1.364033358910958960e+01 3.832154773923676316e+01
1.467965833113369811e+01 1.361767649000375968e+01 3.865330842858431737e+01
1.713769914201554556e+01 1.289855546146405985e+01 3.804965339820059000e+01
1.246221428824530975e+01 1.368118351789125242e+01 3.877442967957047415e+01
1.236038205816401181e+01 1.337222744126927232e+01 3.892154737328932868e+01
8.088745860117564135e+00 1.348223808518367584e+01 4.014766237929379855e+01
7.563349228540229952e+00 1.353053550918900783e+01 4.032971805155796829e+01
6.951969677534687975e+00 1.423565019464253467e+01 3.961694732722168055e+01
5.682538798139068703e+00 1.540379192206700232e+01 3.896686892489834264e+01
6.405123329469865290e+00 1.444822259778597662e+01 3.957515117154005679e+01
7.037875157310812924e+00 1.357885036029471237e+01 4.051271659513062673e+01
6.721527729994648759e+00 1.401352473443055047e+01 4.004343952265067941e+01
5.786908060702465662e+00 1.468440208887283838e+01 3.947671927932602642e+01
1.026174255442541394e+01 1.296493208587038382e+01 3.992249075013020132e+01
1.171629975475351770e+01 1.301954862830468862e+01 3.919025292795154058e+01
1.138630080032728920e+01 1.254368097765402190e+01 4.006107204263341259e+01
1.082365372222086641e+01 1.275444835016799772e+01 3.999173221101725062e+01
1.299181014001067425e+01 1.340185200165478818e+01 3.881923885818952868e+01
1.811788641229561847e+01 1.178421574728526622e+01 3.647315108992528820e+01
1.867492493795254305e+01 9.845570281399373513e+00 3.567215930377968647e+01
1.841757669106899797e+01 1.145937579150464281e+01 3.674420418721569348e+01
1.591847975487491951e+01 1.351270600505946362e+01 3.846468124390846555e+01
1.550774752880058571e+01 1.346247869660709107e+01 3.857440153532679972e+01
1.355440393489757156e+01 1.347378706075010157e+01 3.876393283969219539e+01
1.765351663258615744e+01 1.266040858926394996e+01 3.765380378446865706e+01
1.778472386919580472e+01 1.255803521635621856e+01 3.729940364765020888e+01
4.857934737775122080e+00 1.571902012114658653e+01 3.883543113995485641e+01
6.464262364277728601e+00 1.375324014652388627e+01 4.042726358330519787e+01
5.850875414266631935e+00 1.439113182437380800e+01 3.977353500718572832e+01
1.193192172157157493e+01 1.244263001272224933e+01 3.989161559630942833e+01
1.233421137794590017e+01 1.272614828072494397e+01 3.925444037483482873e+01
1.017709630617786587e+01 1.278377947310754159e+01 4.044132061331455930e+01
1.078123093584563108e+01 1.266381731183292203e+01 4.025134356979178563e+01
9.534447750456958914e+00 1.288414870140719515e+01 4.081499784414803145e+01
8.324358766815482369e+00 1.320891911401811569e+01 4.071845374662132855e+01
1.872346048999023438e+01 9.289240196727480026e+00 3.550094592499403490e+01
1.886086216740829613e+01 1.041460237659297228e+01 3.618870117889119342e+01
1.880333671780941529e+01 1.086653858888333701e+01 3.662529819064258874e+01
1.828948922513239594e+01 1.174717958377251570e+01 3.702232578627896231e+01
1.411735384111247171e+01 1.354577094243020063e+01 3.870858996502828120e+01
1.350118847139589562e+01 1.310959510643283110e+01 3.890115824930037292e+01
1.447424455295850088e+01 1.302277167850861339e+01 3.888351736729287467e+01
1.401105905486815928e+01 1.281704045148754290e+01 3.898316219649015579e+01
1.707258754535163092e+01 1.278500019476068594e+01 3.847933202227253702e+01
7.681317912740269094e+00 1.339382701540199250e+01 4.061515753871816514e+01
5.168189065101346458e+00 1.492076826886244767e+01 3.937821100049473699e+01
4.549174803064685690e+00 1.515724101066322227e+01 3.927965961637039527e+01
5.296607495997905701e+00 1.433405423488341590e+01 3.997192328803781436e+01
5.890918208509906329e+00 1.392754846400574031e+01 4.034185290510566801e+01
1.066655334559708912e+01 1.260490511212238296e+01 4.080152730761687252e+01
1.010063416182483209e+01 1.274449509602306030e+01 4.080826155208524142e+01
1.328104709555742069e+01 1.277039742656464227e+01 3.910110464682564668e+01
1.295187170913853869e+01 1.243285058309975888e+01 3.931860716596162320e+01
9.493854681171796983e+00 1.288551514474767679e+01 4.105921511659266798e+01
8.396965637081605038e+00 1.306642228797432459e+01 4.096544040008921428e+01
9.258567103559311562e+00 1.280392262641233536e+01 4.148780116148802932e+01
8.615390250076119472e+00 1.290137547796418538e+01 4.146638752360708224e+01
5.359323553284291997e+00 1.217491881168675683e+01 4.165698690756562428e+01
4.813834778867189357e+00 1.197803302826832983e+01 4.156025292630288703e+01
5.138326903960813041e+00 1.145976023778740327e+01 4.187268556041394163e+01
5.521515026271479165e+00 1.191574220135398932e+01 4.181319178293898631e+01
5.904746618962143145e+00 1.237178347002814149e+01 4.175371570059097337e+01
5.478517830160045676e+00 1.252555249047822628e+01 4.159961179877955573e+01
5.052276647586581682e+00 1.267933234996875314e+01 4.144731592170518297e+01
4.786957144080670190e+00 1.241190068025851545e+01 4.144204854377171898e+01
5.140949712351629231e+00 1.292331668707905479e+01 4.132183212931556682e+01
5.655911540175398322e+00 1.301340941723252165e+01 4.134875668784440705e+01
6.295294267338743310e+00 1.278250061656982339e+01 4.157738810824476161e+01
6.457292385867704709e+00 1.247755322674811573e+01 4.181503426972914639e+01
6.289703251603235401e+00 1.222573722080144343e+01 4.191684141410680553e+01
7.010884358737819788e+00 1.258352511074052593e+01 4.187700453185912863e+01
6.686219757266497865e+00 1.319367454398808981e+01 4.140262894450182785e+01
6.674912980792989892e+00 1.207960159086239749e+01 4.208008537820911243e+01
1.815418148715393798e+01 1.209051629959289009e+01 3.743690140060736837e+01
1.518645675057159039e+01 1.326365447372590367e+01 3.874873266248268777e+01
1.760101563781905654e+01 1.235784208277675411e+01 3.855814090967398755e+01
1.635027669844260956e+01 1.295749118546801526e+01 3.868665713766710468e+01
7.826739916980283596e+00 1.310882368161028744e+01 4.111074369716560994e+01
4.741723688804269976e+00 1.427692816498551309e+01 4.017066335402952859e+01
5.316719932767414392e+00 1.410211651798711685e+01 4.025631717491821604e+01
6.540224619605186085e+00 1.358286824684378402e+01 4.063492083342505623e+01
7.256329344629623535e+00 1.315125270205327546e+01 4.125675544743753420e+01
6.042528178180093690e+00 1.358689654865723817e+01 4.075710278556675803e+01
6.140041619182016852e+00 1.332742225202337139e+01 4.126884270701933843e+01
1.247746242269745665e+01 1.234159864912505356e+01 3.972218648162097310e+01
1.188379178001991043e+01 1.239521566267628572e+01 4.005835045935714334e+01
1.123326716886783672e+01 1.246511638310620818e+01 4.079478528932028070e+01
1.054541143508752654e+01 1.260893361058709061e+01 4.153352768480745993e+01
1.357010218686554737e+01 1.213926297444761992e+01 3.938284096822594904e+01
1.302399912457013365e+01 1.224038816920021766e+01 3.955244666238456830e+01
1.422602817030150213e+01 1.207290043283179060e+01 3.933160134097712302e+01
7.972390513227664677e+00 1.299880056356055391e+01 4.144516148571339897e+01
8.116740859853976531e+00 1.279522151057197732e+01 4.200204879483065668e+01
8.724155584056312307e+00 1.274860906014739470e+01 4.188402616412748358e+01
1.001962544210276285e+01 1.274721651496641783e+01 4.129635796765694522e+01
5.330961209946757151e+00 1.123593998583053732e+01 4.200996487047510186e+01
6.170870975246558032e+00 1.310350585002998081e+01 4.137568215373235603e+01
5.593836592187005685e+00 1.346118402672692582e+01 4.113505624712308872e+01
5.907576009293115327e+00 1.146844268656708721e+01 4.208781983639463675e+01
5.047540440594890043e+00 1.359498045898179441e+01 4.100124720246269305e+01
7.162635751709609977e+00 1.306095400093584757e+01 4.160225106615363444e+01
7.060490792049818332e+00 1.193332934606644535e+01 4.224349896368860158e+01
7.563609587470353723e+00 1.268933202197303522e+01 4.193951408506566025e+01
6.483962218556921009e+00 1.170085579880018933e+01 4.216564784496043927e+01
1.904645526277450429e+01 9.402214726451425975e+00 3.601924744333531692e+01
1.865839867899397575e+01 1.127294204017693424e+01 3.715991547246718341e+01
1.908532882394352015e+01 1.032405050695080106e+01 3.680026264300860817e+01
1.569297024057418710e+01 1.290979629028564446e+01 3.884411645012770720e+01
1.496619773880027893e+01 1.305853708789592638e+01 3.884517652286805856e+01
1.452073952624254716e+01 1.252457571601635422e+01 3.906514282854202946e+01
1.789173294894651889e+01 1.229534871242782046e+01 3.814540301134457678e+01
4.335994021796052422e+00 1.483554041706489990e+01 3.967555056278189340e+01
5.544918436847297905e+00 1.359093464701342846e+01 4.087922463698396314e+01
7.192327300518913447e+00 1.311699247134003699e+01 4.141937565605311278e+01
1.200098300976191723e+01 1.236024166770675237e+01 4.005771363035708532e+01
1.190186328017225748e+01 1.237771248111607392e+01 4.029895914646432686e+01
1.114227748158101150e+01 1.246814962257739801e+01 4.134376907522215561e+01
1.261576163274751394e+01 1.217676782395734492e+01 4.005434645715529740e+01
1.407095665816021324e+01 1.190739868564443782e+01 3.960201375814691716e+01
1.322997671939051045e+01 1.199345516422688718e+01 4.005099010152049033e+01
8.616741918450156135e+00 1.264878417312990777e+01 4.218523434482828094e+01
8.194404156290836738e+00 1.218699761934190917e+01 4.234669163740488784e+01
8.761054888638733829e+00 1.231377056073260690e+01 4.239826338945535866e+01
8.705494349072578686e+00 1.201321925783700983e+01 4.254076381338236246e+01
8.717896735638667849e+00 1.271696893398724271e+01 4.202831143977224571e+01
9.331530533478924028e+00 1.270201371271817692e+01 4.176628463311101314e+01
7.329415200535294161e+00 1.309622168084631255e+01 4.142390944431758015e+01
9.901940152329398614e+00 1.270643652770418441e+01 4.151066496234024328e+01
1.003985621008764539e+01 1.268553851215779282e+01 4.151556712138306438e+01
9.938682703032048593e+00 1.265545137783941243e+01 4.164986531980473927e+01
7.588680664710762080e+00 1.236431729461723705e+01 4.212131407071048983e+01
7.639639337451276546e+00 1.292808977179156926e+01 4.180212604523660502e+01
7.627730293451134180e+00 1.206022465585665593e+01 4.229512028882110286e+01
1.902803731851313529e+01 1.077622898135191853e+01 3.723712649067650204e+01
1.914316583814368400e+01 9.871876596739493692e+00 3.636342491738156468e+01
1.852351695784247099e+01 1.162254824996450431e+01 3.757454358917106418e+01
1.798464907091914000e+01 1.224728752928023567e+01 3.773965001237645112e+01
1.678164645027021606e+01 1.240279045185915408e+01 3.890842893999464280e+01
1.619974571622005399e+01 1.255571579149946615e+01 3.893956440068648561e+01
1.179995476328540249e+01 1.232533100238988588e+01 4.078804436314413095e+01
1.173925449310453750e+01 1.232735075217038911e+01 4.115396834669143544e+01
1.241739752308868638e+01 1.221176020747120461e+01 4.053685063434509317e+01
1.457179081555840305e+01 1.167553276607014112e+01 3.982120050758545204e+01
1.384412575751078656e+01 1.181015459862258687e+01 4.004763388058727003e+01
1.293252824996965344e+01 1.204594652148416678e+01 4.077457448707752263e+01
8.722611588639280100e+00 1.261777928614197641e+01 4.222462922610042568e+01
8.083432208061354984e+00 1.158602239716378790e+01 4.263168684787600426e+01
7.572163439581160560e+00 1.175960960308061942e+01 4.243764925372288133e+01
9.319412958278224579e+00 1.263866874820309505e+01 4.205545511861770080e+01
9.327754849171448370e+00 1.244056327103491277e+01 4.244984280815887701e+01
9.925616827887560945e+00 1.241192440389252916e+01 4.237941880144003903e+01
9.920889632751979548e+00 1.256037395446114147e+01 4.208358895424572665e+01
1.002625979530920297e+01 1.264873604795189088e+01 4.163307343993742649e+01
6.605318849350753752e+00 1.148473263636204500e+01 4.228212237346468783e+01
6.888597705479857503e+00 1.108639017792290815e+01 4.249552498625135399e+01
7.485562217444169164e+00 1.133601192392040602e+01 4.256355229751118685e+01
6.149692532246405108e+00 1.103569161443314783e+01 4.232080233170752592e+01
5.224558641770732592e+00 1.079554332145984397e+01 4.214571632800200973e+01
6.291693803709440758e+00 1.083680271626046476e+01 4.242750653808751338e+01
1.830862951053528676e+01 1.181724452328484354e+01 3.798738540131571284e+01
1.525263161662230793e+01 1.249956361975961094e+01 3.903699151009857360e+01
1.670638451109572031e+01 1.220169118030121425e+01 3.903500087338833424e+01
1.767181228017721750e+01 1.188868482880282151e+01 3.888384681771724161e+01
1.236654547201219856e+01 1.218556611059485739e+01 4.078130405106867329e+01
1.168514719830518800e+01 1.232781719224122519e+01 4.154841336965545651e+01
1.111537765885145923e+01 1.246835337638508534e+01 4.154097329095392865e+01
1.052154103440006772e+01 1.248218343928864194e+01 4.211168720224790007e+01
1.488274772880322061e+01 1.200645192116740390e+01 3.928030236317328416e+01
1.503023600643098590e+01 1.223219322985688962e+01 3.914710279248323843e+01
1.346751043848270868e+01 1.189532439566053235e+01 4.059128120875487156e+01
8.652694743434647506e+00 1.172175985676581789e+01 4.267723304869113576e+01
9.883657559064781495e+00 1.237711970901960790e+01 4.248894707591032471e+01
5.694531107877035758e+00 1.058711182531465056e+01 4.235946075464367055e+01
1.888760285795832061e+01 1.115459692318141727e+01 3.771219362132856645e+01
1.927097240057750938e+01 1.018606481734169655e+01 3.721856083961895933e+01
1.934510234094493697e+01 9.790677098371839193e+00 3.691429864085088042e+01
1.942566169914443819e+01 9.329055073979015233e+00 3.653820482651632773e+01
1.812996254296874810e+01 1.193027189652729270e+01 3.863703599676585299e+01
1.609772044089198673e+01 1.190904070755305533e+01 3.919618745077823974e+01
1.553933688468375429e+01 1.194001562169730057e+01 3.922900759326720532e+01
1.665587833729875555e+01 1.187807700601158345e+01 3.916337860038971286e+01
1.233623687971307525e+01 1.218656161254392245e+01 4.096416566987034003e+01
1.113400071085159659e+01 1.246732200108669808e+01 4.185086519132321570e+01
1.052424856442050505e+01 1.238325543505003168e+01 4.230890641208563352e+01
1.044047755197980720e+01 1.231356861386518631e+01 4.252811882993906067e+01
1.445835108489142939e+01 1.162682292140943119e+01 4.004427701171506015e+01
7.583882800558404469e+00 1.121948198019048348e+01 4.263740489259677702e+01
8.537164554032788288e+00 1.150984549208549801e+01 4.279296986810071246e+01
8.389389160866961959e+00 1.119699050452625855e+01 4.287792205756385755e+01
7.787670741070061631e+00 1.096013705726937637e+01 4.280148419444277863e+01
9.222255861012330413e+00 1.185758366584195755e+01 4.272280802816887046e+01
9.844704766557816455e+00 1.228496864917824283e+01 4.263187276213210453e+01
7.084848175779745461e+00 1.085332209387630442e+01 4.264312868570719672e+01
6.140022972385221323e+00 1.053718893223555853e+01 4.250408906095250217e+01
1.925332753680175202e+01 1.068574646300793596e+01 3.785013266461947978e+01
1.940000179020101712e+01 1.019751204025047109e+01 3.765759954265909215e+01
1.888271007742580210e+01 1.110116999667025084e+01 3.811276949673725767e+01
1.507378563677639605e+01 1.144311860620206645e+01 4.004091774226273515e+01
1.721383281250000152e+01 1.184712655048323349e+01 3.913058764096240338e+01
1.650161224783744984e+01 1.132051986635344321e+01 3.968247507246162087e+01
1.225472435890210043e+01 1.218732272185710563e+01 4.155585294081847536e+01
1.099751241168357829e+01 1.224998866072574089e+01 4.256730977054625953e+01
1.155383309183397600e+01 1.218648437515327565e+01 4.260645334175055154e+01
1.112325546503832108e+01 1.235457661788721317e+01 4.223834819930448958e+01
1.172180574162679534e+01 1.232592646820018345e+01 4.216784572489155636e+01
1.112149744542705321e+01 1.240407981724513320e+01 4.213975743718525990e+01
9.792194465956034932e+00 1.199352547673033698e+01 4.276842220017805118e+01
1.282375361346861276e+01 1.204695618128214107e+01 4.156328751797554588e+01
1.400264686346144671e+01 1.174466487276656324e+01 4.040793091320693975e+01
1.354114425134196154e+01 1.183881315415903934e+01 4.080799505695252805e+01
1.339271681751647236e+01 1.190659667711116576e+01 4.157072321532591985e+01
1.602017716555415916e+01 1.163048443565482515e+01 3.945557500719854715e+01
6.585898262085498445e+00 1.048722499676057396e+01 4.264886245977491797e+01
7.186818746490470033e+00 1.072368202312523167e+01 4.272517386525824890e+01
6.032968779140277960e+00 1.018416722178362477e+01 4.257332850744634811e+01
1.850775048167119152e+01 1.151579397265020077e+01 3.837493657342348286e+01
1.571060925869186953e+01 1.129885983196405697e+01 3.999704549592458136e+01
1.709864409622019465e+01 1.142870504537020260e+01 3.952010788236109562e+01
1.102462365722174198e+01 1.210928912296655291e+01 4.277675742938344428e+01
1.036169731859241239e+01 1.212934516625082715e+01 4.281399497792774156e+01
1.112958454316904877e+01 1.210611331808123126e+01 4.277086283883271989e+01
9.676044234302874969e+00 1.178133603641914995e+01 4.288417337045208200e+01
1.228188426599679595e+01 1.218596449725510134e+01 4.202042467288325156e+01
1.453781419367882144e+01 1.159400211372700795e+01 4.022456654790047992e+01
1.475903041744518518e+01 1.142427333628790187e+01 4.087488069198423091e+01
1.415018069448297311e+01 1.163152123189671450e+01 4.084144127722144901e+01
1.344715209592806460e+01 1.190606599576800662e+01 4.117619632227869175e+01
1.284180154665763496e+01 1.204604919561200127e+01 4.187305319260600811e+01
8.991050781249999346e+00 1.143366423244757257e+01 4.295430270435330300e+01
1.634694658734163397e+01 1.115468430550669332e+01 3.995321005585472562e+01
8.254952268957147510e+00 1.100781279312274386e+01 4.295787399978249255e+01
7.052149262230856586e+00 1.053464811729044470e+01 4.280519904561101185e+01
5.966950038926445821e+00 1.000406372530949284e+01 4.263784020682469134e+01
1.954709725073540483e+01 9.709478517228026462e+00 3.746516895527367552e+01
1.955453587532915094e+01 1.010159078901877194e+01 3.806346465082815200e+01
1.887351166574105577e+01 1.102121407459874725e+01 3.902521398592033819e+01
1.850179490406468830e+01 1.147566695222226052e+01 3.883114812124009774e+01
1.829513681747051379e+01 1.147870055486202112e+01 3.901297626087493597e+01
1.768437847894633563e+01 1.142318876664351102e+01 3.934206595932693062e+01
1.011167460022003972e+01 1.167835583962415491e+01 4.305630882867497178e+01
1.079707509226122575e+01 1.202632660721151758e+01 4.298606851446839272e+01
1.219332631599596972e+01 1.219277105934783201e+01 4.242624179858984945e+01
1.097211543083754393e+01 1.206812098177608661e+01 4.287841689323046523e+01
1.552532805424354834e+01 1.122636962958368478e+01 4.049144276797068187e+01
1.396208801438465841e+01 1.176612430278361465e+01 4.157816760169954051e+01
1.340170940535497479e+01 1.190614241415644337e+01 4.172567663436051788e+01
1.698352738671874818e+01 1.101056262996954160e+01 3.990938955070517125e+01
7.519007812500000831e+00 1.058205180803129863e+01 4.296145607189641424e+01
6.433445738054825114e+00 1.005150625640177786e+01 4.279421027309744119e+01
1.937114751033987403e+01 1.049439017721926781e+01 3.837144740457163294e+01
1.917139441335059047e+01 1.069720854016145140e+01 3.872427841336599386e+01
1.067189622026378082e+01 1.180068735128658730e+01 4.310730200311013505e+01
1.189737763974186890e+01 1.208288999907190409e+01 4.272773783586267626e+01
1.210922381295205419e+01 1.212307350901182978e+01 4.264554657508220714e+01
1.232607802450233159e+01 1.216171947630359540e+01 4.219150116624939528e+01
1.158281099958951721e+01 1.200686971787950164e+01 4.294287150400198527e+01
9.551162382148639551e+00 1.155596598437981548e+01 4.300528662185302409e+01
1.293010329927072455e+01 1.199756223110542130e+01 4.221515328163685865e+01
1.266493007812499805e+01 1.205967977438468530e+01 4.268462827010142036e+01
1.536761067398996161e+01 1.121709271450815137e+01 4.090831057696065898e+01
1.446565401772532056e+01 1.157705063894212394e+01 4.141909107516385546e+01
8.106785577055214631e+00 1.078382836950227919e+01 4.304364243115094979e+01
8.694804584357424204e+00 1.098536136500183247e+01 4.312572922371740702e+01
1.597669843403158296e+01 1.100977360603956257e+01 4.094176652427464091e+01
6.976382122951624076e+00 1.031685294013245446e+01 4.287785783858590349e+01
1.968694868733672365e+01 9.886686027651332864e+00 3.864971651664463792e+01
1.846037364046812712e+01 1.102696270577648541e+01 3.938905901185215441e+01
1.815508915842319837e+01 1.099912836975711095e+01 3.955362334154157367e+01
1.753072476800727486e+01 1.086550497883322741e+01 3.986130059941555714e+01
1.055030316595175677e+01 1.165613164587366946e+01 4.322418520951482890e+01
1.123296029010159991e+01 1.192320155503782608e+01 4.315837526856169148e+01
9.428667356774392161e+00 1.141125864314233240e+01 4.312202938914429495e+01
9.282641511501804388e+00 1.118692013635851623e+01 4.320782582192052246e+01
1.353406212080204085e+01 1.183339782083167080e+01 4.223880947805183439e+01
1.322921291304379032e+01 1.190906694093286688e+01 4.257644871191682512e+01
1.496898452828577852e+01 1.138806563269067595e+01 4.126008448613050206e+01
1.547230327931844229e+01 1.118144860502948212e+01 4.091406394815513181e+01
1.449354864090769546e+01 1.154136302082911136e+01 4.162085570713987437e+01
8.050641133065601807e+00 1.059082716225399956e+01 4.314233909980653436e+01
1.648006904904267955e+01 1.101015205210453018e+01 4.042562408860138845e+01
7.006022639289008147e+00 1.014745306247651691e+01 4.299007240285702380e+01
7.534530310256751129e+00 1.015577466130842765e+01 4.317074578262398177e+01
6.491772315885195432e+00 9.712658783040092558e+00 4.301870505946929768e+01
1.985593690528380861e+01 9.517893726073120675e+00 3.827666968804513914e+01
1.969471408902275655e+01 9.220921434335611622e+00 3.727256098024336950e+01
1.992617308664150144e+01 9.077615044484469209e+00 3.788121653099927499e+01
1.948889612401972471e+01 1.030316019001289263e+01 3.889242929987201336e+01
1.924070918685212206e+01 1.056612872646092249e+01 3.921957149883711935e+01
9.871177603112849752e+00 1.138882066940197824e+01 4.329006190633891293e+01
1.205429733442612950e+01 1.207814438483123531e+01 4.271892428613630699e+01
1.280457681299418482e+01 1.188433081908008582e+01 4.307183397317439955e+01
1.219358160306266292e+01 1.194561193029654156e+01 4.300733714252086060e+01
1.320108812026898804e+01 1.189640906365672812e+01 4.272496172611420917e+01
1.547268069757171460e+01 1.119894341046902753e+01 4.110095027116108923e+01
1.435242630262205310e+01 1.163546249778688768e+01 4.193222398702344833e+01
1.413893763085733113e+01 1.166908599638832555e+01 4.226249124332085927e+01
1.335769122610915183e+01 1.187477552658081592e+01 4.255182179442387280e+01
1.405076204345012592e+01 1.168979760484056030e+01 4.241895792385351172e+01
9.224918845690497804e+00 1.099401873576929667e+01 4.330655236805083774e+01
8.578487394754013451e+00 1.059960143236337515e+01 4.332302879508014826e+01
7.013119406035363212e+00 9.934179260267598011e+00 4.309471290859156767e+01
1.656749832831601310e+01 1.078656763756824688e+01 4.087143383020254817e+01
1.736560754193957123e+01 1.067558497624551883e+01 4.032019544516646192e+01
1.911870121614486706e+01 1.034351629351514390e+01 3.958929734469126771e+01
1.862559492187500254e+01 1.057527151381560238e+01 3.976510652263817036e+01
1.807817561278686114e+01 1.072038211720226997e+01 3.981319811998513103e+01
1.818666164521822637e+01 1.045799975847422836e+01 4.024797301457311249e+01
9.698833708165604861e+00 1.091847584470894006e+01 4.347096706661075416e+01
1.034709865307849341e+01 1.131352023471220924e+01 4.345455307019233970e+01
1.040883478138616880e+01 1.148265392150666209e+01 4.334475899958555800e+01
1.094607194790494376e+01 1.157645988942910797e+01 4.339944041539099828e+01
1.184394376584210384e+01 1.189516272257106344e+01 4.315220986426869842e+01
1.148250514562507263e+01 1.167018267334247916e+01 4.345407364359267888e+01
1.304005015973126191e+01 1.194143181504383477e+01 4.291029656533682868e+01
1.268837278682596548e+01 1.185641193782024772e+01 4.314368933820554730e+01
1.502477909321834382e+01 1.131672618949880871e+01 4.166352612488029195e+01
1.474350429687500075e+01 1.150491699200321882e+01 4.228615668025737051e+01
1.373766495219063621e+01 1.173301138850366598e+01 4.276533417855375774e+01
8.056538670294660420e+00 1.037767413119949289e+01 4.324688270986850114e+01
9.138692349465125986e+00 1.075903297318538954e+01 4.339699534484374510e+01
8.307231224636712597e+00 1.015093761965257180e+01 4.346231483349745162e+01
9.038199423827439460e+00 1.053155251480919929e+01 4.347892832019277165e+01
7.007340575326585608e+00 9.709240105483718963e+00 4.321291078978924816e+01
1.715732704278589793e+01 1.056373285736355960e+01 4.080121719553827830e+01
1.981947672599073584e+01 9.671571739533270318e+00 3.923594436402589736e+01
1.026001138607798957e+01 1.107824634490806126e+01 4.354509104384466411e+01
1.082145094984124611e+01 1.123812858521485758e+01 4.361926673391077713e+01
9.955346074605609274e+00 1.039539516228516902e+01 4.379089893614502671e+01
1.038869430786410319e+01 1.081680411276569131e+01 4.370507410751495314e+01
1.178926443079346598e+01 1.185751399104005266e+01 4.323701656492151812e+01
1.162550224567083923e+01 1.184346977988506389e+01 4.333358194476264202e+01
1.196082488244686104e+01 1.188979919098913385e+01 4.315102993144493126e+01
1.555709304181141661e+01 1.109181464263248706e+01 4.170624752678639169e+01
1.536945939116188597e+01 1.121731922419582261e+01 4.212137011616560756e+01
1.427447186038678240e+01 1.156954434743927607e+01 4.280573062777246918e+01
1.341571562500000070e+01 1.182303607748333896e+01 4.313635025279847213e+01
7.521500097601783175e+00 9.705827760724604403e+00 4.340710572547263268e+01
8.675925818768352116e+00 9.933661141941943384e+00 4.366474187426500464e+01
6.355404242553379213e+00 9.264242491682844971e+00 4.321409719741966882e+01
1.608937338094895964e+01 1.086691829705776335e+01 4.174897274807072023e+01
1.629928841675411277e+01 1.082580793849922429e+01 4.136682914339679940e+01
1.960669280214588994e+01 1.011186079075529953e+01 3.941361097829685889e+01
1.896616383091422264e+01 1.005139197874387769e+01 4.012595479953765221e+01
1.774762152667204518e+01 1.034072276131188062e+01 4.073095906126233245e+01
9.496924811162029911e+00 1.046351848040563937e+01 4.363480767600407262e+01
1.142011606142564339e+01 1.150114719808440178e+01 4.356392399446352215e+01
1.234508815359941813e+01 1.179188326946183096e+01 4.331559638353942887e+01
1.532695225247404558e+01 1.121331652358916386e+01 4.234617214092899928e+01
1.599568875246063371e+01 1.092960594991744294e+01 4.195651217636770980e+01
1.481003779925947050e+01 1.140626010496503717e+01 4.284608970101503900e+01
1.718489971453089993e+01 1.049128493392892203e+01 4.126111495677133689e+01
1.405971222434763312e+01 1.162959754315064664e+01 4.305303308590011824e+01
8.035015083352256227e+00 9.702412055456129281e+00 4.360155948989327612e+01
7.429036073758743974e+00 9.406779407351079314e+00 4.353748021527263035e+01
6.823763203833649982e+00 9.111569134121705105e+00 4.347349002554021524e+01
1.662171828124153095e+01 1.064199567779017208e+01 4.179170627030027418e+01
1.064074756084210804e+01 1.054060506280177378e+01 4.385169255701365643e+01
9.315410010782898098e+00 1.016442710271720529e+01 4.372779367079241553e+01
1.201801454238164801e+01 1.176381640757332647e+01 4.350865456500174844e+01
1.149808165809434968e+01 1.131573624860158311e+01 4.367990267763705958e+01
1.141761572798694502e+01 1.103457397456669931e+01 4.379637179099523081e+01
1.132654464920588033e+01 1.068592377835669360e+01 4.391253414978663727e+01
1.201188768729439715e+01 1.083118012018780441e+01 4.397334947295767904e+01
1.290054044984369419e+01 1.172629769438483827e+01 4.339412811668464798e+01
1.257050709650908260e+01 1.171705920909959886e+01 4.352045264668066693e+01
1.534376450905610056e+01 1.124291235818169277e+01 4.288647495998574755e+01
1.590875950199643896e+01 1.092163810993107731e+01 4.240621401894924247e+01
1.470203059690191516e+01 1.143627869139703535e+01 4.296976605462600673e+01
1.400108177319608771e+01 1.161454500819827373e+01 4.320858532536811936e+01
1.987653090587476612e+01 9.537569769969943323e+00 3.971481674139426588e+01
1.945500142111876585e+01 9.819601324088960581e+00 3.995025167005204025e+01
1.826605972349054241e+01 1.006970303156279911e+01 4.064969412096802870e+01
1.878461128406229363e+01 9.798309809620423749e+00 4.056833767682319802e+01
1.717594638782447802e+01 1.028592601927062766e+01 4.169858416152868585e+01
1.046555776995191422e+01 1.030265094007692639e+01 4.396578597983573644e+01
9.871384756177404185e+00 1.002032411366850795e+01 4.403701437514238393e+01
9.203749692165215990e+00 9.664208289233023663e+00 4.405605471163259779e+01
1.217351334375327809e+01 1.139323866878823566e+01 4.374045755957332915e+01
1.251816572527306271e+01 1.165765399077490194e+01 4.357512488432485753e+01
1.458414665806327726e+01 1.140617295075107407e+01 4.328079686364734613e+01
1.772940346691000357e+01 9.930136470855972064e+00 4.160554675932480251e+01
1.371371044999839306e+01 1.170903185234816490e+01 4.334383533228108831e+01
1.345639204921673304e+01 1.166066615996829370e+01 4.347272320209027896e+01
8.620002062992027092e+00 9.683304483928777628e+00 4.382884618039901170e+01
1.930342781685329001e+01 9.527236793432736661e+00 4.048710468164884446e+01
1.801527487015558648e+01 9.957472653669176665e+00 4.112180395493852814e+01
1.648925330624553709e+01 1.062981129066671926e+01 4.246630191835190260e+01
1.097480488889599215e+01 1.020991901930899992e+01 4.414065952469632492e+01
1.148749258522842709e+01 1.011713593187991300e+01 4.431563979155784949e+01
1.243360289887973735e+01 1.161728523374922517e+01 4.365481885368022574e+01
1.268239831023323205e+01 1.170759066218273858e+01 4.352284059174052544e+01
1.516792284953819703e+01 1.119763371553568376e+01 4.335309133801031578e+01
1.334715564768002949e+01 1.165133679346137363e+01 4.353703756267319136e+01
8.122965278176772941e+00 9.314123488938179207e+00 4.393431565816961637e+01
7.214590255677097552e+00 8.871035127446919688e+00 4.383790394853989625e+01
1.967453990916747131e+01 9.148030942741032234e+00 4.043055480529622514e+01
1.879332745566523144e+01 9.550842037607154111e+00 4.100004279976226229e+01
1.828367135388729992e+01 9.574445877791259107e+00 4.151256286404014872e+01
1.591889342352406267e+01 1.094144075531593430e+01 4.276655907185850225e+01
1.707075660202223588e+01 1.033781436324360392e+01 4.252644727370490330e+01
1.035341312684913362e+01 9.802447830902639936e+00 4.429402491658237295e+01
1.243028218473691915e+01 1.115098745326694463e+01 4.388717216831935986e+01
1.209073137491875016e+01 1.018498375674212753e+01 4.432436166095601493e+01
1.284853509333660071e+01 1.147073844346262383e+01 4.380100916717206161e+01
1.401150133414259003e+01 1.159512093841073543e+01 4.355122408180358207e+01
1.459134319643421129e+01 1.139328388565169448e+01 4.350931429375502546e+01
1.747496761159995771e+01 1.008338304452222722e+01 4.218852652728191543e+01
1.266227866815158798e+01 1.162704995565637667e+01 4.359428765577115428e+01
1.330575577371088514e+01 1.149030014989141613e+01 4.367991686745531865e+01
1.342937350342881686e+01 1.138606938182011241e+01 4.381780939127364149e+01
1.335997740174524928e+01 1.119492942134934843e+01 4.395801392197970614e+01
1.263179436613311779e+01 1.086049337689878058e+01 4.402058378381251202e+01
6.716632346592634306e+00 8.843521579430184687e+00 4.362374786103603697e+01
7.712241788679342847e+00 8.898575090670755472e+00 4.405225677309832832e+01
1.649442531390057809e+01 1.063981610703691594e+01 4.264658186260393791e+01
