1.185319999999999929e+01 1.291789999999999949e+01 2.620319900000000146e+01
1.653806974919680073e+01 5.185596371652399839e+00 2.786756944101065514e+01
1.723904613576387845e+01 1.404430441762621440e+00 2.855022749294346340e+01
1.704187465801626189e+01 2.830158964768585861e+00 2.832858296523377106e+01
1.682202741808320212e+01 4.768065485586157060e+00 2.814748226573766843e+01
1.718548384195866419e+01 3.626959932846490986e+00 2.850283004777672247e+01
1.559880000000000067e+01 8.308699999999999974e+00 2.750600100000000126e+01
1.587871368496314162e+01 7.717469607828482125e+00 2.767508378381258538e+01
1.430950349246344189e+01 1.019047734487620893e+01 2.690159253856188926e+01
1.473973183920104546e+01 9.562542691146907359e+00 2.710327900214781849e+01
1.516943263188487911e+01 8.935378022646585094e+00 2.730471815401600111e+01
5.996539947305175033e+00 1.504345114059518806e+01 2.486550175409739438e+01
6.568891286690416997e+00 1.490242177775441590e+01 2.500617662062406410e+01
1.118301770804233009e+01 1.328522105787211594e+01 2.610835861166770755e+01
9.841361193714206479e+00 1.402057148091232719e+01 2.591849519728922502e+01
1.732508186487123325e+01 2.246956619669702171e+00 2.861377051202095245e+01
1.712620521292443598e+01 4.262384970474081491e+00 2.845706105525998098e+01
1.643909343209956830e+01 6.533840712040641208e+00 2.801358267977587602e+01
9.170799999999999841e+00 1.438809999999999967e+01 2.582360100000000003e+01
7.311206905624153762e+00 1.509585631828145935e+01 2.552419092373503418e+01
8.240861419583470848e+00 1.474203142586523718e+01 2.567387242554318050e+01
5.075381164064846296e+00 1.518035759233847770e+01 2.461942052856293373e+01
1.101912533924959803e+01 1.373567784782179402e+01 2.640727745275012595e+01
1.161960237730972878e+01 1.343682995425738014e+01 2.651928907389681811e+01
1.759321484998171314e+01 1.790725786080300530e+00 2.891919286487888741e+01
1.635793803795995416e+01 7.925763222778203776e+00 2.828035036769752608e+01
1.671940787899641379e+01 5.941763357110008137e+00 2.818290742995734632e+01
1.451764887383561664e+01 1.050298227955367913e+01 2.731283256080628519e+01
1.374115294668110465e+01 1.141171519675096668e+01 2.703091370357697443e+01
1.558094221523931822e+01 8.966674317469967903e+00 2.781923735767506400e+01
1.249027564883041741e+01 1.269712898506366372e+01 2.671529791607460780e+01
1.328447225046264180e+01 1.185019747124030332e+01 2.689073922034622299e+01
1.209193384322554188e+01 1.321120786384562251e+01 2.669960461152518505e+01
1.750659036421144421e+01 2.971490897837692380e+00 2.882633865893536296e+01
1.700000049948108582e+01 5.349100074548476691e+00 2.835240063834996960e+01
1.725079957457539948e+01 4.779038756397975263e+00 2.860349968081278149e+01
1.750166416750887777e+01 4.208828208235867230e+00 2.885466428413220186e+01
1.599321211679824017e+01 8.559707690986378736e+00 2.802473824104276545e+01
1.672654166276490528e+01 7.225359059590049426e+00 2.852322844267969870e+01
1.518516557678510637e+01 9.496854862779446904e+00 2.760954157265657827e+01
1.420187363480143716e+01 1.110539161079944925e+01 2.723682817428210967e+01
6.381499999999999950e+00 1.544969999999999999e+01 2.537450000000000117e+01
9.426728995754793061e+00 1.471676565321076247e+01 2.627867191659105828e+01
8.918194065578521901e+00 1.485400465253027136e+01 2.611014877402678991e+01
5.486885557960544446e+00 1.573724274245067001e+01 2.527097828211276820e+01
1.059598530489391166e+01 1.416814202606684781e+01 2.652652277101227440e+01
1.256820310294398801e+01 1.299524165785113183e+01 2.704120880543941041e+01
1.778900901901428355e+01 2.373742534744630817e+00 2.911029355029280197e+01
1.682854923994369045e+01 6.544800358430627796e+00 2.846450817403493261e+01
1.300040230103025962e+01 1.245122235854089965e+01 2.706937367664989935e+01
8.665366031459353025e+00 1.532031894421932883e+01 2.639694849056685300e+01
1.138607908125677426e+01 1.395559442418422336e+01 2.683527824304628240e+01
1.233085025548742486e+01 1.350474003159943592e+01 2.719638984368942403e+01
1.775215299955689829e+01 3.639471760605187178e+00 2.910545267753859022e+01
1.774981945064993383e+01 4.964723846162289789e+00 2.925396957943499743e+01
9.990885388615176055e+00 1.453830560624907164e+01 2.647529263981309455e+01
7.650707089682555306e+00 1.555838209426616281e+01 2.610250802949861892e+01
6.636048045115339633e+00 1.579644688033227595e+01 2.580806896504283898e+01
1.709556194582517463e+01 6.052224761052544366e+00 2.864427329780658127e+01
1.800261926799677425e+01 3.070166008786422207e+00 2.935621850824097478e+01
1.741594179521705499e+01 5.577385628083318281e+00 2.890297973570477907e+01
1.683719384980112821e+01 8.134246837036066324e+00 2.888570230645782644e+01
1.719113241613238685e+01 6.755407620269005875e+00 2.893617143561205296e+01
6.074336727704071848e+00 1.595712648716972915e+01 2.570553906285345036e+01
1.288917990768689315e+01 1.313823056210887330e+01 2.750507839723842451e+01
1.115246981812417104e+01 1.447454921638382075e+01 2.715138315617876685e+01
1.810473257664302693e+01 4.069820672089756286e+00 2.959922789738928017e+01
1.728657608711865024e+01 7.457659831225537772e+00 2.922768289117354001e+01
9.682969355322688543e+00 1.504583201418079952e+01 2.673429723484365184e+01
8.412609717044233548e+00 1.578650095657824259e+01 2.668366685065899091e+01
1.186113414911726061e+01 1.413642864689338730e+01 2.742231052433515615e+01
1.041771928724115170e+01 1.476019124003327576e+01 2.694284056454248955e+01
9.175529184936305427e+00 1.551262085698493820e+01 2.687319697718388412e+01
6.890725609059311196e+00 1.614337141986442958e+01 2.624185962471801048e+01
7.651869597716121518e+00 1.603152578929972449e+01 2.652179173579812144e+01
1.256979712394301885e+01 1.379831003528683908e+01 2.769323881961722122e+01
1.751140115589274515e+01 6.280480982692895786e+00 2.919472405101348400e+01
1.783166887854939375e+01 5.805553513495420148e+00 2.945327526994994471e+01
1.824702515723461715e+01 5.184550178049914138e+00 2.990605377619429817e+01
1.755825342566836511e+01 6.979163750442363146e+00 2.942778640712812432e+01
1.223109864218422338e+01 1.422821135628109168e+01 2.783068336484459238e+01
1.166933001707939255e+01 1.466568154639181998e+01 2.778448776578673574e+01
1.789343289231587875e+01 6.614326823020734381e+00 2.973197711972743562e+01
1.824735546396954788e+01 6.033699868695856061e+00 3.000351735237039819e+01
1.788157350628518216e+01 7.588297724617164342e+00 2.996548152124107744e+01
1.831699732877353881e+01 6.900634682240085027e+00 3.030633071911767829e+01
1.866303759738588397e+01 6.261842750983584338e+00 3.055375329940053675e+01
1.151183516186271794e+00 -3.646473923771709647e+00 4.876714869497502036e+01
1.705988077848930473e+00 -4.175742190388262109e+00 4.888842986755333442e+01
1.960508483465994045e+00 -3.598028045202572134e+00 4.902309344568265459e+01
1.845133414766319424e+00 -3.012882855605386823e+00 4.904362771986011182e+01
1.244572768156771536e+00 -2.871397413023835998e+00 4.887079249197964970e+01
1.553628393778684780e+00 -2.391597009188570766e+00 4.898819091215523258e+01
1.005603431373520706e+00 -2.301247619650594434e+00 4.882847910399657110e+01
6.428614920888882089e-01 -2.729640894874682200e+00 4.869762612467844320e+01
2.088283606661432312e+00 -2.299588646842027906e+00 4.915328293302601992e+01
1.608611446292849578e+00 -1.801163191368682970e+00 4.903508446443088076e+01
2.567831663393528530e+00 -2.797885805827221795e+00 4.927145078503168918e+01
4.043009011521392360e-01 -2.159355453938644143e+00 4.865544231296286171e+01
7.666338810129484926e-01 -1.731097963400818784e+00 4.878616564489635010e+01
1.129000025283730890e+00 -1.302800026272251888e+00 4.891690100623029736e+01
1.827696044527348018e+00 -1.423977603615047105e+00 4.912313793664633721e+01
2.896527972548088137e+00 -2.232121216744690884e+00 4.940355138663063883e+01
2.526571932428975487e+00 -1.545186460430568287e+00 4.932942795647950618e+01
-1.089328442597779362e-01 -1.397376117123190653e+00 4.843396664211370961e+01
4.127511317693718373e-01 -9.518876094726822501e-01 4.862672084275034479e+01
3.339670488499321355e+00 -2.793202224506142528e+00 4.950708129327689733e+01
6.134559465820145219e-01 -6.010981387906095819e-01 4.866664464121229372e+01
1.529322103374063602e+00 -8.530959643178852581e-01 4.905098539997189278e+01
2.228164480719730278e+00 -9.742254593676277219e-01 4.925726778383411641e+01
3.225223092571948946e+00 -1.666356310692548526e+00 4.953565164346621685e+01
2.766158563489254263e+00 -1.116551870498315058e+00 4.941456642977124858e+01
3.632014910378172701e+00 -2.290350963143843011e+00 4.962455297590722836e+01
-3.032649107198210348e-01 -6.010867685411556138e-01 4.833663494539722194e+01
1.929756397632940601e+00 -4.032654239119017880e-01 4.918510739185325065e+01
4.047665601608788855e+00 -2.711271609421246787e+00 4.964989860753539830e+01
-7.185410559148288634e-01 -9.163360175216725967e-01 4.818215220127756027e+01
-9.559017909346535502e-01 -1.372034692858947968e+00 4.810116352873211554e+01
1.063922388365543759e+00 -9.522435478928059638e-02 4.881753417605168011e+01
9.735565692941938742e-02 1.013620595647830580e-01 4.841611819750619361e+01
2.861555197634403136e+00 -5.649548359923137753e-01 4.946014763911066581e+01
3.392905744679560520e+00 -1.176252275689517734e+00 4.960106852356166485e+01
3.924300000000000122e+00 -1.787600000000000078e+00 4.974200100000000191e+01
4.376384757113254587e+00 -2.145661930256357763e+00 4.978201046349541770e+01
-1.019271932846128159e+00 -2.502906956245436465e-01 4.804655270947656476e+01
-1.454660506646063611e+00 -7.640674954106436711e-01 4.788945017540741844e+01
-5.706367356105319644e-01 1.773999666037591183e-01 4.816864141740180116e+01
2.330100010515589570e+00 4.646298790223668540e-02 4.931919900278886360e+01
1.514386886982631353e+00 4.106489366513077499e-01 4.896842295766404618e+01
3.769994601040961513e+00 -4.758070179037772185e-01 4.977238500409797695e+01
4.293677864720627291e+00 -1.161895303607484831e+00 4.990601604199538599e+01
-1.814485407885032986e+00 -1.165691779107015602e+00 4.763958946360421720e+01
6.992619094054295381e-01 7.745730418895926395e-01 4.861789978216391717e+01
-4.177053981743936717e-01 8.024047657966884017e-01 4.816609640270776538e+01
3.005606502039182004e+00 5.708460223746736339e-02 4.954787595111352516e+01
4.563664486967366152e+00 -1.651262903705672525e+00 4.989916112548633009e+01
-1.228984476168618389e+00 4.512697785453916310e-01 4.790640508101228079e+01
-1.735750638184685446e+00 1.007358160187437068e-01 4.775627939838603453e+01
-1.170928849567141050e-01 1.139046128636636679e+00 4.826684775613794898e+01
1.921739201312976597e+00 6.735697868007439748e-01 4.910847244867944994e+01
2.706083710857853486e+00 4.648657901070104570e-01 4.946326754108981305e+01
-1.953726078591412563e+00 -1.557262523192441961e-01 4.767760656759246274e+01
1.106744551898040552e+00 1.036974747208431413e+00 4.875804170896948619e+01
3.681442100685781149e+00 6.771137915978389654e-02 4.977666431019807192e+01
4.937985070391163411e+00 -1.991923074466457333e+00 4.992537357071864790e+01
4.662913827641436804e+00 -5.364321763482250427e-01 5.006996791519109991e+01
-2.513168589862758484e+00 -7.809304475932865586e-01 4.728904291728352405e+01
-9.325103448618032864e-01 1.503099761364047993e+00 4.791619889784578845e+01
-1.438698009342392670e+00 1.152830250002923496e+00 4.776625709646327778e+01
3.306687779826421369e+00 4.430022752267735453e-01 4.966531383914875875e+01
4.356694374414280091e+00 7.832898393462808806e-02 5.000525519825402654e+01
5.169519656911692351e+00 -1.041133886048961177e+00 5.011246815359234574e+01
-1.945722235007510736e+00 8.019818587166436252e-01 4.761606749075882306e+01
4.272848481904976126e-01 1.488141670497818092e+00 4.845418616200709749e+01
-3.890981499350498751e-01 1.852086503452265553e+00 4.810316471430919449e+01
2.297955487865804614e+00 1.091110354812811378e+00 4.925268634068241624e+01
3.081686648568171982e+00 8.828448476353858432e-01 4.960719017843361911e+01
3.851219404741381247e+00 6.531014055961810172e-01 4.985785469179881346e+01
5.203331203022504070e+00 -1.514861360547181679e+00 5.005639554093140475e+01
-2.451999855599661604e+00 4.516498239816839622e-01 4.746609906129513234e+01
-2.852027725416503845e+00 5.453881277008409967e-03 4.718835645078506502e+01
1.514224403233245697e+00 1.299376709568934807e+00 4.889818251361356971e+01
5.032099999999999795e+00 8.894899999999994478e-02 5.023389800000000349e+01
5.515106911790685906e+00 -3.544982498953447303e-01 5.027947134612987412e+01
1.106848766235700499e+00 1.924969920291301984e+00 4.868796439041886970e+01
-1.319725818002527307e+00 2.157707713212865919e+00 4.767512508828540518e+01
-2.406396404460933613e+00 1.673242245979000398e+00 4.733363367110948161e+01
-1.709057127554706401e+00 2.006861561285003148e+00 4.755846533128617182e+01
3.457154545901805598e+00 1.300673629317360191e+00 4.975106107132814515e+01
4.632510644998536264e+00 6.319583812248732446e-01 5.012098210470167459e+01
5.842330363376968094e+00 -1.378602165935880475e+00 5.021346586665953282e+01
-2.924640584982964864e+00 1.165265958689353454e+00 4.719844201937646488e+01
-3.252014688133682441e+00 -4.406951787960684541e-01 4.691064238739738101e+01
1.890250297956800329e+00 1.717075903418530114e+00 4.904230484712621063e+01
1.553052905017873186e-01 2.201709488810969617e+00 4.829047162030074247e+01
-1.090169942265648562e+00 2.634979362242122036e+00 4.771472317362711379e+01
4.232757615850577082e+00 1.175190520855400989e+00 5.000801996784148429e+01
5.998474680595120567e+00 -7.982768015721868338e-01 5.032507874034723017e+01
-3.234779510083983123e+00 9.112856294654125833e-01 4.703179704174914377e+01
-5.547621380998043472e-01 2.725031023678432085e+00 4.792923720712738600e+01
-1.706923809940243064e+00 2.812285607734290593e+00 4.743406223690416113e+01
2.673803253849575956e+00 1.508909920797240511e+00 4.939672546089496308e+01
5.434272791851755713e+00 7.531721319815163351e-01 5.038134424794705524e+01
5.787654133392027056e+00 3.495684915914936131e-01 5.041806907182223796e+01
-3.809773464597959514e+00 4.608002442794560949e-01 4.664821140327025262e+01
1.482406142652543224e+00 2.342974822833699733e+00 4.883186567747722506e+01
-2.487167757272878976e+00 2.511636166058093256e+00 4.720001155165508067e+01
2.266275758549589625e+00 2.134775429347997022e+00 4.918642699320215428e+01
3.049647757168543638e+00 1.926708530643130857e+00 4.954076319676369877e+01
3.832800012637967768e+00 1.718699982826031869e+00 4.989500000357124065e+01
5.034642435301802443e+00 1.296213329839463357e+00 5.026841609918975706e+01
6.482000029481369552e+00 -1.242200019146613821e+00 5.037070100003041517e+01
6.270789574467180216e+00 -9.425043856286219324e-02 5.046362453788331237e+01
-3.397270615553672712e+00 1.878865981808930385e+00 4.693079101573037804e+01
6.991900823987491354e-01 2.550999873462842515e+00 4.847760004252025823e+01
-1.448620588875426662e-02 2.996489067921336513e+00 4.812414015249977695e+01
-1.276795674396600244e+00 3.177459123594736923e+00 4.757143262503797843e+01
-3.034018427179742794e+00 2.284741817171664913e+00 4.701943953450759750e+01
4.635011800881241761e+00 1.839253596755989983e+00 5.015548783538116595e+01
-4.018303624001190677e+00 1.371358475837310298e+00 4.659708196196934438e+01
-4.194697897228683914e+00 -1.597964332579165925e-01 4.636528704082046914e+01
-7.291988416774290993e-01 3.442624990584897127e+00 4.777016700836252738e+01
-2.094220906250337855e+00 3.467030408829567811e+00 4.719293776058067635e+01
1.900321345372534942e+00 2.656048061077705746e+00 4.898306942663125341e+01
3.470369861480026685e+00 2.427323259330060434e+00 4.967644089441918709e+01
6.753924952622293532e+00 -5.380723271837042354e-01 5.050917960703907994e+01
6.542336335167897587e+00 6.098875707040549710e-01 5.060202763774584156e+01
-4.474907224069385236e+00 1.056256187981680528e+00 4.629596843965743602e+01
-3.651899999999999924e+00 -8.867300000000000182e-01 4.663299899999999809e+01
1.211036734707990892e+00 2.874372712914249561e+00 4.866814680837118345e+01
-2.398403484353033299e+00 3.049095755114882955e+00 4.714842735118588735e+01
-3.263547454130331538e+00 3.015290343172428500e+00 4.684235486255369096e+01
2.569151483754984255e+00 2.703914148334054079e+00 4.926547978384046900e+01
4.243818249944981247e+00 2.157356373631396540e+00 5.002536103012119639e+01
3.344571693793101375e-01 3.277039061015421417e+00 4.821857928705095020e+01
5.435941909126841054e+00 1.959614631461095824e+00 5.041555948934330189e+01
7.154650621000890887e+00 -8.549861637144182680e-01 5.050570470438849213e+01
6.189124671792187726e+00 1.013201105837773897e+00 5.056531142666327128e+01
5.835913659423312083e+00 1.416515665373579314e+00 5.052859544947944670e+01
7.025779884491193172e+00 1.658759894146197844e-01 5.064762285562702715e+01
-3.869900007845322065e+00 2.592465041223449340e+00 4.666314037354255362e+01
-4.738296800814241649e+00 5.682121746456603173e-01 4.609718020826923635e+01
-1.442629466715038555e+00 3.887960865459184401e+00 4.741682877653551742e+01
8.461479214299080231e-01 3.600066134704387633e+00 4.840909986506806462e+01
-4.263918005947269663e+00 2.161733577825209807e+00 4.645276988343388069e+01
-4.802599937987412915e+00 1.831886242460843306e+00 4.616193857079048968e+01
-4.909113004710491168e+00 2.143909202943206083e-02 4.587148678545787561e+01
-2.861875036183099574e+00 3.673234661148661928e+00 4.688464760144783128e+01
-2.156237981512434843e+00 4.333407679427051740e+00 4.706340245415863421e+01
4.654399948917847141e+00 2.595545738947256709e+00 5.015558363244385731e+01
-3.008793049335534153e-02 4.002702402118742953e+00 4.795969221205164956e+01
1.722385819474169910e+00 3.197431022314999538e+00 4.885850835501914702e+01
3.909974796038200306e+00 2.965137478481433053e+00 4.980937562712178845e+01
3.108058132288684217e+00 3.135713699583127401e+00 4.945795331760027125e+01
5.250662261027816413e+00 2.496890489973100369e+00 5.035074642908704590e+01
7.356985939882682679e+00 -2.311408189271133007e-01 5.062405345625669639e+01
7.297900361958189919e+00 8.705105400335925170e-01 5.078620139126491040e+01
-5.282256898611325191e+00 1.296699894295954003e+00 4.582889485420737685e+01
-9.185179998079644470e-01 4.307936374330521012e+00 4.755889761751125633e+01
-2.482160544557240556e+00 4.122861776480593932e+00 4.695141321078767049e+01
7.448154121829927421e-01 4.204836142237300400e+00 4.828520332957052830e+01
2.233640918751834015e+00 3.520429953897480146e+00 4.904883491339101198e+01
6.591186473168278326e+00 1.676804675457821858e+00 5.071267599648833624e+01
6.944643283305130588e+00 1.273543193686990094e+00 5.074944890689666011e+01
-4.039822633007950081e+00 3.518875485943605774e+00 4.648474647303348917e+01
-5.581720877951179993e+00 5.076100793060467353e-01 4.546413336107195846e+01
-1.598464328931490597e+00 4.589353240085365826e+00 4.724463616938545130e+01
-3.555655308496320721e+00 3.837909346838837443e+00 4.660939540373691869e+01
1.533096419902849838e+00 3.842686487715547550e+00 4.868949125270609102e+01
5.983546611103720103e+00 2.544759614842383222e+00 5.058923568888192079e+01
6.237700772143917938e+00 2.080100881491901976e+00 5.067590072431964643e+01
7.826646951113190198e+00 -4.681489724167515742e-01 5.064057708994526763e+01
7.898457944338137082e+00 3.946294062502664901e-01 5.078085165035872706e+01
-4.612362989560590876e+00 2.800017238432525701e+00 4.625404908211775279e+01
-4.343571084497254375e+00 3.307634019081511667e+00 4.639489985982530840e+01
-4.999294688066056480e+00 2.452502033495636891e+00 4.604652294656322908e+01
-5.825315385194484996e+00 2.023979738689940078e+00 4.556105387569269993e+01
-3.519656750686400493e+00 4.527239526758700450e+00 4.651522097026489888e+01
-2.870400010622993658e+00 4.779200042448301211e+00 4.670970198683944830e+01
-4.168092957275250754e+00 4.275596771009650965e+00 4.632098588159781372e+01
5.065385215475473935e+00 3.034167299040774868e+00 5.028593420930514668e+01
4.466347861120747886e+00 3.151788017261242913e+00 5.002434631556718614e+01
3.428300559883571630e+00 3.751134364510246400e+00 4.953364124018266779e+01
2.745800015395868598e+00 3.843999969898032276e+00 4.923949800928428999e+01
5.729637446068033491e+00 3.008970657557215489e+00 5.050265419972863157e+01
7.619936884868987015e+00 1.780152319750496481e+00 5.132301898883888214e+01
-5.585544235770556476e+00 2.291619104736431378e+00 4.572754522540665789e+01
-5.953728204641461907e+00 1.362927207994700574e+00 4.534578834261065339e+01
-5.267250269754578440e+00 -3.900280448784174681e-01 4.553232847070464828e+01
-3.944024928772049687e-01 4.727910878329470989e+00 4.770096822079126042e+01
-1.463255099458685038e+00 5.228800703773513803e+00 4.719775735987642662e+01
-2.166545715541793538e+00 5.004090401496446461e+00 4.695382743155268912e+01
4.110348549171757071e+00 3.658332131461100811e+00 4.982758924073470297e+01
8.095454606852955592e+00 1.322898631544150660e+00 5.132403192785447033e+01
-4.817700000000000315e+00 4.023500000000000298e+00 4.612639999999999674e+01
-6.074171609418550943e+00 -1.419088508281295402e-01 4.498250682851519144e+01
2.044082819708473941e+00 4.166303040922376688e+00 4.887961627386656716e+01
1.343807128205765533e+00 4.487942447063323570e+00 4.852047413568829626e+01
6.434816198284689648e-01 4.809605510177334509e+00 4.816130629436747768e+01
4.793224714579494616e+00 3.565416627404768057e+00 5.012189421127949629e+01
6.712395724247642192e+00 2.934541605691519450e+00 5.121823079043824833e+01
7.090131966847581069e+00 2.384928538485578731e+00 5.126802447149625408e+01
-5.851638830221538967e+00 3.175252769840819944e+00 4.557085940581559669e+01
-5.334946473021651592e+00 3.599149085588350783e+00 4.584848083828260457e+01
-6.368400000000000283e+00 2.751300000000000079e+00 4.529320100000000338e+01
-6.496829726792006099e+00 2.090087988403419139e+00 4.507789367556477345e+01
-6.753565508390560801e+00 7.682787166027131853e-01 4.464748305926227800e+01
-3.586122252632901741e+00 5.360424111198531349e+00 4.631288694954363905e+01
-3.046780480819966108e+00 5.483999481867402714e+00 4.649118818330580893e+01
-5.790452727144224099e-02 5.131756703085865290e+00 4.780159430221596040e+01
5.476099999999999746e+00 3.472500000000000142e+00 5.041619899999999888e+01
3.308412087619382991e+00 4.172148724287686683e+00 4.941769565527280150e+01
2.534340335318227666e+00 4.450185512886152495e+00 4.902991112915446337e+01
6.331256287204957367e+00 3.630824652678259934e+00 5.108814580238129821e+01
7.941873000000000182e+00 2.689509999999999845e+00 5.185966899999999669e+01
8.417373412103552610e+00 2.232359487526763608e+00 5.186071994978544097e+01
-6.625202641262134762e+00 1.429154833246600642e+00 4.486267954669497726e+01
-7.590600000000000680e-01 5.453800000000000203e+00 4.744200099999999765e+01
-2.299597421587925794e+00 5.818276425077938185e+00 4.673059229493725297e+01
-4.383317192558916275e+00 5.173407713264823293e+00 4.604810683442121899e+01
-5.046248169589122590e+00 4.793808658290037883e+00 4.587550990206461421e+01
5.047116269457503357e-01 5.344823613681056962e+00 4.799646528892829167e+01
1.289000731398231903e+00 5.277339540829875553e+00 4.834053349600159066e+01
4.613369546879005689e+00 4.196896065494796879e+00 4.994797325288096346e+01
3.870631521452856827e+00 4.500067692687011345e+00 4.959576906128577889e+01
-5.496664471185187750e+00 4.512919473483684385e+00 4.566361838809880425e+01
-6.882100000000000328e+00 1.065199999999999481e-01 4.443199899999999758e+01
-1.464379534060652466e+00 5.990688606324845900e+00 4.703980380007109119e+01
1.773435599446138378e+00 4.706654301854793943e+00 4.865815524266024994e+01
-9.464952651112745752e-02 5.658110169827928360e+00 4.768152880416657524e+01
5.316268024611351173e+00 4.033933778867261566e+00 5.026160060529258544e+01
3.096678756183469883e+00 4.778858005954043975e+00 4.920788851302821598e+01
7.564714706667957422e+00 3.239203468071270020e+00 5.181023757247476880e+01
7.187272130331357367e+00 3.789309838987803936e+00 5.176076831664983047e+01
-6.142537954677567136e+00 3.982207810762258049e+00 4.531666542335067760e+01
-6.982640375396682586e+00 2.930418912186863789e+00 4.476524428520510668e+01
-6.659205249247948544e+00 3.558123396886665013e+00 4.503907699235636386e+01
-7.272135222989350112e+00 2.106260580010251626e+00 4.437997409658651549e+01
-7.122966489334093154e+00 1.341441307769673630e+00 4.439986803021184869e+01
-2.168123706514700544e+00 6.526378048786245500e+00 4.663850492493889277e+01
-4.300685387012158856e+00 5.940707347885405554e+00 4.591671445351837377e+01
-3.699958260213851879e+00 5.972560664316965529e+00 4.613805090129744713e+01
2.322695331805600283e+00 5.056899165903345761e+00 4.882014117974459566e+01
5.886798147093790234e+00 3.993774697009893959e+00 5.079781450077224747e+01
4.433323399977549428e+00 4.828263570256819293e+00 4.977399189135228141e+01
-7.270831049343174257e+00 7.789827011998400330e-01 4.418183466438563300e+01
-8.659982900522793514e-01 6.083318894969926838e+00 4.724243060001375483e+01
-3.223164082126848573e+00 6.188806065056632555e+00 4.627267161029370612e+01
-5.274708371576747545e+00 5.563816176149360082e+00 4.562471710152218662e+01
5.696546293645418091e-01 5.862387646357848148e+00 4.792101827958090610e+01
-2.016084524317844906e-01 6.287416303369914417e+00 4.748200114055002530e+01
3.658914234783138930e+00 5.107151544242746866e+00 4.938589563446435449e+01
5.156433359686018569e+00 4.595366574099767121e+00 5.010699969215644245e+01
6.948330033960401053e+00 4.412768994566988567e+00 5.166135484618295948e+01
-5.658059969889738028e+00 5.192471350828695265e+00 4.546515129178862225e+01
-7.625266603483065175e+00 3.009766749441800116e-01 4.384037941164907437e+01
-1.570499661821949111e+00 6.619411937084276332e+00 4.684074352506474526e+01
-2.758608748103595243e+00 6.448801423920427212e+00 4.641073706890419714e+01
-4.852682664527852019e+00 5.845304210080345619e+00 4.572613405687575749e+01
1.234196928974601093e+00 6.066737979853618512e+00 4.816059368285216635e+01
2.110929569854127053e+00 5.663956215418340712e+00 4.861025208670643138e+01
5.707999449279294701e+00 4.473448735637075124e+00 5.062605170773753827e+01
2.884945095056258957e+00 5.385566933186749061e+00 4.899808129805521872e+01
-6.950125841875229860e+00 4.365266807725494580e+00 4.478485219037739284e+01
-6.562525365037929603e+00 4.683549746091179244e+00 4.499308436649274512e+01
-7.596803567407657276e+00 3.109515620829097937e+00 4.423735395732277453e+01
-7.273488010295593220e+00 3.737389834627234286e+00 4.451108308919750556e+01
-7.659203228775394834e+00 1.450824596240493092e+00 4.393190127624253449e+01
-2.075670138662567776e+00 7.185945511221351722e+00 4.650666015961358113e+01
-4.166271611316936685e+00 6.625881659779967237e+00 4.582047375934965316e+01
4.623044235941454749e-01 6.491727480847854892e+00 4.772131211512106574e+01
-9.728736733414463655e-01 6.712445754335524484e+00 4.704298287745167073e+01
6.297530272647313687e+00 4.515092795480284416e+00 5.117946157171134303e+01
4.996600006275476069e+00 5.156799977956654679e+00 4.995240000606998620e+01
4.221783757445325413e+00 5.435558747603851160e+00 4.956415365136872708e+01
-6.174925073301578138e+00 5.001833712142194521e+00 4.520131622613248368e+01
-7.904443553997740679e+00 2.678077528851921851e+00 4.389466777616046045e+01
-8.047439366651023107e+00 2.122431819202815539e+00 4.368205553628722981e+01
-2.871682408792999297e+00 7.061926311513689214e+00 4.623731181121235068e+01
-3.399514940470178104e+00 6.893482206236928533e+00 4.605419553892632223e+01
-5.015251201738982090e+00 6.520991915506153092e+00 4.552054065325062737e+01
-6.112249379282423511e+00 5.838885839659305077e+00 4.510546981921266507e+01
1.899100000000000010e+00 6.271200000000000330e+00 4.840029899999999685e+01
-3.087433616837007011e-01 6.916367795339349200e+00 4.728248308507639308e+01
3.549539233689356088e-01 7.121068373791889172e+00 4.752160556520606605e+01
3.447196568325651356e+00 5.714235535521390297e+00 4.917602194684500461e+01
-7.887767165846914175e+00 3.916655489112827127e+00 4.398309228351482147e+01
-8.256991820480530819e+00 1.393509406415250007e+00 4.343380917088613558e+01
-5.503041411122039150e+00 6.333404401427088715e+00 4.537406243341742851e+01
-1.079644341621644354e+00 7.340957141615857218e+00 4.684373043989901220e+01
1.127263207102382925e+00 6.696004392676728756e+00 4.796108664080023942e+01
5.852329222130157937e+00 5.097087373874887639e+00 5.075665469860589241e+01
2.673469202520199151e+00 5.992601247346732052e+00 4.878832150889000729e+01
-7.564427881595603864e+00 4.544530811899532452e+00 4.425684176317338370e+01
-6.853187574828623063e+00 5.490747003892659350e+00 4.473901311880825915e+01
-8.211240658414302729e+00 3.288692049370296022e+00 4.370922818281069766e+01
-8.436113548021840103e+00 2.794797066007238318e+00 4.343192793585418343e+01
-1.983212066637698667e+00 7.845512964444670168e+00 4.637481709814096575e+01
-2.779546594766105549e+00 7.721700175794924625e+00 4.610529482090317543e+01
-5.012557799792684676e+00 7.267607019672786883e+00 4.536105800082938089e+01
-4.294715938593183679e+00 7.432630051232753665e+00 4.559825154891618126e+01
1.881819105644951362e+00 6.977648298962375151e+00 4.815843386784514024e+01
-4.158751428294177876e-01 7.545317902302031143e+00 4.708296672781409598e+01
6.708971985815664674e+00 5.037311247572819894e+00 5.156176793977424211e+01
4.937738635286386568e+00 5.780791498227842773e+00 4.974734838663626846e+01
5.540577099721193832e+00 5.575607893735143428e+00 5.037678843263769579e+01
3.403285796621200898e+00 6.182120303807241868e+00 4.902235759388841529e+01
-7.241147427295576477e+00 5.172690417592960443e+00 4.453053913451240930e+01
-8.693959694854205722e+00 2.149607344312236545e+00 4.315262228142300671e+01
-3.575800000000000090e+00 7.597900000000000098e+00 4.583579999999999899e+01
-6.331824331317134735e+00 6.728152012990512354e+00 4.484099608052056141e+01
2.629215602654507933e+00 6.460597378158135839e+00 4.863448890848751205e+01
1.010311336292505136e+00 7.520115009314702448e+00 4.764159413484050987e+01
2.363941667292408511e-01 7.673378708458075792e+00 4.729198325186626306e+01
4.148556012369239099e+00 6.215397808179666583e+00 4.930802024439623921e+01
-8.501846680184051763e+00 4.095878808947218452e+00 4.345527298330569721e+01
-8.178729474035383973e+00 4.723795557650319665e+00 4.372883171538469327e+01
-9.082773107702767135e+00 2.822280339855641529e+00 4.290241198691806801e+01
-5.731200000000000294e+00 7.102400000000000269e+00 4.512360000000000326e+01
-1.186399965055949357e+00 7.969400053651984450e+00 4.664450098912171683e+01
-6.931934891741878602e+00 6.354224155739735203e+00 4.455863389894671656e+01
-4.285931015453683379e-01 8.074164549300153482e+00 4.690199097953885854e+01
6.669512304762826638e+00 5.726038947263099033e+00 5.139422471168895612e+01
-7.855320318210253561e+00 5.352278428723595383e+00 4.400263762610182994e+01
-7.532199368218595481e+00 5.980199962907157385e+00 4.427619936491961994e+01
-8.825100000000000833e+00 3.467699999999999783e+00 4.318159899999999851e+01
-8.895242217863900791e+00 1.405975193403796064e+00 4.290965604934410749e+01
-2.447583353699981590e+00 8.332653581807598187e+00 4.597055972939463686e+01
-3.158829173940716828e+00 8.264100512041185453e+00 4.571126911086664535e+01
-5.080943706724091236e+00 8.182746047802540446e+00 4.490248126502793014e+01
-5.406059480620542423e+00 7.642592713445844232e+00 4.501303697502805079e+01
2.611970888383749134e+00 7.166453757593727936e+00 4.839283526243866618e+01
3.300126348997953762e-01 8.179040103394948247e+00 4.715975212611311917e+01
3.359377098469100709e+00 6.650005093665175337e+00 4.886869405640787534e+01
4.878872947792827652e+00 6.404800081749991492e+00 4.954228854746402533e+01
6.084706677727036883e+00 5.994533299757425659e+00 5.080129579984226496e+01
5.444717520317671422e+00 6.120136005267713841e+00 5.015499264815516511e+01
-9.407750207465017667e+00 3.614718273662997028e+00 4.271663204800800173e+01
-9.340476742241861530e+00 2.176784216084546308e+00 4.262319189822212451e+01
-4.003238036305187819e+00 8.430821550797110930e+00 4.525843158362430785e+01
-5.992928189392521254e+00 7.840322461946452215e+00 4.446860254724600026e+01
-6.573877824583981067e+00 7.928493539357603481e+00 4.392953333332081201e+01
-6.893341130996880395e+00 7.279018030932537187e+00 4.404509579169347688e+01
-1.755198690516475146e+00 8.783356321248930954e+00 4.605335619947284442e+01
1.864567415553496588e+00 7.682902718608410453e+00 4.791697748149524472e+01
-7.844315200220157713e-01 8.586571986636457154e+00 4.651936486615229427e+01
-9.017877597880619156e-02 8.627696342581451461e+00 4.678082335506901046e+01
4.090219850938641599e+00 6.839590397157111923e+00 4.910311743933865358e+01
-8.832920828228763455e+00 4.806250583973559642e+00 4.327348424375851010e+01
-9.188404510905483491e+00 4.115338986842362878e+00 4.297251613371096823e+01
-8.477451915850640063e+00 5.496935664620236750e+00 4.357442545488807184e+01
-4.755471316058925701e+00 8.723488403164960658e+00 4.479180648790769936e+01
-7.212736431746868959e+00 6.629678410342281225e+00 4.416063504817515906e+01
-5.609411255731674650e+00 8.216421557708576628e+00 4.450381804349544979e+01
1.088706478185978765e+00 8.283926448928340847e+00 4.741754382351032859e+01
6.630073012224288576e+00 6.414411059033319873e+00 5.122676798115179508e+01
3.346527528013566233e+00 7.179421558786855506e+00 4.868747995901514258e+01
-8.154471993694739851e+00 6.125203967006295436e+00 4.384791304914038790e+01
-9.691133398848165825e+00 2.904569684083051495e+00 4.240955413898177540e+01
-3.365612074171395740e+00 8.873856804836156797e+00 4.533576518312057857e+01
-2.741405732717472343e+00 8.931022819214959441e+00 4.558660364395996112e+01
-7.990284701284122271e+00 6.746440244099093597e+00 4.391077113283495237e+01
-7.670658579831216350e+00 7.395977919745109652e+00 4.379523323632923848e+01
-6.254500000000000171e+00 8.577799999999999869e+00 4.381399900000000258e+01
-1.078763628922867035e+00 9.178801082185472637e+00 4.613559628491711351e+01
4.791664875066765639e-01 8.761210328938606295e+00 4.694873754465429272e+01
-3.826104963661174363e-01 9.203509514262142588e+00 4.639427834149294938e+01
5.724333452699238656e+00 6.721894334220536393e+00 5.028124999533015682e+01
4.820000000000000284e+00 7.028900000000000148e+00 4.933720000000000283e+01
-9.698014212490619457e+00 4.201090033565985316e+00 4.255960828385589423e+01
-9.990379790206798560e+00 3.761731015536865730e+00 4.225168152105146646e+01
-9.949040293268154755e+00 2.258556948185618918e+00 4.213011304444990657e+01
-5.038295452207478320e+00 9.034944606698285696e+00 4.439229623761134746e+01
-4.430500326115114795e+00 9.263400653559839881e+00 4.468129984673648636e+01
-8.776176010802322125e+00 6.270075637235521526e+00 4.342001801059678456e+01
-8.478371733889549233e+00 6.764287888159816298e+00 4.358213061262954113e+01
-7.351031793030569972e+00 8.045516481477363868e+00 4.367969524512611201e+01
-2.324199999999999822e+00 9.597599999999999909e+00 4.546200199999999825e+01
1.847300001119491331e+00 8.388800001553578412e+00 4.767530099953449962e+01
2.590809547080641817e+00 8.048671533811402767e+00 4.809096292050299581e+01
-1.542927262521675669e+00 9.671880744733947211e+00 4.573111867103683892e+01
4.076754300544319420e+00 7.368907515483626547e+00 4.892168564634233974e+01
-9.163997905098275609e+00 5.516624636980882457e+00 4.309169370073086469e+01
-9.551819884586977949e+00 4.763174490885112355e+00 4.276336938474195648e+01
-3.728856719594084268e+00 9.374727533737672758e+00 4.494136538335288122e+01
-5.646488588522536212e+00 8.806337622647451013e+00 4.410310509276163771e+01
-7.031517769422928055e+00 8.694893426365926103e+00 4.356417688377512576e+01
1.238067628874907955e+00 8.865888046722535165e+00 4.720671029262877028e+01
3.333681554354003040e+00 7.708835565053315797e+00 4.850626814057905989e+01
5.522200350176113659e+00 7.300912488278909152e+00 4.981489761624163748e+01
6.728851787695145248e+00 6.891431783798554811e+00 5.107446440153550071e+01
-1.037822850068193326e+01 3.053496068557508991e+00 4.185870684750640436e+01
-9.915236053360365176e+00 5.411009500562928842e+00 4.255422203908716483e+01
-3.026899959830061881e+00 9.486105441974036268e+00 4.520154534465851270e+01
-5.120872492066901316e+00 9.484451736766169816e+00 4.373499799521572129e+01
-3.745200406951080918e+00 9.685855289977423510e+00 4.463264498587432882e+01
-8.448242737108708766e+00 7.512468523423172506e+00 4.354544433894236022e+01
-9.397781799788051060e+00 6.414924897423260219e+00 4.299219054224975878e+01
-9.022678534155362584e+00 7.167248667896643610e+00 4.318650961576278036e+01
-5.687773750507447268e+00 9.031057141932262056e+00 4.377450310466100092e+01
-1.693292105742605358e+00 9.988536302378914655e+00 4.542400308140561549e+01
-7.616909663851212375e-01 9.746158024749524529e+00 4.600022278951410470e+01
6.283197809716982718e-01 9.343379761767469205e+00 4.673772310660746143e+01
4.935675965199014747e+00 7.585387316021822812e+00 4.912423438219415317e+01
-1.016569741275474925e+01 4.594139726301239790e+00 4.222638032799346774e+01
-9.735488962484454945e+00 5.976440651871518739e+00 4.272212690222342957e+01
-4.554700330462902791e+00 9.937267354651261542e+00 4.369553849831285675e+01
-3.925220974930716089e+00 1.005436275084842812e+01 4.414855647797172367e+01
-9.695073665350516734e+00 7.170046481840461894e+00 4.273542676123744855e+01
-8.128480168404056627e+00 8.162240435644953607e+00 4.342987058909120890e+01
-6.787638400119810456e+00 9.366389160606914288e+00 4.346707458645951760e+01
-2.006041477218287294e+00 1.027608805730949193e+01 4.497405738113702256e+01
-2.373766414403486458e+00 1.053127968309027906e+01 4.453527447847078236e+01
-3.059261694205965831e+00 1.010870443640185812e+01 4.458394373033048197e+01
2.232361479971411100e+00 8.923172276787912693e+00 4.751518594366837078e+01
2.677447119028733447e+00 8.465828409800920440e+00 4.793129140184435499e+01
-1.062677295689679724e+00 1.037929099781294262e+01 4.538602181496446519e+01
1.374070568910773948e+00 9.385806548278372574e+00 4.696938301977929342e+01
1.917400000000002436e-02 9.820399999999999352e+00 4.626919900000000041e+01
6.188050377053488482e+00 7.154707111766707150e+00 5.047004842044477613e+01
5.637987285078926547e+00 7.857092096547221516e+00 4.960220738685897857e+01
4.206751480686532929e+00 7.994349317425864854e+00 4.868232645428698646e+01
-1.057203063358680062e+01 3.908497715495970137e+00 4.178751215479012870e+01
-1.057925292122033234e+01 5.369400287572690722e+00 4.199390962178723186e+01
-3.987228378648721261e+00 1.039112032581042655e+01 4.365599123981546370e+01
-1.001924438470060963e+01 6.559740135543053796e+00 4.256446168536273689e+01
-8.906637374591779732e+00 8.279225039811583642e+00 4.317976963555207703e+01
-7.808720568013478136e+00 8.812014913757874268e+00 4.331429523399526005e+01
-7.411838711005177771e+00 9.345637081681990921e+00 4.329483846252341550e+01
-6.031982858021047278e+00 9.970713012671362563e+00 4.341442322865573544e+01
7.646925527320878047e-01 9.863065210762023582e+00 4.650064941535188723e+01
3.506707918416723579e+00 8.542773285893105140e+00 4.818700921465310216e+01
-1.027803424641218655e+01 6.057744532554027117e+00 4.234543046020129964e+01
-5.274937530357858506e+00 1.022387826148886347e+01 4.347303426827539852e+01
-3.420599659388782854e+00 1.084429749162677759e+01 4.361650379274016132e+01
-9.454912192058186449e+00 7.803755290723927374e+00 4.284828055381607470e+01
-1.688199481112779843e+00 1.095390068461384026e+01 4.448659859135251793e+01
1.936242965695767149e+00 9.470673727866953939e+00 4.711514908984659655e+01
-4.315139889295902531e-01 1.077038534052919694e+01 4.534800768570914897e+01
1.093910614381068541e-01 1.049122762794018904e+01 4.578936565244968193e+01
5.871094613749930913e-01 1.018996884584192664e+01 4.622129655725658637e+01
1.510075372054370035e+00 9.905723581250734711e+00 4.673205718517237983e+01
6.224784984583776826e+00 7.573073337952723527e+00 5.029285690581203738e+01
6.827561935311195818e+00 7.368121092134675365e+00 5.092226663683642585e+01
5.051192119738254327e+00 8.141108508725732662e+00 4.891156145406275613e+01
-1.085313210194355982e+01 4.744075814244011369e+00 4.167437289642237630e+01
-4.159310834318810102e+00 1.086081371518008432e+01 4.347599692064380150e+01
-4.897821572777020904e+00 1.087732299661798585e+01 4.333553088367352757e+01
-2.843228652013573665e+00 1.088082730301276513e+01 4.390648579285401354e+01
-1.000339277532521010e+01 7.875154229861511368e+00 4.247507160333751131e+01
-1.032231751934163277e+01 7.289562917095272709e+00 4.230574494182046408e+01
-8.587308196667605031e+00 8.929345370835951812e+00 4.306396827217996304e+01
-2.265796179569063096e+00 1.091735847305427853e+01 4.419650128547062451e+01
3.055264791007243019e+00 9.109745998393529831e+00 4.770730576994277783e+01
1.155080761318419968e+00 1.055956101267589275e+01 4.617339109171377487e+01
4.336749443149304994e+00 8.619790281153612455e+00 4.844296791842252503e+01
-1.115373225182137951e+01 4.055276955771090819e+00 4.132330224337402313e+01
-1.091487644654190348e+01 6.079046697201249572e+00 4.181694881230442462e+01
-1.118860545698037789e+01 5.454058349798064143e+00 4.149758631090045213e+01
-3.981575942591083273e+00 1.136674655101391629e+01 4.330000004635227384e+01
-1.064089957347112048e+01 6.704600783167884437e+00 4.213660022645690617e+01
-9.684586657428162937e+00 8.460526297854558564e+00 4.264433539237948878e+01
-9.365400270256580839e+00 9.046600484444411450e+00 4.281380079028397745e+01
-8.083145732268716799e+00 9.561632311283149832e+00 4.305054697146596254e+01
-5.636965652865104204e+00 1.089384476139107960e+01 4.319494507316125720e+01
-1.058681246501469442e+00 1.102309730751962391e+01 4.476118792243987343e+01
2.617097015647576352e+00 9.457088375343937869e+00 4.735520851999360303e+01
2.256237922257414485e+00 9.948426111526616822e+00 4.696370727974213111e+01
6.339538382975332453e+00 8.128908432631943626e+00 5.007943171448064135e+01
5.753117848969462322e+00 8.412854731978292477e+00 4.938916338423430830e+01
3.713902419408649624e+00 9.021806861834061664e+00 4.799376318246416417e+01
-1.146262945508479625e+01 4.828398212233000919e+00 4.117787990760091787e+01
-2.805963776382978558e+00 1.122005323763715268e+01 4.357930344933006239e+01
-2.191359504833076510e+00 1.159578694161812074e+01 4.354210783238708160e+01
-9.471410701338119908e-01 1.131444689614725796e+01 4.443587430710999087e+01
1.995195039772441614e-01 1.116140173294527038e+01 4.530999838851632688e+01
-4.293513605718981552e-01 1.109227417707896457e+01 4.503569403079879407e+01
8.960737388150606941e-01 1.120709779611860135e+01 4.556566904892926573e+01
1.989634804509865518e+00 1.043878315057014383e+01 4.654459722297181656e+01
6.926271999999999984e+00 7.844809999999999839e+00 5.077006899999999945e+01
5.166698870847755032e+00 8.696801019786311926e+00 4.869889698055595062e+01
4.444761638337345389e+00 9.128435634469683535e+00 4.819743096993778408e+01
3.722999407886606438e+00 9.559965428181936176e+00 4.769608658172474946e+01
-1.150128234833246843e+01 6.226271437914382645e+00 4.135808953029405188e+01
-4.542400280353144915e+00 1.188905150388609044e+01 4.298358479472829430e+01
-3.194115231965375390e+00 1.173968694839772020e+01 4.329626842239685658e+01
-1.075125871541393252e+01 8.067561620737045303e+00 4.201789436124121124e+01
-1.106972864688601987e+01 7.481774893002500981e+00 4.184884874113780739e+01
-8.861523852899733100e+00 9.678878681319332600e+00 4.280030038148165517e+01
-7.320610372637011309e+00 1.015473409461021426e+01 4.312025798912463870e+01
-1.576814570204433164e+00 1.197148160507006054e+01 4.350491864596924785e+01
-1.017748146684652077e+00 1.183848646488360146e+01 4.395858742716237089e+01
1.723032137033496225e+00 1.092913888914736376e+01 4.612548818822019570e+01
6.560671968128363396e+00 8.590128111224965224e+00 4.988616999667524254e+01
3.813860305229817005e+00 1.000786822908971985e+01 4.741661238060507344e+01
-1.186055364343363649e+01 5.622236455512201303e+00 4.097171136865524943e+01
-1.173679978971857096e+01 4.202400480122448378e+00 4.085800224533754488e+01
-1.122726031078371811e+01 6.851499412631320673e+00 4.167772880619243381e+01
-5.264457309340929925e+00 1.154767361934657544e+01 4.299335067594377335e+01
-3.843201954032308354e+00 1.197275916041877153e+01 4.308047158997612058e+01
-8.357572569092990733e+00 1.031125112537893607e+01 4.278679788259872652e+01
-2.055375984495244612e-01 1.167525872785419416e+01 4.438511234091366475e+01
3.001900000000000013e+00 9.991099999999999426e+00 4.719520200000000187e+01
8.811629068781805518e-01 1.148359901062305255e+01 4.526635063403723791e+01
1.593866031334948863e+00 1.125287847001001218e+01 4.582179006670276777e+01
2.646366269343784161e+00 1.064482128740223033e+01 4.663642521904395721e+01
5.974031855942204317e+00 8.874024567612607939e+00 4.919576783774095219e+01
5.528248877470745448e+00 9.150870702757076813e+00 4.849284248948000453e+01
4.626299381501702612e+00 1.002464998722567202e+01 4.763815083134498707e+01
5.077272864834558419e+00 9.587760877283054484e+00 4.806549593464860237e+01
-1.219534734825250766e+01 5.011428487052284275e+00 4.060439163817571995e+01
-5.103700515026295292e+00 1.241179972500468587e+01 4.266690101992592332e+01
-3.517377286792927826e+00 1.251565360701926366e+01 4.292156617984493749e+01
-2.724471114734652755e+00 1.256756457370649294e+01 4.304885737690781156e+01
-4.310435736368901871e+00 1.246373366796903603e+01 4.279425005885513400e+01
-1.931523054390349659e+00 1.261947705263593988e+01 4.317615594449502936e+01
-9.618528466053102299e-01 1.234743660002384402e+01 4.346769855668687654e+01
7.385823879240223100e-01 1.177918260377056470e+01 4.479673204408498322e+01
5.360090042307186220e-01 1.203604289112334591e+01 4.433435426733997531e+01
2.290799404884774404e+00 1.129859996095701824e+01 4.607759878156475253e+01
7.257844504101272243e+00 8.536392516612096415e+00 5.048027245261008744e+01
-1.139313527284827821e+00 1.267134195330664070e+01 4.330333551975621020e+01
-3.471999999999999531e-01 1.272320000000000029e+01 4.343050000000000210e+01
4.650003723800859579e-01 1.256002803006990121e+01 4.385697318593960858e+01
1.562479119745794787e+00 1.180564372572646015e+01 4.522272102209434763e+01
3.656578361807358846e+00 1.042368742894433531e+01 4.706584440690704696e+01
5.889269063910742119e+00 9.604277420302659962e+00 4.828708829285430681e+01
5.438242342039114163e+00 1.004141967838919669e+01 4.785955524062046607e+01
-2.834923705551444240e+00 1.336525323488954697e+01 4.258327851660060048e+01
-3.591356855726467678e+00 1.304736306876299601e+01 4.261115862434746049e+01
-4.347820734166941037e+00 1.272945869249068274e+01 4.263904058608297731e+01
1.277500000000000080e+00 1.239680000000000071e+01 4.428359999999999985e+01
4.161438121042844718e-01 1.311896232006617602e+01 4.336509032938696606e+01
1.179985525384234402e+00 1.351498511135396363e+01 4.329963601618222668e+01
-1.501263278482089403e+00 1.336302057353295503e+01 4.284720346486288634e+01
2.959840284041823200e+00 1.129627405798591511e+01 4.625997405533831142e+01
2.243721134867316280e+00 1.212765208252697846e+01 4.517909758956789545e+01
2.101478170761446496e+00 1.242348842654980245e+01 4.470933473272274483e+01
4.311216834103536399e+00 1.085624369228510133e+01 4.693649819866711681e+01
-4.816263231380220944e+00 1.329806461583946309e+01 4.233191342301471138e+01
-2.078599999999999781e+00 1.368309999999999960e+01 4.255540100000000336e+01
1.255817735969806392e-01 1.352862573599733764e+01 4.307488897039308995e+01
-9.237885303375377166e-01 1.304286467121203508e+01 4.313907566611860034e+01
2.904324322869261454e+00 1.159204318078636398e+01 4.602214472307195336e+01
2.608606013950832025e+00 1.187468280444794289e+01 4.560626761900759618e+01
2.005001776393662727e+00 1.275922715865313251e+01 4.421713928601523946e+01
