6.863397736624037293e+00 -4.703392940701341729e+00 4.960229892805519825e+01
6.286173930390917874e+00 -6.857494695903763038e+00 4.916060873508606477e+01
9.034543955117548819e+00 -6.269160298249834007e-01 5.044962954581151848e+01
5.171433795279908097e+00 -1.073275266684968798e+01 4.540960226399154465e+01
4.699355361554511390e+00 -1.095122873636458216e+01 4.484052222753801686e+01
5.030094793645329965e+00 -1.169833997607442377e+01 4.312055316652885040e+01
5.064865407077795645e+00 -1.192654346533290344e+01 4.250261057717600011e+01
4.796174042482535427e+00 -1.137659553582668259e+01 4.389855708185649519e+01
5.423068618983570843e+00 -9.190450067909484488e+00 4.766998538200696345e+01
5.039395344268359445e+00 -9.823789144206614310e+00 4.676373836822775587e+01
1.016248494886356823e+01 -1.331121864500889806e+01 3.322196190215538536e+01
8.653925081650559292e+00 -1.336204659256399374e+01 3.495413781790854557e+01
8.600558491075778633e+00 -1.342130376739035125e+00 5.032112557153519106e+01
7.753417348584208391e+00 -3.187320903929935056e+00 4.997345729213360954e+01
6.652704863853702300e+00 -5.310601474113761711e+00 4.948168908672904820e+01
9.853187167577125649e+00 6.410271397244470259e-01 5.152178283335530296e+01
6.090409998394707536e+00 -5.671431036895359767e+00 4.935907899940127663e+01
5.144559522973203514e+00 -1.039112055771001231e+01 4.599095134400776885e+01
4.856144719028453238e+00 -9.267070215580499593e+00 4.736969094438011751e+01
5.292122429219302759e+00 -8.517174412658723881e+00 4.823408533654759367e+01
5.719596768930218289e+00 -7.818344360794628578e+00 4.871717043532499503e+01
7.161198323192023985e+00 -1.318102913709106438e+01 3.704879027138853331e+01
7.626856291483751882e+00 -1.328900017954795487e+01 3.607460388935881213e+01
5.599712767851380946e+00 -1.264978123905608243e+01 3.980935524997930486e+01
4.700161056817859340e+00 -1.210120521685906247e+01 4.158834157672242071e+01
9.388432414923547853e+00 -1.337045298301100438e+01 3.431928118602246514e+01
5.560039269976350340e+00 -1.279260035131619055e+01 3.888083561093185381e+01
7.895397581155362055e+00 -2.502616373802343475e+00 5.011374351799093319e+01
8.050054717181961195e+00 -1.767520729546386615e+00 5.023742318934436923e+01
6.849799886497028645e+00 -4.212956908019139135e+00 4.967401333671188723e+01
5.675412699088933977e+00 -7.161853711075033324e+00 4.902855299588132709e+01
5.827694798790553854e+00 -6.413022540621464707e+00 4.919570624808829251e+01
9.106387389814520006e+00 1.699453837186385985e-01 5.100218325181587176e+01
4.539954831225895937e+00 -1.047216077533927603e+01 4.560686676062994849e+01
4.993580473071522086e+00 -8.853346819204229945e+00 4.780318921515621611e+01
4.705571517872503051e+00 -1.011729903293119825e+01 4.619256856538036971e+01
6.033895739048075413e+00 -1.306958087498343879e+01 3.749781779710727392e+01
4.881136908898120019e+00 -1.236212572938368304e+01 4.057852479152377612e+01
8.590330624747517518e+00 -1.338815956466952528e+01 3.424739850802020413e+01
7.374735289186078013e+00 -2.170691704814250222e+00 5.009759303041875711e+01
8.203943862504734952e+00 -1.033431055452713743e+00 5.036117079352458603e+01
6.987894852727740691e+00 -3.527927465150220154e+00 4.981320192041965811e+01
6.251721626460262193e+00 -4.849177039205017969e+00 4.951017366227173255e+01
4.002529677683673626e+00 -1.105719753624334345e+01 4.421205938044972328e+01
4.014606739384364076e+00 -1.079270945553167316e+01 4.483944276469883761e+01
4.338507001626541459e+00 -1.179769696020303904e+01 4.249592039685620648e+01
4.159843893843309992e+00 -1.143122331671312963e+01 4.342636346348157872e+01
4.381679439672259591e+00 -9.621162374620594093e+00 4.676579107266750412e+01
5.155920474184026325e+00 -7.877776876678082907e+00 4.854589403949504600e+01
9.106493984305872758e+00 -1.334866985888637636e+01 3.351584462267654629e+01
5.520353794831027727e+00 -1.293545024654339315e+01 3.795199699137634752e+01
6.320607661197866989e+00 -1.312965407566956699e+01 3.703611625081827441e+01
7.805052496058712208e+00 -1.333990338054632119e+01 3.491111238177117571e+01
7.529772621997419257e+00 -1.435962164297009735e+00 5.022087600388935158e+01
7.128202582237778806e+00 -2.842924502350103300e+00 4.995278723511016494e+01
6.224141155599006048e+00 -3.868518135807787584e+00 4.965390171979780121e+01
8.357675423028124939e+00 -2.989791544529487033e-01 5.048515687607478952e+01
3.935278935297067182e+00 -1.055319952999570354e+01 4.522272568615699129e+01
4.391583283851272057e+00 -8.869639748006903801e+00 4.754378058004349583e+01
4.066449283471362364e+00 -1.014812572422043502e+01 4.586581643503031813e+01
4.659933007588325182e+00 -8.256949884246836291e+00 4.821799574298720614e+01
5.039024478778905802e+00 -1.265369263185892379e+01 3.930472865254706250e+01
4.154664755506725093e+00 -1.212415270675161594e+01 4.112770780354183842e+01
4.830249283652147341e+00 -1.253557209911315695e+01 3.979379259362730892e+01
7.018587101455151078e+00 -1.329164691815974031e+01 3.557480494181616137e+01
6.854848491187962800e+00 -1.839265255250169595e+00 5.008199101917004725e+01
5.932011292156437854e+00 -4.431741314271287813e+00 4.953476188854164519e+01
5.362552538204000463e+00 -5.962199861541186863e+00 4.921757685817580352e+01
5.089181558386626669e+00 -6.892791184033879581e+00 4.901190726057980385e+01
6.362244895710259307e+00 -3.183372381361286863e+00 4.979451509869612380e+01
9.267968329505050562e+00 9.729916850682510665e-01 5.156453219377236508e+01
7.683528044958862324e+00 -7.017569187517364027e-01 5.034429523731209599e+01
3.330263837687642781e+00 -1.063427506168114078e+01 4.483835476936789632e+01
3.981640720101664144e+00 -1.190951525606219619e+01 4.182623318683621960e+01
4.290144882016617700e+00 -9.342868223308920861e+00 4.706900666870680539e+01
4.592146130241069990e+00 -7.937310443024130358e+00 4.837459684931395287e+01
4.840657287021604915e+00 -7.414980904464351319e+00 4.869362158770358207e+01
4.478169161886426330e+00 -1.265760517367328042e+01 3.879991175254230029e+01
6.247335399123269184e+00 -1.318494291392067552e+01 3.629916673251636894e+01
5.480689085552327811e+00 -1.307823705768873346e+01 3.702342603729741910e+01
7.741637040296117434e+00 -1.336601804489230005e+01 3.420428613724226352e+01
6.607877338900577158e+00 -2.511225232382567452e+00 4.993778794782598851e+01
7.009494225387436828e+00 -1.104405000124407010e+00 5.020481206098649096e+01
5.559260885116634299e+00 -5.406101186567816796e+00 4.934004845817642604e+01
5.165918911457995755e+00 -6.518344352250410090e+00 4.909510476826569914e+01
8.521208309271882442e+00 5.019399481893858095e-01 5.104563816762848916e+01
3.618299131963140791e+00 -1.120954524469913771e+01 4.364778520653471361e+01
3.182887826591309643e+00 -1.093451321799161313e+01 4.405341433507836513e+01
3.523938133519790128e+00 -1.148580817473421867e+01 4.295446691846587584e+01
3.613157116568473715e+00 -1.166902575356665217e+01 4.248923391582148668e+01
3.592944798063141043e+00 -9.824037799606809784e+00 4.612468238541287491e+01
3.927025972655890929e+00 -8.471498299046555047e+00 4.772106886429783401e+01
4.265734751638246003e+00 -7.310503712168226365e+00 4.860060487169680243e+01
4.731635484882733778e+00 -1.281963809445999836e+01 3.800196803125977141e+01
4.319077239154993642e+00 -1.231516354109579581e+01 4.040927603734851203e+01
6.410271950703783084e+00 -1.329429307555755990e+01 3.507494704051216416e+01
5.640145230764718853e+00 -4.994996313077536776e+00 4.941562220495301716e+01
5.598319291035950940e+00 -3.523985361535417749e+00 4.963118299999999294e+01
7.749402387804197545e+00 1.727579729419342069e-01 5.046666334583134272e+01
3.461544266133905090e+00 -1.022939601827861722e+01 4.548130666189064186e+01
3.724327793148967114e+00 -9.418635850725641134e+00 4.676782085249337229e+01
3.825692824439307138e+00 -8.945561841265762482e+00 4.724357116476735285e+01
4.028366573908266801e+00 -7.996979197474942680e+00 4.820331088465948000e+01
4.503278135184276110e+00 -6.623874304507392452e+00 4.899436334640578394e+01
5.028406839621915481e+00 -5.140916994756012492e+00 4.932102796355180629e+01
3.917659348772466021e+00 -1.266151562491836735e+01 3.829536112311379981e+01
4.060930578991523987e+00 -1.242138587810526218e+01 3.977822346030360734e+01
5.383672037851252590e+00 -1.315204785314959679e+01 3.604040418829024617e+01
3.395049189741710105e+00 -1.189424716837446816e+01 4.148295601212354455e+01
6.087539176189824985e+00 -2.179529596375779033e+00 4.992335742005776211e+01
6.334388538099611665e+00 -1.507474575144235995e+00 5.006689009546757063e+01
5.313100419244452866e+00 -4.332577049635437660e+00 4.947607525549550189e+01
4.765726044924445404e+00 -5.882495533031109503e+00 4.915766202693685472e+01
5.841309959266251184e+00 -2.851739796573576680e+00 4.977855368419883320e+01
8.682492221221679074e+00 1.305117055310943686e+00 5.160753088966102098e+01
3.035466044056839952e+00 -1.123686371569160514e+01 4.326810842107941824e+01
6.892707818540674047e+00 -1.334387591705460530e+01 3.416116666500043664e+01
4.886262428554953630e+00 -1.306514792796319568e+01 3.648268447292169725e+01
4.293453967041414465e+00 -1.281923765660764403e+01 3.762914761199353819e+01
3.609551659578940530e+00 -1.214708218666220141e+01 4.066738052574513773e+01
7.912861832850571098e+00 9.738674466953520792e-01 5.102656707017205662e+01
2.792485829797858976e+00 -1.040907517540960114e+01 4.480916574176178813e+01
2.793628924179800244e+00 -1.062640995701276125e+01 4.442079071059235673e+01
2.888021083810007994e+00 -1.154039029058092503e+01 4.248254076150150382e+01
3.107857074395700359e+00 -9.436586917590767953e+00 4.635283439231793778e+01
2.867677929468113174e+00 -9.908148249653176975e+00 4.554927486393377478e+01
3.445769517020595085e+00 -8.015034437049553873e+00 4.788372587470534825e+01
3.904760586957732205e+00 -6.594581423496288508e+00 4.879303719335741363e+01
3.524982981362105416e+00 -7.693268173175778379e+00 4.816108956338841551e+01
3.244748761653845737e+00 -8.566300963918639155e+00 4.728154778692894666e+01
2.722714164278004390e+00 -1.090980881961220561e+01 4.373503031946579966e+01
3.604336280197722786e+00 -1.248435610258992945e+01 3.902908893983079963e+01
4.669250501939194109e+00 -1.297695909169602402e+01 3.696286733207410435e+01
4.932927049579086898e+00 -3.553987533303338164e+00 4.949657221949713914e+01
5.145058629493672875e+00 -3.168251945192384067e+00 4.957961528147739472e+01
8.199350801683326750e+00 1.758899001027013131e+00 5.158345505775410800e+01
3.201572218687236848e+00 -9.151593819791463247e+00 4.673619553910807412e+01
3.626631307043176378e+00 -7.117193289843282145e+00 4.845848976812725084e+01
4.456359649001905510e+00 -5.128143254912765236e+00 4.920881998733216989e+01
4.505379004350957395e+00 -4.766719732906393503e+00 4.926388001500421154e+01
2.331929514654677238e+00 -1.135024202413454653e+01 4.245209117440413138e+01
2.294413337172686251e+00 -1.098339595610957531e+01 4.322766812697796013e+01
3.166855876838130524e+00 -1.248302039084036430e+01 3.866056568750853728e+01
3.290726404383816472e+00 -1.230719880654512721e+01 3.976265399965679137e+01
5.287544846164555779e+00 -1.322582502848947250e+01 3.505765126086838990e+01
3.356812050789216073e+00 -1.266542545525060071e+01 3.779073554777684762e+01
5.696123173797302819e+00 -1.655679295966860032e+00 4.991098633763818526e+01
3.919420478986759715e+00 -6.236999125030629365e+00 4.893576085743455906e+01
4.627722293734792380e+00 -4.133904483818444220e+00 4.936548331873919437e+01
5.355099224600564867e+00 -2.387582448527997503e+00 4.973469912696434392e+01
2.256897692819724188e+00 -1.061852700443528619e+01 4.400311347116407035e+01
2.765398891922818514e+00 -1.175772384396822368e+01 4.157167034512507797e+01
4.099521953497763604e+00 -5.652042271102622806e+00 4.905922950429462048e+01
3.857424463726375929e+00 -1.287563359874966551e+01 3.690226782803440386e+01
2.642654586437551245e+00 -1.197525594603468058e+01 4.065976036632383739e+01
3.064492204197319047e+00 -1.217000982685830301e+01 4.020707108014347853e+01
2.519828996545226296e+00 -1.219292055335968428e+01 3.974707118321092736e+01
2.254764574129411780e+00 -1.018388349677520033e+01 4.477997923789600776e+01
2.342031990472247305e+00 -1.151673562512193527e+01 4.199719565141865019e+01
2.491179593985457519e+00 -9.454535709744330774e+00 4.593767489386030434e+01
2.679566890271676272e+00 -8.884918620293259295e+00 4.670260106280612433e+01
3.021698145257463164e+00 -7.389609769405465656e+00 4.811940574573419838e+01
2.862558877711487426e+00 -8.033540753480254537e+00 4.756400735193775375e+01
3.306184541657866127e+00 -6.565333561577435972e+00 4.859168251287684370e+01
3.884796498694139899e+00 -5.115398921562637646e+00 4.909669246651739627e+01
4.691428824178792034e+00 -2.812225379371830591e+00 4.952800512508412822e+01
4.267885020748773073e+00 -3.583997791845900061e+00 4.936198960206625941e+01
2.288823929196102558e+00 -9.804160590705906841e+00 4.532646476443538575e+01
2.690356193684000807e+00 -8.441016565948402217e+00 4.710585415505769191e+01
3.336472673950495071e+00 -5.850710847529839498e+00 4.887724795457418736e+01
3.982483724687901461e+00 -4.392611617860222140e+00 4.920674509770075389e+01
1.775770599247953996e+00 -1.116006954392918082e+01 4.242163204314735481e+01
1.719264427688288688e+00 -1.061061281883497287e+01 4.358469650996870115e+01
2.259038174808169153e+00 -1.171768745875142770e+01 4.118665306256916381e+01
2.424716483464312677e+00 -1.235300094422263761e+01 3.875887704334102324e+01
2.795730823951594779e+00 -1.266933531355918774e+01 3.728610584464472311e+01
1.903621375920267811e+00 -1.178199171030284731e+01 4.058348272795539913e+01
4.795799461211123216e+00 -2.291587765565301638e+00 4.962349642194694610e+01
5.058416849708299523e+00 -1.803744368686900135e+00 4.974906969213406427e+01
2.479240700919665308e+00 -7.589844695835417987e+00 4.768643058661582756e+01
2.708180150038820955e+00 -6.536173569919218274e+00 4.839051390629992255e+01
1.665209094210046814e+00 -1.087013034333338268e+01 4.296942556550018111e+01
1.795646912713231291e+00 -1.149305844313386515e+01 4.151145964319047010e+01
1.718189762364528583e+00 -1.028473161079862308e+01 4.416780794835481316e+01
2.329583494893436413e+00 -1.251311595534650500e+01 3.777024534160705826e+01
1.967162733281680786e+00 -1.216144537546968962e+01 3.921594682343266669e+01
1.792261877656334379e+00 -1.199424533404192772e+01 3.970226852617227564e+01
1.874129042221146069e+00 -9.472486094094723086e+00 4.552223021556324056e+01
1.717113947049072387e+00 -9.958709070762735038e+00 4.475079290999999415e+01
2.015850454972416106e+00 -9.045412991327014041e+00 4.609933559277796178e+01
2.157578964955906287e+00 -8.618238063797427628e+00 4.666975596137033477e+01
2.279756089653143469e+00 -8.050572469358071359e+00 4.724471938125647341e+01
2.517701197199125662e+00 -7.085926823245358719e+00 4.807555451523628420e+01
3.313244563042636592e+00 -5.102675175905273974e+00 4.898455466089962584e+01
3.335476657394917499e+00 -4.655519198524697089e+00 4.904504613031490834e+01
3.919768932806571460e+00 -3.035098371362915604e+00 4.935180709425960544e+01
1.182035908476420927e+00 -1.060309824404136236e+01 4.316655589340658139e+01
4.237818675676265023e+00 -2.456211031015152368e+00 4.947639679600995066e+01
3.601964381221643308e+00 -3.614079056345640861e+00 4.922719309027300483e+01
3.459540524113458915e+00 -4.018463505636071353e+00 4.914960366588850604e+01
1.326207968064456066e+00 -1.123748428695492052e+01 4.175134194991962744e+01
1.219907574297414588e+00 -1.096999563749977291e+01 4.239118802344084713e+01
1.165660243186093403e+00 -1.010761256316619949e+01 4.404064197542425063e+01
1.249112625545652833e+00 -1.146936941914869834e+01 4.102555285310999977e+01
1.721999504074389176e+00 -1.234041423299167306e+01 3.793467344113220463e+01
1.251174863255562597e+00 -1.166544793911536892e+01 4.032130267532297552e+01
1.413999275179535386e+00 -1.212994015512765422e+01 3.868427160704126777e+01
1.932778987490975986e+00 -7.446770068333457004e+00 4.750457508613525448e+01
2.430698773493891629e+00 -5.985347049822289378e+00 4.850383451521153688e+01
2.752726303516981332e+00 -5.463882987438966943e+00 4.881865215057565877e+01
1.179468706158637303e+00 -9.733524906637208929e+00 4.472160344125833120e+01
1.064879617990216687e+00 -1.179562037007233855e+01 3.965747339712342523e+01
1.415141796617685799e+00 -9.015861511594543742e+00 4.574852436887516660e+01
1.257746969858745567e+00 -9.490411243495156413e+00 4.510719624714866427e+01
1.635029104984015325e+00 -8.351255964369958207e+00 4.663761338704531312e+01
1.696289082580873187e+00 -8.067626264838613892e+00 4.692526179853857116e+01
2.108060850945369769e+00 -6.507054321172818234e+00 4.818901537603796470e+01
2.013152163973347619e+00 -6.782017453186155009e+00 4.803167143591451094e+01
2.741735358925301291e+00 -5.089978312898762347e+00 4.887241407827750095e+01
2.552873762744142017e+00 -4.360527365733824823e+00 4.892629995051932212e+01
2.936413180048022209e+00 -3.644173798512077234e+00 4.909244147004994829e+01
3.218799702658158957e+00 -3.129409874717707041e+00 4.920323664297742283e+01
7.436640848150228855e-01 -1.025428290836464562e+01 4.343835456664827888e+01
7.023953221194176866e-01 -1.144566747140321006e+01 4.053944352568064602e+01
6.832550610469313446e-01 -1.111283940047653829e+01 4.145015303511580385e+01
6.641193087791561478e-01 -1.077994396679510203e+01 4.236074993687071100e+01
6.445758198571369668e-01 -1.059639671196104338e+01 4.274818879366095814e+01
6.418019150449379984e-01 -9.508315794309490698e+00 4.469241813418075537e+01
4.638438890948899385e-01 -9.867900628306818689e+00 4.390550278052108268e+01
6.971931324148306075e-01 -1.187015240709127895e+01 3.890674229613240698e+01
8.609383723767586316e-01 -1.209843933150357920e+01 3.815261241019783967e+01
2.168834124456120893e+00 -5.077296467573552796e+00 4.876009520692824140e+01
1.838900161450126802e+00 -5.777075094315167192e+00 4.837415784789723716e+01
1.059133861798603249e+00 -1.227893213682104800e+01 3.742595635108851582e+01
2.270107656804833951e-01 -1.123413382000937766e+01 4.065032686635377246e+01
7.989370400839036490e-01 -9.033922246030453351e+00 4.533354818514087015e+01
1.508596875000000281e+00 -6.478098692993080832e+00 4.798778781249999525e+01
2.340380595409492503e+00 -3.508045013536785994e+00 4.891281335347535020e+01
2.455947201289578441e+00 -3.145708990891699308e+00 4.896336130245063600e+01
2.858674939162650364e-01 -1.022732463908125844e+01 4.311829858476905741e+01
3.373053099904593233e-01 -1.159694166938644599e+01 3.961266708119827484e+01
1.562350883400417390e-01 -1.142198622534254682e+01 4.005378430263816369e+01
1.055265505446380536e-01 -1.179776868276223389e+01 3.849905853038445969e+01
1.614756163135600220e+00 -4.548611000962011097e+00 4.861865805050236133e+01
1.863551294337733699e+00 -3.961887349400663005e+00 4.873369143011277060e+01
-1.677872556368170676e-02 -1.079197953919986119e+01 4.163947952775153283e+01
1.077605646382943649e-01 -1.058969544339700519e+01 4.233027870804051673e+01
-1.412035710860395366e-01 -1.099404860817998753e+01 4.094923681566731233e+01
3.082642678274615800e-01 -1.206696011241059097e+01 3.762122788961039532e+01
1.745010320774974755e+00 -3.372053714502531108e+00 4.873336340882640627e+01
-2.656291720538409562e-01 -1.119609269343946956e+01 4.025890343371528246e+01
-3.901631269213022835e-01 -1.139829077957732650e+01 3.956786774267511220e+01
-4.408730091479569069e-01 -1.030454872729994342e+01 4.227357349810093723e+01
-6.839565914285887782e-01 -1.073060580209229364e+01 4.096032904208654202e+01
-5.473617465755733491e-01 -1.050812507399498230e+01 4.171981012739838235e+01
-8.205470339012970182e-01 -1.095304971945247097e+01 4.020075903326171840e+01
-9.449640774173734270e-01 -1.115518359116435576e+01 3.950999474215697660e+01
-1.202352446607624747e+00 -1.042654806351841934e+01 4.110934192195601611e+01
-9.895212165796423154e-01 -1.001938687102433256e+01 4.221685679578745010e+01
-1.351122198146939013e+00 -1.066930379184808153e+01 4.028077946790999420e+01
-1.499888246864642394e+00 -1.091202132925808499e+01 3.945208440999285671e+01
-1.857157873234748902e+00 -1.034497127465364485e+01 4.049891308383801913e+01
1.531760351353857175e+01 8.776760828579934781e-01 4.962474920216966012e+01
1.486529251707614563e+01 7.450876282886056412e-01 4.985120025891099971e+01
1.398311503876866446e+01 5.864430585702522514e-01 5.022806555669419737e+01
1.458371405567699775e+01 1.272773002241957219e+00 4.971205597354793326e+01
1.414267966296531576e+01 1.193607361242464027e+00 4.990053570768061064e+01
1.351320552097381267e+01 5.599264902562129942e-01 5.039755147266345858e+01
1.430217327395967430e+01 1.800459437526564122e+00 4.957353223405961984e+01
1.320268852083366795e+01 1.140948720913542491e+00 5.023976756670205646e+01
1.359746272412160195e+01 1.761259993014131719e+00 4.982793828844516781e+01
1.260721123681210543e+01 5.403453360484888890e-01 5.070161831744076864e+01
1.274965702567275194e+01 1.131031630337282490e+00 5.039204218151806458e+01
1.356787190170656565e+01 2.360650232337365484e+00 4.957287617696522375e+01
1.289218461746902200e+01 1.722027941536212969e+00 5.008259472398405165e+01
1.409658647263047371e+01 2.389843286660996657e+00 4.938194694364378279e+01
1.201339482042996742e+01 9.563093433461001824e-01 5.070347002377500445e+01
1.303916806542592788e+01 2.331458041081438726e+00 4.976381193139918935e+01
1.438778631832023436e+01 2.440086530220042071e+00 4.925671768877332113e+01
1.157368355064467025e+01 5.731980935713866243e-01 5.101413953797087686e+01
1.245265022565505220e+01 1.339038957391487150e+00 5.039312900768159409e+01
1.389099333784004564e+01 2.979339978101554820e+00 4.919081155639118919e+01
1.218956347474696322e+01 1.874167458344570658e+00 5.023451385738423625e+01
1.125149795597835833e+01 8.020922349645391858e-01 5.101186444020441968e+01
1.318612350456360893e+01 2.940741054034854418e+00 4.944538037662931629e+01
1.190615815961744239e+01 1.457048595638719801e+00 5.051133507350851204e+01
1.136916416271149544e+01 1.414163614300612659e+00 5.069912475158411524e+01
1.246237590052369448e+01 2.392158831146193432e+00 4.991741100659143626e+01
1.447341388889853242e+01 3.079714082240311956e+00 4.894029342792914861e+01
1.228392501181311580e+01 2.879000202162604438e+00 4.975585648212541656e+01
1.333300593138734058e+01 3.549695322016403587e+00 4.912737868787164786e+01
1.148685488380714226e+01 2.026326006696006932e+00 5.038661454553837160e+01
1.094196415034157255e+01 1.564255151897191443e+00 5.076521953256221309e+01
1.188557931244318944e+01 2.452858744693438009e+00 5.007106689475386929e+01
1.039751452038338542e+01 1.102579507368871115e+00 5.114353441906234821e+01
1.268266394960221710e+01 3.305577655085192745e+00 4.944036959369266526e+01
1.170511958243275963e+01 2.660097897434821057e+00 5.003654802869297669e+01
1.085840071377048055e+01 2.351167833895021264e+00 5.044547724292790747e+01
1.004195692682644925e+01 1.658343878332008137e+00 5.101279693345465915e+01
1.192325465073969681e+01 3.293494028451429134e+00 4.968691966937031879e+01
1.128682133667902754e+01 2.981323500485896449e+00 5.002956192251265577e+01
9.947576110869579935e+00 1.149710257349821019e+00 5.126719207154624058e+01
1.013634057455267090e+01 2.166986115795847212e+00 5.075856143448874747e+01
1.076249380601735695e+01 3.146336300374323880e+00 5.012572351814507243e+01
1.023072249053103633e+01 2.675621739835537305e+00 5.050448722573599269e+01
9.495768345110160880e+00 1.409985022086982065e+00 5.129858094070832664e+01
1.129485239297602028e+01 3.617584849727904395e+00 4.974657571028088654e+01
9.198582357419404332e+00 1.761952712833743995e+00 5.123980463952273823e+01
9.714658168660150750e+00 2.218786514531581933e+00 5.087212421641900306e+01
9.735830843918874322e+00 3.183868710191816387e+00 5.047392563472880767e+01
9.602087622116574295e+00 2.559885510553642440e+00 5.076827115020157066e+01
1.040510781869019752e+01 3.557147521193443129e+00 5.008600108623897285e+01
8.973460745575335906e+00 2.444150729002430467e+00 5.103204914400535586e+01
9.167411909871297837e+00 2.879428305504044605e+00 5.079185204103495010e+01
8.344835847387448879e+00 2.328415688699758679e+00 5.129582493711515667e+01
1.891241641923063099e+01 5.073231138605557078e+00 3.045799952424256674e+01
1.878069002431628931e+01 4.407262738942218760e+00 3.021328008832623269e+01
1.836045458461152080e+01 5.101044494489900494e+00 2.975825374675456558e+01
1.822735419958220859e+01 3.985234048468885959e+00 2.945980220362001134e+01
1.935119052105482851e+01 4.474459055281179154e+00 3.094361169295981284e+01
1.864908468829635169e+01 3.742056290415048725e+00 2.996881315073859042e+01
1.900919323979755404e+01 3.919110748931700527e+00 3.044556857880062140e+01
1.928335220727880994e+01 5.219785416491700580e+00 3.094490386386851810e+01
1.904393805000357531e+01 5.738501969677503922e+00 3.070243602062018695e+01
1.942417265325966014e+01 5.783368040370190144e+00 3.118933342305672340e+01
1.867200971983319135e+01 5.581128197566532556e+00 3.021052272701502872e+01
1.876529998181411685e+01 6.177975248342921333e+00 3.039832669125616604e+01
1.835466776383289300e+01 5.952027260286670618e+00 2.984922991920843671e+01
1.917541779284239212e+01 6.403687499999999311e+00 3.094707187499999890e+01
1.980999191530147741e+01 5.344360658931031516e+00 3.173708798270457265e+01
1.967294285248804186e+01 5.162509770229597450e+00 3.143161057422165783e+01
1.974606839755394105e+01 6.012384769719512079e+00 3.184198111901704209e+01
1.992168922013486920e+01 4.541882954367831182e+00 3.167367368942575467e+01
1.851743519638938906e+01 3.076705438896071509e+00 2.972427579137883313e+01
1.813327437583281210e+01 2.984546475786344022e+00 2.922436000915004684e+01
1.788076299643544687e+01 3.556838247989038582e+00 2.896888578812373538e+01
1.892412672349461289e+01 3.254354253541897446e+00 3.026010575827740112e+01
1.879216458872212314e+01 2.589144624181678456e+00 3.001519839338277507e+01
1.930519756358046024e+01 3.537234860346109677e+00 3.077578991848809409e+01
1.972301389018146978e+01 3.770328947936616437e+00 3.133167789576395634e+01
1.838590173150336327e+01 2.411993882264687361e+00 2.947996073641183656e+01
1.919916950559731461e+01 2.766652928752794338e+00 3.055130974010760880e+01
1.960574847039274005e+01 2.944021315367991498e+00 3.108620090896357269e+01
2.001277712201807191e+01 3.121653735851386280e+00 3.162170132987235149e+01
2.017084976259221563e+01 3.920331490622694925e+00 3.191570235153319857e+01
1.907255218295193444e+01 1.990454065705126396e+00 3.037207941376704667e+01
1.858960933364621937e+01 1.860251874176092945e+00 2.973792252102144928e+01
1.792461303024374075e+01 2.288792929063206305e+00 2.898395238119568162e+01
2.016541931484363204e+01 4.607333871573480621e+00 3.213180875895224631e+01
2.009146838068924623e+01 5.374763346669873876e+00 3.225143849261738893e+01
2.040382208651780260e+01 5.359216040921957358e+00 3.280601866228023056e+01
2.040914524339975955e+01 4.672853825122524896e+00 3.258996331089979748e+01
2.004450083449379605e+01 6.141957872047886013e+00 3.241963805079819849e+01
2.016771776695669161e+01 6.595324635096279309e+00 3.278955609134496996e+01
2.039849581139358747e+01 6.045194567388863405e+00 3.302212813808151992e+01
2.041446642612486428e+01 3.986370508941655899e+00 3.237390259158922134e+01
1.955344076650968077e+01 2.166787520388212762e+00 3.100416937744013524e+01
1.814206242898336896e+01 1.774806122528587160e+00 2.923980472746680093e+01
2.041979227504556960e+01 3.299386539932680051e+00 3.215749509026636588e+01
1.988441287611251340e+01 2.576175039348559626e+00 3.144425437792752476e+01
2.025081984965213877e+01 2.691788086986553363e+00 3.192556082302103349e+01
1.991247565451731916e+01 1.475323160237545395e+00 3.146175398629167219e+01
1.935293876513215139e+01 1.391768149060180537e+00 3.072835280606364350e+01
2.008150879457319959e+01 2.083033153489181721e+00 3.169346340499087944e+01
2.083577342532630539e+01 5.394053841265562532e+00 3.343871725558978625e+01
2.039315828865438007e+01 6.732376746962109415e+00 3.323861084615292327e+01
2.068031855823302578e+01 4.080081376957434003e+00 3.278677938593114760e+01
2.070683170798951167e+01 3.459694058897054614e+00 3.262259923415486185e+01
1.879340158150842299e+01 1.308280529680497795e+00 2.999499944366987236e+01
1.773185598122873685e+01 1.705854724384422649e+00 2.879715762828232428e+01
1.789835918005210758e+01 1.137983031307239656e+00 2.899978453313263671e+01
1.837133260977919491e+01 1.154036772609963624e+00 2.952997132193013385e+01
2.043734033241777581e+01 2.152636462115917748e+00 3.215016166505400008e+01
2.060795231606616440e+01 2.660653593953175466e+00 3.238167222630427489e+01
1.974317135026540981e+01 8.666672987158745567e-01 3.122968032162446406e+01
2.083227206203578774e+01 4.520233462255247581e+00 3.314873804209251063e+01
2.066431259463735515e+01 6.169011510035730339e+00 3.344488447523605856e+01
2.014511410293890137e+01 7.216369755249666618e+00 3.295333928355636743e+01
1.738089237028943401e+01 1.321553474752665158e+00 2.843097335391473734e+01
1.861846258531149445e+01 7.273367841509628118e-01 2.982894558042394451e+01
2.044848589824243490e+01 1.428996115119193888e+00 3.214585331161784154e+01
2.079611776247691068e+01 2.021993758487847792e+00 3.260588519915249606e+01
1.942084832182128551e+01 7.635905141452139500e-01 3.080622868189149344e+01
1.899724562639554293e+01 7.561693883045921272e-01 3.025197480661539728e+01
2.099373604013004524e+01 3.619968886940664543e+00 3.308749543936263393e+01
2.068110865060889836e+01 6.756178367442056576e+00 3.366058534986653683e+01
2.038781783303757678e+01 7.419784374999999876e+00 3.345516277306899156e+01
1.820395738867239999e+01 3.098871600544957916e-01 2.938597122031166720e+01
1.872991003713340064e+01 1.338013009228401495e-01 2.998452086779325754e+01
2.009096536153874979e+01 9.661853001561500065e-01 3.167689040470346740e+01
2.095433376373748047e+01 2.760949883646443670e+00 3.293290141155259221e+01
2.120150629650876439e+01 4.667935410172383115e+00 3.372790522586018369e+01
2.128047056371683610e+01 3.780211383043278861e+00 3.355213101624048733e+01
2.097426061585283108e+01 6.092885685789405592e+00 3.386590650772011912e+01
1.765466335862453207e+01 5.011864764215511192e-01 2.875977367233171123e+01
1.712568829490103894e+01 5.386922777849215693e-01 2.818409295985134477e+01
1.780470563111884630e+01 -1.069325254142253767e-01 2.896006691746480755e+01
1.806213107647586469e+01 -6.029441070426863059e-01 2.927417448048512227e+01
1.920128018622769162e+01 2.035425893780456186e-01 3.050924388539411680e+01
1.957413628462290589e+01 2.590044927448449386e-01 3.099798385589743432e+01
1.996518842570087315e+01 3.499352030574629513e-01 3.150029313841195133e+01
1.850955286748811446e+01 -5.182068928788892137e-01 2.977125798141411650e+01
2.098449285325753522e+01 1.382676461278843805e+00 3.283038884292535187e+01
2.033994774361454816e+01 5.462035866340996249e-01 3.198448049602818344e+01
2.126772099970696672e+01 5.428893762217391838e+00 3.407143146042491111e+01
2.119510683363514758e+01 3.216573584026669153e+00 3.335790214847624213e+01
2.076600806263856214e+01 7.078299219221086958e+00 3.408363355205219847e+01
2.094394136233745485e+01 6.572471869781975506e+00 3.413526145566797254e+01
1.741096715182000310e+01 -1.356065258762694792e-01 2.851976462984370286e+01
1.895721096720524557e+01 -4.334159511322607794e-01 3.026863615687551601e+01
1.940512350808875297e+01 -3.485658594189205428e-01 3.076632661948899994e+01
1.979595991583353154e+01 -2.577183435937521749e-01 3.126837049986450623e+01
2.119921556035432886e+01 1.963385159886143372e+00 3.322843240007561860e+01
2.074520424718274469e+01 6.877597197796379014e-01 3.250627379783541215e+01
2.131803809480427248e+01 2.658034203785373695e+00 3.348913838517558617e+01
2.146891387211304547e+01 3.298179786140464476e+00 3.379388676647619150e+01
2.156725847540078078e+01 3.940568166498801705e+00 3.401686659139666347e+01
2.054768635284041522e+01 7.645655001041017584e+00 3.398260647780958266e+01
2.022630455271899308e+01 8.012376293969500907e+00 3.366320793362374530e+01
2.120768136596694475e+01 6.152614523639489796e+00 3.444505360413036499e+01
2.099438594032276839e+01 6.928999174055024746e+00 3.450341431945173554e+01
2.156086267066600115e+01 4.765624887493045136e+00 3.427670994962052475e+01
1.761469584077512351e+01 -6.876758343163996701e-01 2.877711098555676372e+01
1.837339460368714228e+01 -1.259586238782322898e+00 2.967655346424000129e+01
1.913162123497658129e+01 -9.045611432408147135e-01 3.050233174767596367e+01
1.873462379450614890e+01 -9.435658669486529648e-01 3.005833554858375223e+01
2.018720558271955667e+01 -1.667752569229849213e-01 3.177095682694181278e+01
2.057844619558703059e+01 -7.583229348514833323e-02 3.227355209999019792e+01
2.126138765814234688e+01 1.312889833542868701e+00 3.325487199051404730e+01
2.117256645309508656e+01 7.444269673031620460e-01 3.305458021570350269e+01
2.096976818797829267e+01 1.512882669707254699e-02 3.277626612291995656e+01
2.070745133523594106e+01 7.871415758790233141e+00 3.450979837953357077e+01
2.145380988013554813e+01 5.372074237290110688e+00 3.445928028037567969e+01
2.038616612445970588e+01 8.238015532083000636e+00 3.419046605892957302e+01
1.689558061360439467e+01 -1.302257226959776804e-01 2.796006969421467048e+01
1.784335860276565100e+01 -1.305804139226874883e+00 2.908336096950710825e+01
1.716726942053929861e+01 -7.723985475860751793e-01 2.827975637838532208e+01
1.962042363202419537e+01 -1.011061004303784205e+00 3.111704343156950614e+01
2.160754343723788296e+01 2.102685754254740580e+00 3.388062019682992343e+01
2.003314556653134204e+01 -9.865980914062478790e-01 3.165468551682363696e+01
2.144302262085381017e+01 7.718400078106802953e-01 3.347960794466242618e+01
2.152530777839877274e+01 1.437427582078958155e+00 3.368018967184912071e+01
2.136070032662813034e+01 1.060003874450601985e-01 3.327889398934284770e+01
2.079476412394510021e+01 -5.564175899849448381e-01 3.260721251708702084e+01
2.177206186628208684e+01 3.434036913553410120e+00 3.428153262365311349e+01
2.185443715252063157e+01 4.101277687608265943e+00 3.448224984407284666e+01
2.168978253176986115e+01 2.768084164525477675e+00 3.408103572126578484e+01
2.120575554715214750e+01 6.653775921138942451e+00 3.479502937294721931e+01
2.144107981353508663e+01 6.212342967085650258e+00 3.502420174890888660e+01
2.157876655591671522e+01 5.509255103292026057e+00 3.484371237160984691e+01
2.171663525705953646e+01 4.805174466612653461e+00 3.466295533326360356e+01
2.049787135997079801e+01 8.478202090322877638e+00 3.463344223377081477e+01
1.885808748307209370e+01 -1.460608502968774314e+00 3.023831824705261795e+01
2.049252188183458756e+01 -9.206726524054317240e-01 3.224960110588477136e+01
1.983585480966110026e+01 -1.673956221513210663e+00 3.146860214518801868e+01
2.163559514347280555e+01 2.592872286443714813e-01 3.375496893325468761e+01
2.114203176934604045e+01 -5.150050309755187516e-01 3.305787806348492097e+01
2.196592251317611044e+01 2.773805546279390022e+00 3.454520650250508851e+01
2.104268054278755073e+01 7.333808906439306163e+00 3.490081447125707825e+01
2.130340412644433101e+01 6.915287070739610797e+00 3.520464176997617045e+01
2.185761172613592507e+01 5.100467693698352178e+00 3.512352513315036617e+01
2.167996557747419573e+01 5.862277019870677286e+00 3.526404120074074910e+01
2.017659089890877055e+01 8.844802134512191216e+00 3.431409912669456475e+01
2.086747798856328373e+01 8.097590463663635774e+00 3.503796104825342184e+01
1.667366876981792601e+01 -8.136282806119868871e-01 2.775744768627353309e+01
1.738504665467117150e+01 -1.361042626548758516e+00 2.857169134012529454e+01
1.807202169585997353e+01 -1.923932293248043157e+00 2.938974482188531567e+01
1.936844805111942946e+01 -1.633436718452046410e+00 3.088817455580682747e+01
1.858478017386520165e+01 -2.016183824376055256e+00 2.997453568650085032e+01
2.027018992921035334e+01 -1.715723269836173071e+00 3.204201250928920075e+01
2.169184848111613917e+01 8.605603675246555895e-01 3.390579230783622222e+01
2.187695513914488998e+01 1.252637136215313696e+00 3.425337184273784175e+01
2.203021070708514983e+01 3.455541549991480998e+00 3.471694474689257959e+01
2.193896188563171634e+01 2.005524109765698615e+00 3.442800393525588021e+01
2.203533407359880769e+01 4.338480179742953524e+00 3.498301821146855417e+01
2.191885150376999292e+01 5.512211674515597792e+00 3.550382745082081470e+01
2.058553391685900280e+01 8.725499524654203753e+00 3.503422283019101258e+01
2.024168094366041259e+01 9.188632078791473035e+00 3.475633243550206686e+01
1.906515531230965621e+01 -2.297208287868082621e+00 3.060162345415693252e+01
2.092328209810238704e+01 -1.136240248582446988e+00 3.283662504576088992e+01
2.070452568380066438e+01 -1.757489953459045129e+00 3.261530102670174358e+01
2.153645599858596071e+01 -5.986636006525160036e-01 3.358564048435157900e+01
2.214860925425028171e+01 2.214667580325932583e+00 3.479960721474451191e+01
2.166121578047716412e+01 6.391843310958083890e+00 3.556447129197565005e+01
2.116558203082611911e+01 7.618888958762695118e+00 3.538524713835455060e+01
2.221608348456906512e+01 4.575406455027685837e+00 3.548335220931282663e+01
2.194199301473475217e+01 5.867119607100377721e+00 3.577428219977085888e+01
2.215555958372169698e+01 3.784721108140756574e+00 3.511112554569775313e+01
2.102748227399866821e+01 8.323787308314711808e+00 3.556617982365661135e+01
2.133740423699131838e+01 7.668836966083471651e+00 3.574968847038566366e+01
2.144510347471598877e+01 7.055498402779805112e+00 3.556813064272402869e+01
1.831156858134856336e+01 -2.571555626405096273e+00 2.971085898276377080e+01
1.958397912311024669e+01 -2.296636032443536646e+00 3.124018316272496065e+01
1.870414179460480142e+01 -2.588889661073693116e+00 3.019573030512383838e+01
2.005148644741299790e+01 -2.337466848693979582e+00 3.182081390095117257e+01
2.131779961637135656e+01 -1.220001380212508257e+00 3.336454071785114905e+01
2.191022123398872168e+01 4.124346215322274301e-01 3.423053782279924206e+01
2.181126841835130392e+01 -4.456786404116952482e-01 3.406150517420508095e+01
2.222713836702659407e+01 1.425673690311067832e+00 3.485761720329756486e+01
2.218468955892780414e+01 5.655096417866001257e-01 3.470581246301932765e+01
2.220612426103390646e+01 2.809578977606538075e+00 3.495185647887005587e+01
2.216736300414541461e+01 5.373778351625676741e+00 3.589671595736192700e+01
2.238270058373547755e+01 3.628780594299007234e+00 3.560935217375256201e+01
2.031938619106412958e+01 9.620829115208765714e+00 3.530400183443108375e+01
2.048559430878387033e+01 -2.379242869616527312e+00 3.239377530907987790e+01
2.227578428262551569e+01 3.230153879051404164e+00 3.523925077000283324e+01
2.238203934593125055e+01 2.163766250335322550e+00 3.518680295815832437e+01
2.239662511665396494e+01 4.812080034866416334e+00 3.598306984507038209e+01
2.243849729363986256e+01 4.177947055373917529e+00 3.590074886281671240e+01
2.164767775593633203e+01 7.013135616295409491e+00 3.593336442627131078e+01
2.136922861456861256e+01 7.885487212221614861e+00 3.603270052719523875e+01
2.067316791366136997e+01 8.972796320794170555e+00 3.543500286781828379e+01
1.937485594435516489e+01 -3.050996811769425943e+00 3.108159991371386255e+01
1.848356330365425038e+01 -3.101631574297095462e+00 2.999124633059271616e+01
1.892902886206583091e+01 -3.076325295758631562e+00 3.053615135313177120e+01
2.108427550908797343e+01 -2.027475875950888184e+00 3.314374649604809520e+01
2.080175874105273692e+01 -2.372227485512940603e+00 3.280896153056933429e+01
2.026690172483725405e+01 -3.000312777258956842e+00 3.217248538250355949e+01
1.982067037481210647e+01 -3.025667232175599963e+00 3.162682022977009311e+01
2.171231852022845388e+01 -1.303760000251801277e+00 3.389249195376495294e+01
2.215442617859424601e+01 -2.539641582621413596e-01 3.465570533670416609e+01
2.245925565898104281e+01 7.186560887524239272e-01 3.518124548324561829e+01
2.244780210571517998e+01 2.560963991408148122e+00 3.545820578210811647e+01
2.077872525563858375e+01 8.897750412344080928e+00 3.571015374654545838e+01
2.112759452931997117e+01 8.452909768620033404e+00 3.594256575057943337e+01
2.226720528297726176e+01 5.703865036336082106e+00 3.629980450303096973e+01
2.195732884080350189e+01 6.358740952803393576e+00 3.611659309806084650e+01
2.262942144647016462e+01 3.658414455222273265e+00 3.620776159382217685e+01
2.062644093775504572e+01 -2.942515906430118733e+00 3.263933081225913924e+01
1.994681510035152883e+01 -3.454111167322436060e+00 3.182405127817142088e+01
2.151113145295698814e+01 -1.994708781300689848e+00 3.370180577655457199e+01
2.205566290340652458e+01 -1.115615841974548772e+00 3.448702528598858663e+01
2.255815782516107504e+01 1.517300283468148825e+00 3.542205690377643634e+01
2.249030143384209879e+01 2.931534308391051447e+00 3.566628142309794924e+01
2.053036877247344805e+01 9.470690332686583446e+00 3.585386969157649162e+01
2.089084467471523610e+01 8.970274947700232815e+00 3.604481155683991744e+01
2.270785464415884647e+01 1.568402549746768848e+00 3.579468392672254851e+01
2.268167591075054190e+01 2.265980951596755943e+00 3.593257925149433873e+01
2.265553624708280012e+01 2.962833340904668766e+00 3.607025140836586274e+01
2.257717526004571340e+01 5.048787354898776059e+00 3.648274872176206429e+01
2.260330939019702967e+01 4.353363808725394080e+00 3.634522266123971690e+01
2.186850255056989312e+01 6.875604809415547969e+00 3.636994354946204311e+01
2.162121454362587869e+01 7.556783468559082451e+00 3.637122169794613313e+01
2.219393381703807222e+01 6.313441067298753318e+00 3.667853700256804217e+01
1.911771372326295548e+01 -3.719181712207467960e+00 3.083147742455922824e+01
2.098603170637791848e+01 -2.884710579669127029e+00 3.310625185747257859e+01
2.040257811830452894e+01 -3.599174987749997889e+00 3.241138091437047564e+01
2.237634444050024385e+01 1.771457368761662488e-01 3.503908980716469301e+01
2.273399607125568167e+01 8.719228758952060065e-01 3.565697512702998750e+01
1.962637807103001819e+01 -3.908400451318845281e+00 3.147522326647443691e+01
2.137857334028121059e+01 8.109413863828795144e+00 3.626491646833648019e+01
2.122764191243393839e+01 8.582012904398075293e+00 3.631863449632290042e+01
2.012285592847772620e+01 1.015660380946842700e+01 3.558547807892419712e+01
2.289602734035153375e+01 2.263430491115604681e+00 3.648165751758826758e+01
1.869296000832477844e+01 -3.815692748760590280e+00 3.031880521049658839e+01
2.134539106535187969e+01 -2.826939341464617783e+00 3.357288006669358538e+01
2.076215748634421132e+01 -3.541432848124749011e+00 3.287832575367083621e+01
2.188792403352367799e+01 -2.007821203489501993e+00 3.419893197234850390e+01
2.251038288361586837e+01 -3.231546733605868971e-01 3.527283648611764022e+01
2.239862933448264570e+01 -9.203589049524404375e-01 3.508088403652521237e+01
2.262219124469710962e+01 2.743692021615887766e-01 3.546490135818360301e+01
2.008232909809761679e+01 -4.053276888526339050e+00 3.206283889809240861e+01
2.078773951468894765e+01 9.448008984125273457e+00 3.639846411583990005e+01
2.027889826582814337e+01 1.004463058614568283e+01 3.599783485128820359e+01
2.289149406342821180e+01 1.083923202559606169e+00 3.612350137456226662e+01
2.285503379680262626e+01 1.709837989758275612e+00 3.621392239598375085e+01
2.285211039119587895e+01 3.008090034182018702e+00 3.658759266055456294e+01
2.238548399203478922e+01 5.681392322982271814e+00 3.658047353900634135e+01
2.200266329139001087e+01 6.944449100498064631e+00 3.677643990457883660e+01
2.151946082146696426e+01 8.078848438642079799e+00 3.659625980002034851e+01
2.228689834126660685e+01 -1.517420851507527368e+00 3.488899172861529507e+01
2.217516659761306030e+01 -2.114468509595430756e+00 3.469712260672091020e+01
1.930639624953652245e+01 -4.362037547859242359e+00 3.112687041599913229e+01
1.977883852592934844e+01 -4.580476377367109997e+00 3.174372361356650174e+01
2.132718965450858306e+01 8.711126344978529445e+00 3.669390270987593539e+01
2.304886419930488017e+01 1.295791051107270997e+00 3.658927803287242853e+01
2.296124752866025887e+01 4.708076148184907606e-01 3.618401010907297888e+01
2.261954130539567132e+01 5.246534755349146373e+00 3.682591619557111784e+01
2.273436070905173167e+01 4.383425890860738861e+00 3.669009330375796196e+01
2.289146143042480475e+01 3.718422823578312553e+00 3.689777933350561057e+01
2.181128051759099407e+01 7.575683105693185482e+00 3.687438226479802950e+01
2.170472965078390715e+01 -2.769171516050608073e+00 3.403948867117173904e+01
2.114870884300124843e+01 -3.603158148700924546e+00 3.339284261537494558e+01
2.053828181740774284e+01 -4.198154582447840788e+00 3.265046343991296141e+01
2.264593260206289926e+01 -9.404392333399845816e-01 3.550012424351428564e+01
2.289858395940227354e+01 6.871077664184409295e-02 3.593265458414936120e+01
2.019458992011430709e+01 -4.548325281962051214e+00 3.226060612913079240e+01
2.161934319072012300e+01 8.208147172004206737e+00 3.697251864622984385e+01
2.041882261613581306e+01 1.012527323937108115e+01 3.640755822537810360e+01
2.315311588624265227e+01 4.169546804381532024e-01 3.668774955856022046e+01
2.301533237719108271e+01 2.580669219293948657e+00 3.688104149288838585e+01
2.243984400706753490e+01 5.812500717475097112e+00 3.688870747079158718e+01
2.284322229554162931e+01 4.425320995569681948e+00 3.721747149474299476e+01
2.233828779134748288e+01 6.376686854285959605e+00 3.718883555051628775e+01
2.207429481292085427e+01 7.090893690610093003e+00 3.715438677461858674e+01
2.278673230637253866e+01 -5.285619791553993752e-01 3.574054506294858413e+01
2.091142046127745857e+01 -4.199887188463043763e+00 3.314130596876749024e+01
2.206343551746269682e+01 -2.711503501544799022e+00 3.450528227928234770e+01
2.244351944480408179e+01 -2.070277866430016545e+00 3.515234770052601476e+01
2.263256349472021967e+01 -1.574076082093134987e+00 3.547489088887950714e+01
2.304866763728933421e+01 3.052968902546683960e+00 3.710563823440463693e+01
2.104512728173524394e+01 9.425328368244946020e+00 3.694193590111898828e+01
2.142514135532354302e+01 8.840368749999999665e+00 3.707061976081694610e+01
2.322338115014211368e+01 8.931432918902679763e-01 3.697438317303332411e+01
2.309789552820948089e+01 2.075616434809360644e+00 3.694457755298579116e+01
2.266191000674262668e+01 5.444452161784631983e+00 3.716980087514008346e+01
2.195447396533739237e+01 7.641213205865033942e+00 3.738457886277141995e+01
2.181286518635592486e+01 -3.247962876754991957e+00 3.423015456247902932e+01
2.156211789700106252e+01 -3.784799189676355979e+00 3.395486150269656633e+01
2.239546920813010189e+01 -2.618965056613704601e+00 3.506870037040470578e+01
2.307867413148490243e+01 -1.155333904993576660e-01 3.637800095663531152e+01
2.306308223346772834e+01 -7.339466350442941378e-01 3.620827775711965302e+01
2.131138636586357649e+01 -4.321602591215081723e+00 3.367961853266549355e+01
2.106068538291031444e+01 -4.858338792901605530e+00 3.340444479227607388e+01
2.299386312053125181e+01 3.642069928870050433e+00 3.730557203078320327e+01
2.066566449889579005e+01 1.000968232967336746e+01 3.681418170853756777e+01
2.168965486707903878e+01 8.241025123639353467e+00 3.722753124289240390e+01
2.320605356298937849e+01 1.507466955391282504e+00 3.705526174214558210e+01
2.320595862117157182e+01 2.386412111760517263e+00 3.731364671872070460e+01
2.221844278762767289e+01 7.040965892546721783e+00 3.754175508448995657e+01
2.289611316527389562e+01 -1.205542347155932337e+00 3.592325977991410468e+01
2.067402314857188728e+01 -4.797303057356433698e+00 3.288974717397991299e+01
2.134974769688145457e+01 -4.871164457862688479e+00 3.382524912970897901e+01
2.163479807184475234e+01 -4.583707185964988717e+00 3.419100942742439031e+01
2.272750132962910286e+01 -2.526422785581178054e+00 3.563211542644748420e+01
2.315759142771247880e+01 3.094868570552204101e+00 3.763340057787236503e+01
