1.919309423457262653e+01 -5.914686532618187442e+00 3.121893174880015209e+01
1.928227037335848237e+01 -4.342258065897453889e+00 3.111407386350587601e+01
1.949807516055600942e+01 -5.300327000608519690e+00 3.149335622742179908e+01
1.945483564919597796e+01 -6.720586698579960050e+00 3.168514354184699044e+01
1.957336287590609558e+01 -5.986808497897292192e+00 3.170603269630905530e+01
1.975447690665818001e+01 -4.560836549961221564e+00 3.172990363068782216e+01
-1.162788312361906939e+01 7.347721548182408746e+00 4.152372910490514357e+01
-1.243423176071358149e+01 7.482859340533474679e+00 4.090023978083089418e+01
-1.179866906297812434e+01 6.701250029320871882e+00 4.136866973876395548e+01
-1.205349823468997350e+01 8.156906726167500565e+00 4.121955439613746819e+01
-1.086732895797720744e+01 7.137239558089693681e+00 4.198283147218408828e+01
-1.129221337310292306e+01 7.946213623646483093e+00 4.167890359761734231e+01
-1.279788226591895040e+01 8.358524472285036921e+00 4.064633666744541074e+01
-1.247856676261621445e+01 8.965054867546244921e+00 4.091536381552593582e+01
-1.171734850980381104e+01 8.755054088113533695e+00 4.137468589415751552e+01
-1.095743659169638384e+01 8.544567838295614948e+00 4.183420150699788564e+01
-1.053220608240400935e+01 7.735522693455181731e+00 4.213850814046917037e+01
-1.322320713958022509e+01 9.166699947898974798e+00 4.034150758991654584e+01
-1.019720788355704144e+01 8.333581817704802219e+00 4.229415851539807392e+01
-1.214207489138364160e+01 9.563418687284176656e+00 4.107033320375290231e+01
-1.290392353058284414e+01 9.773755774121672957e+00 4.061038079324960393e+01
-1.138247804702523958e+01 9.353201679817150449e+00 4.152987378016987918e+01
-1.062265981465521314e+01 9.142922163333357943e+00 4.198954205227443737e+01
-1.346534579995182845e+01 9.935247034553000844e+00 4.015156073388940428e+01
-1.100255566048631728e+01 9.871109334325025131e+00 4.167444736708431208e+01
-1.163564268382615197e+01 1.025389069416549148e+01 4.126275061597635130e+01
-1.239498551693429818e+01 1.046480492916135674e+01 4.080278895406076600e+01
-9.861810029225718921e+00 8.932358317184842633e+00 4.245002239752376028e+01
-1.326584354684193734e+01 1.053356453840678419e+01 4.029853235060748773e+01
-1.024251288571555030e+01 9.661244646306753836e+00 4.213438172965977913e+01
-1.062263562643349957e+01 1.038901862853759539e+01 4.181905859913773327e+01
-1.100262431290573950e+01 1.111653928999974461e+01 4.150342986635754272e+01
-1.188880347966230389e+01 1.115458028023370929e+01 4.099492700085202301e+01
-1.375901930877832946e+01 1.062661079139552101e+01 3.989619412378584684e+01
-1.402731723045146772e+01 1.009697294521309452e+01 3.969164568246058877e+01
-9.327968468131501822e+00 9.581440069389936198e+00 4.241497713791203950e+01
-1.263148785712616018e+01 1.139605070459202274e+01 4.053867111002215751e+01
-1.362762188245067385e+01 1.129310084294986183e+01 3.998578327297525448e+01
-1.022210327472558333e+01 1.087546947132931052e+01 4.179225182796162130e+01
-1.324779842548484154e+01 1.181019903554331663e+01 4.012956313313515722e+01
-1.428904654453900669e+01 1.115514999344905611e+01 3.945216373433669332e+01
-9.574769696730893287e+00 1.047168095982737590e+01 4.209045476958308996e+01
-1.060235099034802531e+01 1.160314577879576348e+01 4.147596567373932430e+01
-1.138270727849447717e+01 1.184424053107477981e+01 4.118711118780860403e+01
-1.458822224071218798e+01 1.025846816313323906e+01 3.923191225861734210e+01
-1.212504561726455066e+01 1.208566831230134042e+01 4.073075339536349304e+01
-1.286799074346346394e+01 1.232729806561768449e+01 4.027338705850586820e+01
-1.398991140703517466e+01 1.205183324951804025e+01 3.967222347259644266e+01
-1.074817210069190310e+01 1.232033874182809718e+01 4.121014766296625709e+01
-8.794047581401411406e+00 1.023061857601938840e+01 4.237975586856585153e+01
-9.821569294752011459e+00 1.136192159742625662e+01 4.176522895202693775e+01
-1.361053479352749740e+01 1.256879343633388757e+01 3.981555640558701725e+01
-9.967651364792716961e+00 1.207914132366970961e+01 4.149951833131155610e+01
-1.180689851909235166e+01 1.274179061521210343e+01 4.079021063636043465e+01
-1.480387785829121050e+01 1.206792536790219827e+01 3.900888545183623535e+01
-1.128968351788125801e+01 1.310793787869951288e+01 4.081523071833090910e+01
-9.041345713311820020e+00 1.112086886927651008e+01 4.205451977040161182e+01
-1.248443207652998588e+01 1.288852659535691281e+01 4.038596273782263779e+01
-1.304448224359250830e+01 1.314384462234020212e+01 4.002711665395825236e+01
-1.435189633370702289e+01 1.280990723609618342e+01 3.935768265654822073e+01
-1.065853221007387042e+01 1.308421565774199813e+01 4.099426615884764402e+01
-1.011373667738807924e+01 1.279636137330222567e+01 4.123309645080122721e+01
-9.072979271900067033e+00 1.247495489492119702e+01 4.161954088322222844e+01
-9.479209883671847692e+00 1.327245649964709884e+01 4.125591604179110305e+01
-8.260316015625001285e+00 1.087956757812500008e+01 4.234431388321435463e+01
-1.223107593436623297e+01 1.363931321811906372e+01 4.039150182527249200e+01
-1.378662596088954118e+01 1.338495301378823044e+01 3.956845273218330306e+01
-1.075008376960599144e+01 1.377818232213311767e+01 4.074995166968638216e+01
-8.666843416452959303e+00 1.167764768756896032e+01 4.198213220046779526e+01
-1.508951303380775677e+01 1.303909116004440705e+01 3.884890158988597619e+01
-1.011410154386140725e+01 1.352510128699755398e+01 4.100320231568893803e+01
-1.138557459144674588e+01 1.403106673554803230e+01 4.049679958724586726e+01
-7.742911333324259182e+00 1.005587977004748090e+01 4.270806462173866436e+01
-7.765546589602353222e+00 1.195081182325769653e+01 4.200959062593152993e+01
-7.862195978436063548e+00 9.218579275189352273e+00 4.290522289943950796e+01
-7.225717893925372337e+00 9.232527194532247350e+00 4.307222021792502886e+01
-1.322096826812672887e+01 1.396039187135467685e+01 3.977951605162198945e+01
-1.463362433307265498e+01 1.349483780535060795e+01 3.904612572117827796e+01
-1.091528179145596233e+01 1.459288231761633270e+01 4.046561737900664468e+01
-8.667088987093462649e+00 1.309573160521649626e+01 4.144170890713963473e+01
-7.515424206829586673e+00 1.085553862737245723e+01 4.248217399795150584e+01
-7.549102400183116401e+00 1.125709843987505643e+01 4.230473385606209291e+01
-8.343796683279101956e+00 1.237015782385296525e+01 4.176567819934453496e+01
-1.400494748590241123e+01 1.425338880728074287e+01 3.925473243946178314e+01
-9.835459326568548377e+00 1.404118002078226723e+01 4.093175414610514906e+01
-8.605371124951247452e+00 1.360139237637022624e+01 4.122939931721852247e+01
-6.447897777632968896e+00 9.852844972996340545e+00 4.300120973867810648e+01
-1.202020704129033923e+01 1.428361000451580587e+01 4.024389638540375103e+01
-1.265495105539213405e+01 1.453619753279369498e+01 3.999085993824974850e+01
-1.019159883425281343e+01 1.480966547143716738e+01 4.060702362720618197e+01
-1.125108340689689967e+01 1.523124177026765480e+01 4.018397898078607966e+01
-6.770782575233569744e+00 1.083151713996811516e+01 4.262000634066279048e+01
-7.855005616356749876e+00 1.291901523795876372e+01 4.162753420290776774e+01
-6.838637404529855246e+00 1.163423191458444705e+01 4.226509552589781293e+01
-1.195289053489224784e+01 1.488378308528941929e+01 4.008728394993993760e+01
-1.321996605894744192e+01 1.473944916997290377e+01 3.961408098413402712e+01
-1.491588825616115166e+01 1.418107075737799327e+01 3.873258050990704504e+01
-7.042511970801910159e+00 1.274221197201182498e+01 4.181348500116851596e+01
-1.378516263149096410e+01 1.494276750083825611e+01 3.923660564543894935e+01
-1.435008665195676691e+01 1.514598732249816671e+01 3.885871438360788943e+01
-1.054823005519257428e+01 1.557921916009654950e+01 4.028111557974139600e+01
-9.072561272113908615e+00 1.505121801617437427e+01 4.063917405072739086e+01
-9.810269140625003104e+00 1.531517296874999978e+01 4.046018054932158492e+01
-7.731907734835790968e+00 1.393018669878893334e+01 4.120287080315055306e+01
-6.025590128692930314e+00 1.080747909809545071e+01 4.275795375593484238e+01
-1.302975870105877831e+01 1.535682119419948677e+01 3.963812238811904365e+01
-1.241537406777881714e+01 1.561888722970833321e+01 3.973517050756129976e+01
-8.333947969800881594e+00 1.478693909560755415e+01 4.081837402429541584e+01
-6.230384139031330371e+00 1.256548537891320372e+01 4.199937534393134797e+01
-1.119446051519921070e+01 1.586321245522804091e+01 4.001136566629470792e+01
-9.744261249009866788e+00 1.576751758754759969e+01 4.029298778690611726e+01
-7.596308546603226297e+00 1.452300863305058520e+01 4.099732067282787540e+01
-6.128618688745729237e+00 1.201112849222111834e+01 4.222536668702370832e+01
-6.858421483983715206e+00 1.425898882912679966e+01 4.117630634069492146e+01
-1.386679801349989027e+01 1.580742031673657522e+01 3.905558843432480387e+01
-1.184101194382842337e+01 1.614734465895743298e+01 3.974114136557702892e+01
-8.940250939723503265e+00 1.595582595724598995e+01 4.030493541384390710e+01
-7.709211596516646559e+00 1.551620062795395327e+01 4.060369014557763734e+01
-6.377899162000100652e+00 1.363523838869635796e+01 4.151342738418944123e+01
-1.340461779066106907e+01 1.617755886314642666e+01 3.928424111512869388e+01
-1.248722283248103260e+01 1.643132823416097921e+01 3.947070458438509633e+01
-1.093597060255698850e+01 1.630810288702291189e+01 4.001017054244708504e+01
-1.028015734259716574e+01 1.711600331344332204e+01 3.980786382427120884e+01
-7.283986294710152798e+00 1.488784585786836345e+01 4.089005197226465782e+01
-8.134437499999998877e+00 1.614455664062500162e+01 4.031698256738098962e+01
-5.619560800789489718e+00 1.148720643094480387e+01 4.253706991260960990e+01
-5.417518891761292643e+00 1.238859893614537810e+01 4.218544339071230809e+01
-5.897852664321282745e+00 1.301210621609301299e+01 4.184961281095846175e+01
-9.565292955900613237e+00 1.679235778610732410e+01 3.997755713328108840e+01
-7.302169348178233932e+00 1.594328521882521521e+01 4.047185994548746635e+01
-6.101512378589677432e+00 1.416416786090399782e+01 4.131887443095892110e+01
-6.664144523285153277e+00 1.500049888059475833e+01 4.090180790821441548e+01
-6.136035103057929874e+00 1.447893078508859688e+01 4.115520855512555443e+01
-1.313356464377450905e+01 1.671537029095437887e+01 3.919984438422525130e+01
-1.132318669674737599e+01 1.703600134759771478e+01 3.973926638620452678e+01
-1.378000456838836207e+01 1.699945557410466179e+01 3.892856103503367393e+01
-1.239982636663259363e+01 1.750885737403243070e+01 3.928826770122834233e+01
-8.850399591613587802e+00 1.646869913954518339e+01 4.014718098764262066e+01
-5.345421195728327746e+00 1.406945210657422685e+01 4.146132047159558454e+01
-1.308956230178418600e+01 1.725428840853075130e+01 3.910844201951127275e+01
-1.099512167744927282e+01 1.743969409100316170e+01 3.963806983724139599e+01
-1.434649569430644078e+01 1.651725310363292110e+01 3.865207250622361101e+01
-1.171014013657505437e+01 1.776341015840061388e+01 3.946818526745762057e+01
-8.738583927529806061e+00 1.707089008203527669e+01 4.000902772312563371e+01
-7.246913437548301751e+00 1.631874790003927345e+01 4.032193192630172263e+01
-6.469866129447803260e+00 1.574200674132426236e+01 4.062675741593492518e+01
-5.636825338857203604e+00 1.554054932214233808e+01 4.078180530787786751e+01
-5.414205601965554671e+00 1.469870239610156659e+01 4.113408758030474388e+01
-1.013211281922532869e+01 1.791933270674319090e+01 3.962294806796207070e+01
-1.304083318741040642e+01 1.845771710018630785e+01 3.899280739349334368e+01
-9.342795312499998062e+00 1.799732546484375106e+01 3.970035545141628575e+01
-1.092091555787433244e+01 1.784139330840464766e+01 3.954558819022195593e+01
-1.347787113110810786e+01 1.795251868987480748e+01 3.891594942598759133e+01
-7.794460716222001651e+00 1.746566031900222526e+01 3.995301440603218168e+01
-6.359311253268822739e+00 1.649295449215284393e+01 4.032688235378695651e+01
-4.692865075485222803e+00 1.491832253791149832e+01 4.111293857715919131e+01
-4.804097194488698541e+00 1.533916799030155786e+01 4.093680630864205483e+01
-1.237525688492005038e+01 1.811044318618701610e+01 3.923058145226408300e+01
-1.419916812624548719e+01 1.783259580480527973e+01 3.871198855120528037e+01
-8.568709504405291000e+00 1.773151982471810939e+01 3.982670387285470781e+01
-7.020907692982015114e+00 1.720003867500764372e+01 4.007914809439596837e+01
-1.001175479579868544e+01 1.835582700032378867e+01 3.953047949684211915e+01
-5.470011807445867902e+00 1.666749383237728566e+01 4.033184266615440094e+01
-4.970392477206083903e+00 1.615741878016811128e+01 4.058532382463030785e+01
-1.236093921212817470e+01 1.911403012153436265e+01 3.905689558628964875e+01
-1.370672232447572547e+01 1.880515093907911606e+01 3.875491647419624996e+01
-1.068147045210294088e+01 1.871473052759221289e+01 3.936041214095975249e+01
-9.853792654554718311e+00 1.891266731317771033e+01 3.948822708129546299e+01
-1.203535597939537638e+01 1.843834300814974725e+01 3.926265575936010777e+01
-1.134978520045167727e+01 1.907288492203107566e+01 3.919070052309834296e+01
-8.489903384869229797e+00 1.807874296711341700e+01 3.976042991333088139e+01
-8.932617691900105683e+00 1.919406203091831031e+01 3.951784711118861537e+01
-7.636456929844182895e+00 1.816021340485347579e+01 3.982052027056968058e+01
-6.245978404533432560e+00 1.693394495081072648e+01 4.020544248316662106e+01
-3.971751026887175851e+00 1.513787754065602265e+01 4.109174664251514741e+01
-4.471013364017648151e+00 1.564758933631616955e+01 4.083860604127055893e+01
-8.216312333794098421e+00 1.887684073161709364e+01 3.963877446614458933e+01
-6.782259375000000645e+00 1.824175554296875035e+01 3.988064096221742005e+01
-6.126606655310234295e+00 1.745518978132648513e+01 4.010615752097887565e+01
-1.268620976562499969e+01 1.978908388671874974e+01 3.885132990690198795e+01
-1.346998330133363808e+01 1.969264493312295983e+01 3.866068748480245176e+01
-1.461863574840040414e+01 1.866633876125927216e+01 3.849550295562919899e+01
-1.201805143811712284e+01 1.943101063699333864e+01 3.902100207738310900e+01
-9.648690896048146115e+00 1.951118181174630095e+01 3.939687990056788180e+01
-4.713204784657001767e+00 1.686535307762204638e+01 4.034712534632504344e+01
-4.213866929178063714e+00 1.635535969240340037e+01 4.060067882797379468e+01
-1.036501210937499984e+01 1.982841142578124760e+01 3.927579045270107372e+01
-1.437225756218398587e+01 1.915240089526048806e+01 3.851714616443581463e+01
-1.113924419072244731e+01 1.981529374973282387e+01 3.913429625936913681e+01
-9.557883661538006947e+00 1.985455809902455115e+01 3.938640097188324773e+01
-7.499046614486058360e+00 1.855919332163717073e+01 3.975978620517908269e+01
-3.462016465280049360e+00 1.591162252490718565e+01 4.085926658505847087e+01
-1.425437473429358093e+01 1.959612995072339814e+01 3.846990040213396611e+01
-1.191284247973156596e+01 1.980218742421499911e+01 3.899283294909393049e+01
-8.750751975880067590e+00 1.988070487715604528e+01 3.949670571152179832e+01
-6.077608736646713972e+00 1.836235037611491805e+01 3.992728290759457366e+01
-4.967679187556252707e+00 1.735314916863633172e+01 4.024395178673538709e+01
-3.188518775946358019e+00 1.541683234916004608e+01 4.107355196668569164e+01
-1.324721381912814522e+01 2.026508775891829828e+01 3.848159872216665889e+01
-1.393347957244426816e+01 2.016235104051180116e+01 3.832252930792434142e+01
-1.096936145958315301e+01 2.015596567011796836e+01 3.905484589077741475e+01
-7.944202830112642388e+00 1.990683128678497837e+01 3.960664709515324233e+01
-7.363441268486363711e+00 1.907459597633065229e+01 3.974359758109895324e+01
-6.329460702785493886e+00 1.885235431751775437e+01 3.989245727299761057e+01
-3.956718974838964176e+00 1.706313017186538161e+01 4.036246516953232089e+01
-1.217744964201752289e+01 2.081073903570975148e+01 3.861200843644546410e+01
-1.303609739086409824e+01 2.062765054475094928e+01 3.850991687871692903e+01
-9.230934605563822615e+00 2.052177080932180075e+01 3.929470855878636115e+01
-9.873887409270713178e+00 2.082903847717086165e+01 3.913882278860052821e+01
-8.587279134818194493e+00 2.021416283654625445e+01 3.945075381728541686e+01
-5.373236416771314694e+00 1.848289653232463081e+01 3.997396995538825593e+01
-4.465704038703994350e+00 1.803831318845994147e+01 4.015594254703608357e+01
-2.952229269865441097e+00 1.668544607700386351e+01 4.062645346438787897e+01
-1.157321102319010109e+01 2.048324784163193613e+01 3.883367912284320767e+01
-1.440499239319639813e+01 2.048577048819884183e+01 3.804439072075503958e+01
-1.503791874999999933e+01 1.949971923828125142e+01 3.827932506143547187e+01
-1.380827913515961569e+01 2.074113779836970650e+01 3.811146237604484810e+01
-1.076336174213301256e+01 2.063631146361069924e+01 3.905182277705655025e+01
-8.433651522627107155e+00 2.067670124204417093e+01 3.947365123585474578e+01
-6.621728695675466625e+00 1.945635727235978152e+01 3.980958214008587959e+01
-2.405031752567013736e+00 1.569587792993061015e+01 4.105544004825073756e+01
-1.500170878495383420e+01 2.023040325712835852e+01 3.797727039354619905e+01
-7.104743181278872832e+00 1.996211177263695191e+01 3.970972841851588697e+01
-5.877112699242478477e+00 1.946234536559708062e+01 3.990433749169781663e+01
-3.199602719916373683e+00 1.726107088575161796e+01 4.037788046462711833e+01
-1.190380636030092987e+01 2.145160023548859840e+01 3.860680643393202160e+01
-1.278162373692512688e+01 2.113819782201587927e+01 3.839003687674576781e+01
-1.338572851439817057e+01 2.146561833299715971e+01 3.816780039662348400e+01
-1.051782113989122891e+01 2.113677918452369298e+01 3.898268781396626537e+01
-9.669844661558443022e+00 2.144691924721161769e+01 3.916876946541628257e+01
-7.556781665288374583e+00 2.040103924375568667e+01 3.964844703247418778e+01
-8.924969035182654054e+00 2.144808690023175046e+01 3.933964697298641511e+01
-4.668057099767237261e+00 1.860358310036746232e+01 4.002077283177949596e+01
-3.202149537945642166e+00 1.809095550425019994e+01 4.023065497028665050e+01
-2.637563964427627639e+00 1.493427305634956070e+01 4.138735533217491991e+01
-1.640773439220071683e+00 1.685621488567799631e+01 4.070653402393604381e+01
-1.116188789062500142e+01 2.144458212890624793e+01 3.882651052013638093e+01
-1.496548839807469200e+01 2.096131689380043639e+01 3.767444461714955395e+01
-1.436875073283537141e+01 2.121668698581235191e+01 3.774139778829384539e+01
-7.798611060932135963e+00 2.095111480832600037e+01 3.957279585342327977e+01
-8.212691465275339553e+00 2.142852037614274252e+01 3.947029555886591368e+01
-4.694142009756202327e+00 1.939878582221344772e+01 3.999192831474626786e+01
-6.264890691097637188e+00 2.001741665940768655e+01 3.981293839777782750e+01
-3.963191105797046365e+00 1.872421427733839394e+01 4.006761692768554894e+01
-2.442639074820776024e+00 1.745897177287814728e+01 4.039335187349869472e+01
-1.264477011956572916e+01 2.145860931107941383e+01 3.838732928494422936e+01
-1.390007840047211829e+01 2.154114563510762181e+01 3.790229889026362287e+01
-1.549271301182776917e+01 2.044443957635252929e+01 3.731799745993178163e+01
-1.041631036039854585e+01 2.144574999245069336e+01 3.899760503441427772e+01
-7.169514796398334333e+00 2.089504920710125901e+01 3.969010556293723369e+01
-2.043530277530777539e+00 1.521080997018841607e+01 4.134251218217939083e+01
-1.621967038304499731e+00 1.597477310171001541e+01 4.103742684836350918e+01
-1.120680716279940725e+01 2.218361381045297520e+01 3.871989562074945468e+01
-1.231981725265961281e+01 2.219423281258668013e+01 3.839007559828959160e+01
-1.285056402907413364e+01 2.182984339381993877e+01 3.827912843638847562e+01
-1.002087465219612206e+01 2.188354705823801893e+01 3.904176567469665571e+01
-9.323796617187895208e+00 2.215498239605565445e+01 3.917431197150394695e+01
-7.499792416267921702e+00 2.140893859486608619e+01 3.960106682787728261e+01
-8.526972125943853342e+00 2.209692372444161990e+01 3.937009125022496647e+01
-5.424450054358457507e+00 2.007276078044024104e+01 3.991630052615268198e+01
-3.210855023773171446e+00 1.884316492714241420e+01 4.009824630648122934e+01
-1.826039224061124955e+00 1.454498061031074840e+01 4.169473743498746643e+01
-1.623125124796946706e+00 1.764372860407351240e+01 4.040086938620760293e+01
-1.179333895590055192e+01 2.255841276099060266e+01 3.850057292429907818e+01
-1.316810218913509800e+01 2.197226853620030695e+01 3.815577720629074321e+01
-1.493242236341690443e+01 2.169227169305678160e+01 3.737102519610295559e+01
-1.441464302481500148e+01 2.161670446669296908e+01 3.763667993692670422e+01
-1.296403601054281118e+01 2.247959245251331595e+01 3.814229546971728979e+01
-1.067402401632817899e+01 2.191714016949028121e+01 3.888797206819725716e+01
-6.102865031296591525e+00 2.073072823000649478e+01 3.982445477323358318e+01
-7.858837739074711948e+00 2.182475737493550838e+01 3.950936373904347221e+01
-3.580498893464769683e+00 1.923045110174525263e+01 4.008633386540329013e+01
-8.390970006008988680e-01 1.625360011553130235e+01 4.101950651007557269e+01
-1.384602516606323874e+01 2.233977463773203098e+01 3.775047781935708713e+01
-1.539629520852620814e+01 2.129253354708787072e+01 3.703180001375444874e+01
-1.439021253677331735e+01 2.201585570883480969e+01 3.756101030961028897e+01
-6.787887720595390917e+00 2.138938642578125027e+01 3.973166416681021929e+01
-7.234795957378553410e+00 2.184114458095713829e+01 3.962167146035654497e+01
-4.554808447667674010e+00 2.012963404979854687e+01 3.998535724145372683e+01
-1.947532108896902869e+00 1.803911107502156952e+01 4.032585531111296717e+01
-2.459683137610083392e+00 1.896193041745619823e+01 4.012888233343618793e+01
-1.332479649505954988e+00 1.539944116939861019e+01 4.135737651713571239e+01
-1.126423067646860154e+01 2.292265409835508549e+01 3.861074327397514594e+01
-1.200879898034482984e+01 2.295510433903950087e+01 3.836938457359102728e+01
-1.586035435112397174e+01 2.089262411275612763e+01 3.669107928987110512e+01
-1.330051834994594984e+01 2.266366650071610422e+01 3.793931972515984796e+01
-1.019742728576120427e+01 2.239023582117102151e+01 3.894844372600286420e+01
-8.919754195932682705e+00 2.280389963006362919e+01 3.920380061019132256e+01
-7.679567975638120991e+00 2.229339650499334979e+01 3.951079268921668586e+01
-6.646813204021752242e+00 2.201100105516207961e+01 3.969449034438486734e+01
-7.309867379296725254e+00 2.268904509144435977e+01 3.952743625376374581e+01
-5.020149550409075623e+00 2.070582396829402683e+01 3.995419484880797967e+01
-3.197550090700617353e+00 1.973702536880083969e+01 4.010508453261849837e+01
-8.023309033899617138e-01 1.782877538614224022e+01 4.040835925100465431e+01
-1.537997923996772975e+01 2.160297428037365464e+01 3.678561568802393111e+01
-1.455387551474983887e+01 2.218617181437508279e+01 3.740998202495036651e+01
-1.275367651619819576e+01 2.298757734375000084e+01 3.812764716728974435e+01
-1.049162587674334546e+01 2.289269734760975439e+01 3.880928349316197057e+01
-9.718484753060380399e+00 2.286272294921874604e+01 3.900793513498964415e+01
-6.069051977978855206e+00 2.137285221371874755e+01 3.981808709598653451e+01
-8.121671173870788962e+00 2.274515351562499887e+01 3.939940703955971912e+01
-5.349493145005129513e+00 2.135631121450970227e+01 3.990457833422568967e+01
-3.684625934198078490e+00 2.018654048395692158e+01 4.005456135976039889e+01
-2.843069011224005349e-01 1.587732370825115424e+01 4.128763215980604429e+01
-1.452378782660899370e+00 1.861930294091331817e+01 4.025818259220408635e+01
-2.793767644238400183e-01 1.690211062240541651e+01 4.082146963736343537e+01
-1.522594084594042840e+01 2.199762496467013762e+01 3.684654596848002939e+01
-1.416943744854323661e+01 2.268031881903398173e+01 3.744658589707179175e+01
-1.326766838999376219e+01 2.308116081516249807e+01 3.780456300349744936e+01
-6.497550860166955822e+00 2.263292161420473292e+01 3.965552956028165710e+01
-5.254166551466926904e+00 2.177076519940120392e+01 3.987979754410574174e+01
-4.025263778884829335e+00 2.097429421463220578e+01 4.003572306809264347e+01
-1.708032062205550039e+00 1.908077168700691217e+01 4.015958849897551630e+01
1.296046971832373607e-02 1.649107654413463919e+01 4.100109642910123853e+01
-1.582681699074870885e+01 2.151367402087345937e+01 3.620003229581883630e+01
-1.467467805110170609e+01 2.244782154868332924e+01 3.709025455638494861e+01
-1.378002115019773299e+01 2.317465095543084175e+01 3.748148214779581622e+01
-1.224976717216850552e+01 2.339862869921440947e+01 3.816400799240177122e+01
-1.125336163804450074e+01 2.357139049940931486e+01 3.842416175961784575e+01
-1.079498773894906094e+01 2.353768610470126532e+01 3.864563339983553902e+01
-8.524162429765436144e+00 2.318290190525391381e+01 3.927715208512629630e+01
-9.524830777845648910e+00 2.346067736740970133e+01 3.902017398149040162e+01
-5.876422725056406726e+00 2.220173683505623785e+01 3.976794578248784262e+01
-7.094983576202745112e+00 2.307871952450724606e+01 3.952126437882854049e+01
-8.206699318669679499e+00 2.335772589195768489e+01 3.932593700240959578e+01
-4.630214129520605404e+00 2.133978593750000030e+01 3.999101816368074225e+01
-2.195555119711801506e+00 1.989544013349576446e+01 4.014614200109015485e+01
1.970681751947334082e-02 1.801410216323930058e+01 4.041578296923546532e+01
-1.435730365252698348e+01 2.288410080315866324e+01 3.709437938824185466e+01
-1.253367422455647961e+01 2.342212009973127351e+01 3.798196453589418553e+01
-1.321622604340136675e+01 2.354638870523305982e+01 3.755090988581844158e+01
-8.925104934998794093e+00 2.362079137142690399e+01 3.915426430186999340e+01
-2.814730786691745923e+00 2.024343068061396522e+01 4.012384734703404376e+01
-3.419273641831520383e+00 2.060890911627192423e+01 4.008002420949161859e+01
-9.572410836297722270e-01 1.919947864106665847e+01 4.019030515269058412e+01
2.802150854238762978e-01 1.755047440700968764e+01 4.062277196528688705e+01
-1.551124929347134440e+01 2.230307425833710866e+01 3.631971094132489952e+01
-1.002135479558011255e+01 2.350797885185822622e+01 3.884428078599849954e+01
-1.493439010992700666e+01 2.259356990748955951e+01 3.670712125792783809e+01
-1.339880128057212794e+01 2.358492141763852956e+01 3.733742197138242602e+01
-1.174368900749435518e+01 2.380947785997136634e+01 3.819994218382689155e+01
-7.692031670730281157e+00 2.352509460902336613e+01 3.938638022752047618e+01
-6.949766590957324297e+00 2.326707066831089676e+01 3.952069943605569335e+01
-5.775808358996475711e+00 2.258524957573498426e+01 3.972481198356579313e+01
-4.844945816365384239e+00 2.193865069101309118e+01 3.989340531276609880e+01
-3.976714091676569307e+00 2.131200850252131573e+01 4.003251429025446129e+01
-1.575805064401333278e+00 1.954712678118752223e+01 4.016832768819173083e+01
-3.584110826312091325e-01 1.886613028839866502e+01 4.026780382328079355e+01
-1.591501489736050345e+01 2.198013199961055975e+01 3.589088486404043010e+01
-1.507520874143494183e+01 2.271289422646063016e+01 3.638839754418860650e+01
-1.627333389825597365e+01 2.142430483598169744e+01 3.561383705193323124e+01
-1.398972799234706876e+01 2.335408255402616362e+01 3.700307020280497028e+01
-1.463722110753147554e+01 2.312338096529816056e+01 3.645664698105032642e+01
-1.231097597685091038e+01 2.385615576145740135e+01 3.783583037496711654e+01
-1.077683673392471952e+01 2.418668919735912581e+01 3.845724934682112917e+01
-9.324813137476189340e+00 2.405887463281250049e+01 3.903084453457972813e+01
-6.617827398377015946e+00 2.344655450596649260e+01 3.952162049279755252e+01
-8.287457016659628195e+00 2.397099217641644131e+01 3.925127860221840592e+01
-8.806591659419407137e+00 2.401496946288695256e+01 3.914096407341057926e+01
-2.006085841677268444e+00 2.023967267006858961e+01 4.015058330724777846e+01
8.399721449359400793e-01 1.819902989264823745e+01 4.042305362597658558e+01
2.405165041214533395e-01 1.853272669280403306e+01 4.034536787465579977e+01
8.640419972991669750e-01 1.672828260093471897e+01 4.098262356894321812e+01
-1.575511376826770515e+01 2.224344951940446435e+01 3.576912404825645098e+01
-1.631759216472629248e+01 2.165757491364266585e+01 3.546043773518643860e+01
-1.265143212931350369e+01 2.391815905427341349e+01 3.762020691761672708e+01
-1.123510366972477215e+01 2.422062138671875076e+01 3.823556244570689699e+01
-1.031841188761959494e+01 2.415274516946164596e+01 3.867899792860440300e+01
-9.821562481887413654e+00 2.410580399493210635e+01 3.885494197684266737e+01
-5.836266449844721649e+00 2.299208450272229243e+01 3.965797783270598131e+01
-5.053970526905417593e+00 2.253759055122679200e+01 3.979406995823226367e+01
-4.259648954096177498e+00 2.211075054141301166e+01 3.990148448575033058e+01
-2.743165034927709023e+00 2.074991304424565541e+01 4.012060120783344530e+01
-3.322439113516131304e+00 2.128421728447829864e+01 4.007399289160707667e+01
-6.684819838398021741e-01 1.971552262886111961e+01 4.019767931901262870e+01
-2.393479440248441892e-01 1.922343500596575794e+01 4.019387070654189387e+01
9.514415957054401796e-01 1.746266393925618488e+01 4.071190073191778680e+01
-1.545777097329201943e+01 2.256547491886911416e+01 3.592079235590858843e+01
-1.599879511295692325e+01 2.218385942603946148e+01 3.521870939079792606e+01
-1.502042877964804823e+01 2.297539274223759520e+01 3.598962906037117193e+01
-1.301609213859308944e+01 2.399516465894243566e+01 3.719311682012256881e+01
-1.166089509582442219e+01 2.425521780775011749e+01 3.796226542254596836e+01
-7.398840684870398476e+00 2.390105888671875078e+01 3.938502711009937940e+01
-5.665547946860374218e+00 2.289286508332909875e+01 3.968771279691457465e+01
-8.937624752764609326e+00 2.444544332156947419e+01 3.910928292661264294e+01
-3.464348542085979865e+00 2.168380898868786844e+01 4.000861032863212330e+01
-1.198676221823294252e+00 2.023591039958574456e+01 4.017734307188385401e+01
-1.568905469837379130e+01 2.246871177374428541e+01 3.548236696998818474e+01
-1.671962627081183683e+01 2.133486120657406460e+01 3.502697373364399880e+01
-1.419841769315114455e+01 2.353355478453536875e+01 3.652439181141340896e+01
-1.208599233889927937e+01 2.428976084211259590e+01 3.768935268182141130e+01
-1.341548927625473553e+01 2.396947974233279766e+01 3.678658220041875637e+01
-9.738357312372009744e+00 2.451878657473307399e+01 3.889831624151492662e+01
-6.799837594136335817e+00 2.385706685518919556e+01 3.944625603151398963e+01
-8.216211151593652673e+00 2.438251787975729812e+01 3.923618960691847235e+01
-5.636792078586623234e+00 2.297743336175514983e+01 3.967842098427634312e+01
-1.909312930941128972e+00 2.091502168251158267e+01 4.014535813650612539e+01
4.785447372488644269e-01 1.924739063693726493e+01 4.019749104670580664e+01
1.415127131219896750e+00 1.786667423038275260e+01 4.059706337416208299e+01
-1.660405721851706318e+01 2.169984458405997430e+01 3.457345684618801585e+01
-1.458194127601286105e+01 2.338546029093441803e+01 3.605764761673533769e+01
-1.122487170830514636e+01 2.466391503648087991e+01 3.811260728661537911e+01
-1.051444924055256180e+01 2.459758509632129631e+01 3.856323173800290505e+01
-1.097283680602807365e+01 2.463114392245897477e+01 3.834143842178863792e+01
-6.218694871353328324e+00 2.341724969399060186e+01 3.956246738166429822e+01
-8.660847419834912131e+00 2.441753131415175559e+01 3.916927940943866560e+01
-4.487458840649544811e+00 2.249994822693600582e+01 3.981436550545339514e+01
-4.641113257662039970e+00 2.281120761731813928e+01 3.973756637222872001e+01
-5.361141048771777662e+00 2.315995445174542056e+01 3.964049394628498391e+01
-3.296077747097287514e+00 2.185979444851281883e+01 3.997559754740690607e+01
-2.667282425342770047e+00 2.125640791015625197e+01 4.011546004075087524e+01
-3.911845320434321760e-01 2.023215195312500114e+01 4.020406831004677173e+01
-1.150798652909684527e+00 2.057367443545018304e+01 4.017492269457959253e+01
1.632661184450811209e+00 1.825113794029345726e+01 4.040737350460322119e+01
-1.540358777029186932e+01 2.282740564324482335e+01 3.552246399150254064e+01
-1.624237652626096207e+01 2.212428691974952955e+01 3.466826075238148519e+01
-1.586377353768432563e+01 2.246585512570103305e+01 3.500423932689627549e+01
-1.496531642404304030e+01 2.323740430596059525e+01 3.559090783589958562e+01
-1.373018337000438471e+01 2.388308379787117275e+01 3.642690715377496247e+01
-1.015101810320019737e+01 2.497916606322911903e+01 3.876524636586768935e+01
-9.586061737549291806e+00 2.491923493457917971e+01 3.896717786825690411e+01
-7.362729987178611601e+00 2.417758295083836728e+01 3.934785683724771133e+01
-6.080586175573730934e+00 2.350851411738646490e+01 3.954340457529577435e+01
-7.944011427558076655e+00 2.436006004414824133e+01 3.926798432513238879e+01
-9.033587661801156798e+00 2.486428291015624836e+01 3.908707226975829485e+01
-4.529489734430675263e+00 2.275715182755588728e+01 3.975260589185072035e+01
-5.136472076137837739e+00 2.314706981922348561e+01 3.962798368241554670e+01
-3.920529107738389030e+00 2.246229531250000022e+01 3.983460703322860752e+01
3.769454478728102576e-01 1.991959193960842356e+01 4.020471869610629057e+01
-2.115284355512528247e+00 2.120493897336355715e+01 4.011784991953843615e+01
-1.563333212185727294e+00 2.115350551762815812e+01 4.012013027619984484e+01
1.377747875796003774e+00 1.874684442990938393e+01 4.031406199574819738e+01
-1.165003623245715225e+01 2.469833615338301769e+01 3.783947847175841872e+01
-1.648582170255473756e+01 2.206474005078847256e+01 3.411784498211281402e+01
-1.411670263388935709e+01 2.380217672943552643e+01 3.597999324061483151e+01
-1.263207609238149765e+01 2.440533090821181972e+01 3.704862939542813649e+01
-7.366823906558893853e+00 2.432337913867187495e+01 3.930402957372375994e+01
-6.350327725808687873e+00 2.383126984544005467e+01 3.942116448310566312e+01
-7.141996840573369809e+00 2.431048086987413015e+01 3.929148273303221117e+01
-8.488251886266022339e+00 2.481886575105515291e+01 3.915095246889745795e+01
-5.743549478147238929e+00 2.348918550304953357e+01 3.952460966979735701e+01
-4.528760990058501079e+00 2.280474703269775816e+01 3.973132831477030180e+01
-2.466776904274212701e+00 2.178236819218950160e+01 3.997860747786275226e+01
-1.738941117447162066e+00 2.144211936532049734e+01 4.005053483203374753e+01
-7.035088797521243942e-01 2.066725189203793889e+01 4.016421115359429450e+01
1.197229398249114674e+00 1.927137206915099199e+01 4.020117158711983762e+01
-1.184527148882041558e+01 2.473067814598424974e+01 3.754241217192164726e+01
-1.610722474792845915e+01 2.240623303263206623e+01 3.445408618085298968e+01
-1.677805586059392340e+01 2.160740641155805264e+01 3.367439849015896414e+01
-1.689288816865867204e+01 2.131616904798624290e+01 3.389254679171349949e+01
-1.572807045435289375e+01 2.274785136147099252e+01 3.478950302468757627e+01
-1.469218705598207819e+01 2.357986701231887139e+01 3.528032422704782078e+01
-1.534866140333448925e+01 2.308934134376123737e+01 3.512401448380666125e+01
-1.271195000225077187e+01 2.449378649244753348e+01 3.664045688588047511e+01
-1.326148517494488743e+01 2.423256339227041423e+01 3.632938381363503311e+01
-1.070863706000943871e+01 2.504203778172993822e+01 3.844711802843620063e+01
-1.121296339836010070e+01 2.510723304463776984e+01 3.798940398740208479e+01
-7.925568213716313259e+00 2.449815224933475477e+01 3.924941577452807451e+01
-5.821692046005821908e+00 2.381263576562499651e+01 3.931157206521638869e+01
-6.334267774433288700e+00 2.413703225798735374e+01 3.924043008363967289e+01
-3.194184213340356848e+00 2.212252855023573517e+01 3.990660580505474542e+01
-4.321501986220301461e+00 2.297422373476996782e+01 3.962389121190238939e+01
-4.998000810598316690e+00 2.325997347528852899e+01 3.955631729493952520e+01
-5.674197031195548746e+00 2.354562267853408031e+01 3.948874897433358200e+01
-2.315587781045146176e+00 2.196866919719444411e+01 3.988053251924501552e+01
2.897249129795118061e-01 2.013149691393034502e+01 4.018546802795819417e+01
1.911873709228638196e+00 1.929536430093214605e+01 4.020491099157167980e+01
-3.455567790572684483e-01 2.080919281031713908e+01 4.012877935229838755e+01
-1.011327005202537377e+00 2.110209758203124863e+01 4.012230560663279277e+01
-1.618866841956956293e+01 2.237216799841634085e+01 3.371303331412181592e+01
-1.586598957991761161e+01 2.264775217390134898e+01 3.425528638364535539e+01
-1.656128835045986492e+01 2.184105709393090677e+01 3.344097918194419350e+01
-1.707082270582511896e+01 2.114908757631896208e+01 3.322883471571738312e+01
-1.552879817035650412e+01 2.295315982248929032e+01 3.451907138567334243e+01
-1.211822176673665119e+01 2.478835957520324129e+01 3.722185711034956057e+01
-6.854900202300330037e+00 2.430854865229374440e+01 3.925964350031394900e+01
-3.443739032292825630e+00 2.243215315057208770e+01 3.979691776937723091e+01
-4.395276149430025647e+00 2.310773866684537481e+01 3.953529830252308130e+01
-3.644235534232686202e+00 2.268817865130485245e+01 3.969151512132973636e+01
-3.681395595058129633e+00 2.275506261926086538e+01 3.964718174096375236e+01
-1.663984619161168910e+00 2.153543817535184601e+01 4.000159170952563414e+01
-2.966572191356035226e+00 2.240199728906249632e+01 3.975914956513472021e+01
1.144607728061174834e+00 1.960733572739629338e+01 4.020504874321565580e+01
9.711312455699157020e-01 2.003086505677493534e+01 4.016665522280028000e+01
3.203846523698737347e-01 2.051628833031758958e+01 4.013516875664677741e+01
-1.160322011828702138e+01 2.517294805322258000e+01 3.739522913228432799e+01
-1.682773829783257113e+01 2.143173461927178280e+01 3.307656667120365057e+01
-1.508356054606616148e+01 2.341413626647766932e+01 3.460931036612560519e+01
-1.341317860669799344e+01 2.432649956644483780e+01 3.583415921441562801e+01
-1.403469800824247216e+01 2.407046977701824986e+01 3.543626796941762791e+01
-1.279184971795333148e+01 2.458236250000000211e+01 3.623172487926534302e+01
-1.222740259119971284e+01 2.481982414445464258e+01 3.687354872374746151e+01
-5.108551100926026933e+00 2.346018746370284447e+01 3.942345109088838484e+01
-7.933495380106424300e+00 2.479023188575651560e+01 3.916180631985319138e+01
-7.359302091864996065e+00 2.478687637947200173e+01 3.909812399971890784e+01
-6.846803457556883465e+00 2.446161526560121047e+01 3.916928113265847600e+01
-6.299014925057504044e+00 2.431373999695475163e+01 3.911696206204572235e+01
-3.914067304256701796e+00 2.308342415017736116e+01 3.942051687524139680e+01
-2.282354209773584497e+00 2.210350625383863488e+01 3.980643114555100937e+01
-1.598434131485719778e+00 2.180517614507741442e+01 3.985366664094847522e+01
-3.452120450579299754e-02 2.097410446500241932e+01 4.003766129771248927e+01
-5.230889662768301029e-01 2.103810998149520728e+01 4.008003395194227636e+01
-9.142173556908117504e-01 2.150674839402189065e+01 3.990089553856540050e+01
-1.570921736952140968e+01 2.281676139925019697e+01 3.391308303965185900e+01
-1.539435004322812972e+01 2.313126954659410472e+01 3.410728210516888481e+01
-1.230683261292981712e+01 2.490902074441492076e+01 3.646487729571902037e+01
-5.185839829072581786e+00 2.356956524284376542e+01 3.934789175407802020e+01
-5.347189815017554970e+00 2.374398045150554637e+01 3.928672085781212076e+01
-5.507224583213369051e+00 2.405552415501832897e+01 3.914869774153512338e+01
-4.549965577418061180e+00 2.332649473181014343e+01 3.938420681041747429e+01
-4.872680818988904150e+00 2.367532519162434212e+01 3.926186941498644956e+01
1.653528194930920847e+00 1.993017786913737766e+01 4.014762331476015333e+01
9.864570759963476876e-01 2.022340748519239639e+01 4.014145552370064252e+01
1.052197254861147346e+00 2.042046036716484636e+01 4.007199244402606553e+01
-1.269286085921425666e+01 2.470948711755251637e+01 3.578392947872847429e+01
-1.331446174472541699e+01 2.445341258198095602e+01 3.538635905430670192e+01
-1.638829607100093710e+01 2.199864658895224068e+01 3.309218090050543282e+01
-1.663661055955071078e+01 2.161736765089922940e+01 3.276405937153151626e+01
-1.703788997939530603e+01 2.104259048399031329e+01 3.243545106842196191e+01
-1.442628431310340353e+01 2.390482372105622488e+01 3.476506924527290465e+01
-1.231033869455947993e+01 2.493915664048967429e+01 3.609355672934794512e+01
-6.776252003181709505e+00 2.481641085551054005e+01 3.892227981140802484e+01
-3.278143306469175844e+00 2.284035222844233814e+01 3.945682251124888040e+01
-4.156166790045892512e+00 2.334504308008204987e+01 3.932876761187050363e+01
-2.486166566731646821e+00 2.237807803707737975e+01 3.964423898569230431e+01
-2.006138224018895411e+00 2.235418156640625043e+01 3.952941858657554519e+01
-1.391821029905589313e+00 2.199337335433994411e+01 3.964591407114411936e+01
-7.773977658087161124e-01 2.163262955265187415e+01 3.976232478861654585e+01
-2.299698412227735578e-01 2.120834293161644979e+01 3.994809518815021931e+01
4.538884674515479833e-01 2.091014453125000117e+01 3.999523390422058355e+01
-1.379979004606915716e+01 2.429400466800244374e+01 3.497104302874752335e+01
-1.259391554281861225e+01 2.483776367955402975e+01 3.533644655138144230e+01
-1.616384952742399506e+01 2.225143348480342098e+01 3.290066521216192541e+01
-1.588977274664179085e+01 2.268025685314936979e+01 3.330652628493890433e+01
-1.643814688193993945e+01 2.182210921475731169e+01 3.249374630764527438e+01
-1.671180551523107027e+01 2.139362727397101693e+01 3.208695325417957633e+01
-1.582945060880521559e+01 2.246956337590196640e+01 3.269994129158700247e+01
-1.608806992217277454e+01 2.208729779673955207e+01 3.236780736483866860e+01
-1.481764694908165581e+01 2.373925252646537132e+01 3.409405192712076627e+01
-1.517511485526490667e+01 2.338634654041107908e+01 3.383185046501599658e+01
-1.553279566704034842e+01 2.303304844643040994e+01 3.356912984552391777e+01
-1.182140471532187043e+01 2.523715536482099253e+01 3.669810938633352038e+01
-6.141748250304440937e+00 2.443594628868486041e+01 3.903550153553787538e+01
-3.439582730442486191e+00 2.301476280531123919e+01 3.939565778483035530e+01
-1.617917822635281666e-01 2.127133183607856282e+01 3.987883994058645953e+01
-2.642195621805741634e+00 2.259728304648077213e+01 3.949312086167235947e+01
-1.235294141277666569e+00 2.203263252538752681e+01 3.955933048602835100e+01
-1.307918735036914981e+01 2.467791564796790027e+01 3.492120412990383471e+01
-1.621074315293348178e+01 2.172072671787720921e+01 3.178730773357854389e+01
-5.322428531847878119e+00 2.407750198976081535e+01 3.904043538261443302e+01
-5.772157055831942607e+00 2.447993558022127658e+01 3.881894568228561582e+01
-6.221867125682128297e+00 2.488243506817257611e+01 3.859739194548640739e+01
-4.138794750431018521e+00 2.340938033013081565e+01 3.927188236126786336e+01
-2.722920466298857090e+00 2.268448118492412746e+01 3.946254052279657998e+01
1.213797961551889237e+00 2.054700459709529881e+01 3.998612011061131000e+01
-4.644801702763762252e-01 2.171111208891724331e+01 3.958923149324371593e+01
-1.182841118267388225e+01 2.529758445945474321e+01 3.595533778657959800e+01
-1.356467468627534601e+01 2.451799818910015816e+01 3.450568848578730297e+01
-1.419134956494284161e+01 2.412841882459152387e+01 3.429992699772830633e+01
-1.576906313776617097e+01 2.225876822925203768e+01 3.209305537962080024e+01
-1.541571234360331744e+01 2.294622380406899609e+01 3.296563868023866206e+01
-1.439277657594751503e+01 2.393343338572989865e+01 3.371809516929120321e+01
-1.487955498676980426e+01 2.347568119863043279e+01 3.335945958016671398e+01
-1.494147840531561400e+01 2.321204482421875070e+01 3.262465919582352569e+01
-1.552772025145890922e+01 2.260289482081398305e+01 3.240035676608928839e+01
-5.012757881011784988e+00 2.420164857132350278e+01 3.887667971760865981e+01
-4.338157546827116740e+00 2.359800339462645624e+01 3.920887864844545589e+01
-3.404897400184645484e+00 2.314343585058172437e+01 3.928189402546185960e+01
9.188434799895156546e-01 2.085557648033623224e+01 3.988975456094755856e+01
3.063749711527266606e-01 2.138958978992702598e+01 3.961912481093819594e+01
1.383697869634791022e+00 2.080103117918685030e+01 3.978428832853942509e+01
-1.937062137929833394e+00 2.261154597149655388e+01 3.930191367429703320e+01
-2.670986749503961200e+00 2.287749119280337950e+01 3.929190440126021855e+01
-1.237660579824381379e+00 2.221691580091058427e+01 3.942567115592316185e+01
-1.287082223006295045e+01 2.478599459125107174e+01 3.454336382405271877e+01
-1.238567422031691301e+01 2.494578500993951309e+01 3.495914519042846536e+01
-1.570867765248677195e+01 2.204810695649772612e+01 3.148654645851118872e+01
-1.588260104563145880e+01 2.158332847812882704e+01 3.098618260378070133e+01
-1.318889193043183639e+01 2.464669431418969126e+01 3.416829427633414440e+01
-1.519708042638720080e+01 2.282435447993607980e+01 3.224582595230658910e+01
-1.545288500668244325e+01 2.243626730309488337e+01 3.186636104035160599e+01
-1.445456536533717617e+01 2.366994566223864993e+01 3.298355505810171451e+01
-4.408196066128645896e+00 2.386126955554574636e+01 3.901629173897834590e+01
-5.617315155180987674e+00 2.454203820886014142e+01 3.873704576386958109e+01
-3.803629050291320812e+00 2.352090036321432365e+01 3.915588428653270370e+01
3.030725750933587759e-01 2.163528812666100620e+01 3.944095182312359071e+01
1.077298811314630012e+00 2.106805799608265062e+01 3.964900820267974524e+01
-1.203125600255256833e+00 2.234560192301171000e+01 3.931192108351883974e+01
-4.691735060408003255e-01 2.207965710546875115e+01 3.932192726264057825e+01
-2.469926221561801416e+00 2.294392618334732603e+01 3.922230173709577628e+01
-1.161259441781084334e+01 2.535263319650771052e+01 3.523511844331738985e+01
-1.376620565166797228e+01 2.432311869846840580e+01 3.392392299735622174e+01
-1.545182208000515267e+01 2.183086775839554861e+01 3.083876180965544833e+01
-1.217698059829693591e+01 2.505408940639945925e+01 3.458104483190655287e+01
-1.501877130290165674e+01 2.268804848890027870e+01 3.177175401169667168e+01
-1.476944441748914905e+01 2.303279028868848144e+01 3.208066976031479101e+01
-1.396771884159023358e+01 2.412824114533171738e+01 3.334213006106614330e+01
-1.427072662681573689e+01 2.337246691606200955e+01 3.229900275884123317e+01
-1.506707324955341143e+01 2.236116452997772797e+01 3.123966011757297778e+01
-1.459725735118872514e+01 2.285338628595484067e+01 3.153623756996306327e+01
-5.267777900007447833e+00 2.461673855477033968e+01 3.836871693347015366e+01
-5.756086086304936345e+00 2.498225238110228474e+01 3.810609903309277513e+01
-3.136789777757386766e+00 2.323240092328313011e+01 3.918909306490997579e+01
1.075531134431076286e+00 2.119091820267296455e+01 3.955993699325966162e+01
-1.803035937125546218e+00 2.265572252342762027e+01 3.925551042835925131e+01
-1.136118735848030692e+00 2.236768976640625084e+01 3.928871894093889239e+01
-1.249533679824480004e+01 2.491469991797961114e+01 3.420583122945976839e+01
-1.378360264806558355e+01 2.383217999535884246e+01 3.265836012861947069e+01
-1.501766787399767189e+01 2.199265085951876131e+01 3.059168655604221598e+01
-1.442526320341028878e+01 2.267419359712526372e+01 3.099245760942342898e+01
-1.459593200092026954e+01 2.224847467931830636e+01 3.050972999907009964e+01
-4.779710647215539510e+00 2.425142336230640083e+01 3.863115780358815954e+01
-4.291680613984672377e+00 2.388615770876265287e+01 3.889353504257945815e+01
-5.107575529088148159e+00 2.462693653614540068e+01 3.826311705836532440e+01
-3.095369751057352570e+00 2.327055858808813227e+01 3.913599464347210954e+01
-3.162155520563630695e+00 2.356107759854166162e+01 3.873401903501849119e+01
-3.810856685808503119e+00 2.391648369858093304e+01 3.857701691875405459e+01
8.853972584279790059e-01 2.155475805556323010e+01 3.927144789659099189e+01
1.848250230375472647e+00 2.074653298437500126e+01 3.967888065384855878e+01
1.563243074983220016e+00 2.129210089444181975e+01 3.924618550270029971e+01
2.080730091699204976e-01 2.181722019837804538e+01 3.929668911644277074e+01
7.220200177006408371e-02 2.197544184544388202e+01 3.922023462212988676e+01
-2.617897413116899719e-01 2.226901561043499456e+01 3.905642535043060803e+01
