-8.552951193653097306e+00 1.739895234376739985e+00 2.118423893105652311e+01
-2.317635071749040598e+00 4.738545466932750472e+00 2.077242200413789064e+01
-7.438101609472091980e-01 4.617314845322887606e+00 2.081142953461969114e+01
-4.134322629714652031e+00 4.671759586400334285e+00 2.079407701570513467e+01
-7.307918459192346283e+00 3.483438650039362372e+00 2.102167926245421725e+01
-5.709631983552079681e+00 4.089074894181967679e+00 2.082392843711365416e+01
-8.991425284085028835e+00 -1.538772346557716997e+00 2.278624051584215948e+01
-8.812172240068232298e+00 1.635887679271628370e+00 2.132937744985821737e+01
-1.323392579747340259e+00 4.858506836632307646e+00 2.084137565809487214e+01
-4.770802488891531468e+00 4.907049204324265723e+00 2.091929821236542963e+01
-5.361330447827793222e+00 4.406578790902551113e+00 2.084391446483639143e+01
-7.858267770596772728e+00 2.959640138767237527e+00 2.109797982402682592e+01
-8.273159620634615408e+00 2.642507094944154922e+00 2.120341596067603263e+01
-9.208007740216791248e+00 -1.016209778682802600e+00 2.273416176644316877e+01
-8.774963683383528945e+00 -2.060205119453924816e+00 2.283829085419933236e+01
-9.450847618037704123e+00 2.867834736917220240e-01 2.216413297169417262e+01
-9.167553578152892513e+00 1.485585633586920862e+00 2.159518566502624282e+01
-1.902960663124082519e+00 5.099685596058501247e+00 2.087132170643723583e+01
-2.897200051714128755e+00 4.979718632605424133e+00 2.080237164231487412e+01
-3.598195655576806651e+00 5.126664063418430395e+00 2.086264655616659880e+01
-6.819787476787356972e+00 4.005675785913850540e+00 2.102980997486388048e+01
-9.640921949051040940e+00 2.676729111982431228e-02 2.263006322495452594e+01
-9.424512433925132271e+00 -4.946312124213652073e-01 2.268210203665262270e+01
-9.444288458070545289e+00 1.181037363821504149e+00 2.180835676365589038e+01
-8.688027020714553572e+00 2.325395328600563083e+00 2.130885211473588470e+01
-9.662549598292455855e-01 5.187167830497829257e+00 2.093262531902655255e+01
-4.234612412083443189e+00 5.361970354884856960e+00 2.098787510627041542e+01
-8.269762216361593588e+00 3.333948155017651960e+00 2.129286398290969373e+01
-6.211188451323952364e+00 4.415552927648528581e+00 2.099088911359676501e+01
-9.137795153069934173e+00 -1.538598023755997524e+00 2.317066435838994565e+01
-9.561514718332183804e+00 9.710394099231879350e-01 2.199223129436614954e+01
-9.207007420596438507e+00 2.117996333931829067e+00 2.159947655095353980e+01
-9.508410230290367693e+00 -7.000711052533625800e-01 2.314769555253003830e+01
-2.482520556685792634e+00 5.340831595324005754e+00 2.090126779298059745e+01
-5.514898028583765210e+00 5.051453635111260887e+00 2.103082249467458809e+01
-5.818320522851464283e+00 4.667044502638019843e+00 2.098658764598305382e+01
-8.062976438587616812e+00 3.914132366113500794e+00 2.133318361090084636e+01
-7.444153953800715762e+00 4.119511267443052738e+00 2.117837329241021393e+01
-9.500745466280564600e+00 -1.014826108938425842e+00 2.350314127691543220e+01
-8.960944700995280954e+00 -2.212031390769229056e+00 2.356673618290563965e+01
-9.846835035014683157e+00 5.810744118999086050e-01 2.269143673338918887e+01
-9.752311188043295331e+00 -2.332430175752289447e-01 2.323274347804315454e+01
-9.627829264835844114e+00 1.814563313610022988e+00 2.191881690420699513e+01
-8.823187297939481866e+00 2.911345381327264281e+00 2.143355666456756836e+01
-1.422533572826467640e+00 5.588294245511331582e+00 2.100475471930298355e+01
-3.742040365902280508e-01 5.103046402333649034e+00 2.093933103580378585e+01
-3.062072958169914205e+00 5.581885562780128041e+00 2.093121382317793078e+01
-4.923741838172433383e+00 5.663721374605435344e+00 2.113594492900154620e+01
-7.124632061893978019e+00 4.495753875640150277e+00 2.119069134235631324e+01
-9.303974619371940591e+00 -1.559343386983630175e+00 2.366878812148473443e+01
-9.862564928514922613e+00 1.395240817174846715e+00 2.228679247674290664e+01
-9.969125258056813266e+00 5.058861513215541228e-01 2.303631186186119351e+01
-2.121278642037756068e+00 5.816217237388041639e+00 2.102641422972044438e+01
-7.485226654386378797e-01 5.614231713267266777e+00 2.104036149425440172e+01
-3.644347894132957677e+00 5.862298982540394832e+00 2.106323808023951827e+01
-8.681776624299276435e+00 3.708769195201382818e+00 2.148799227242744081e+01
-6.712786177266160337e+00 4.741164518407815720e+00 2.115786358697736702e+01
-9.863744496091275238e+00 -4.926990804659022727e-01 2.383565780706571147e+01
-1.005248607927005011e+01 1.134682791450065009e+00 2.275272942068865945e+01
-9.602161377749673932e+00 2.600516965740054420e+00 2.186978842814997037e+01
-2.717596915153913884e+00 6.035338100841467934e+00 2.105056817389338875e+01
-4.227153151355757643e+00 6.143401774101179491e+00 2.119538285010818512e+01
-6.149847424326998713e+00 5.154119809865389534e+00 2.116486943296403922e+01
-8.032537717660511944e+00 4.446537395032785334e+00 2.141955891478740526e+01
-8.958289365512193569e+00 3.497117132695328756e+00 2.155821892401824158e+01
-7.580559417847751114e+00 4.756462484142042868e+00 2.133527320759864310e+01
-9.624718699312111880e+00 -1.115882239359869521e+00 2.398867704507385668e+01
-9.385745156829598201e+00 -1.741161689221155884e+00 2.414166354809779236e+01
-1.011741255385864058e+01 1.594314808312509435e-01 2.383977741674165785e+01
-9.280258832586749662e+00 3.048812212734099969e+00 2.171400355963504225e+01
-9.811774238091429012e+00 2.448793407554232360e+00 2.202939522992975796e+01
-1.016334458957800102e+01 1.819063388364042355e+00 2.258108182818662968e+01
-3.248517834496469803e+00 6.115979235625775168e+00 2.110632835772693028e+01
-1.065553554061088315e+00 6.201422437207797955e+00 2.116138055602361590e+01
-4.597443679334629885e-03 5.588774831046537273e+00 2.106723190682068747e+01
-4.810615773391691441e+00 6.424525602779333155e+00 2.132767700989017001e+01
-5.668525538395209118e+00 5.695231244712303464e+00 2.121781039605779640e+01
-8.634815626406313172e+00 4.519797360528865937e+00 2.161937686505756062e+01
-7.214857018431818148e+00 5.067183803151319665e+00 2.132499555778556299e+01
-1.029694018455977833e+01 9.844768071940592780e-01 2.344206980691113529e+01
-1.025830610417277278e+01 1.688746937551648841e+00 2.281406996976192403e+01
-9.885277028050925452e+00 -6.360044643451404633e-01 2.434631844035986603e+01
-1.760036472909391136e+00 6.291586495278083113e+00 2.115156031012200799e+01
-3.379440359478483868e-01 6.154102132849865292e+00 2.118250829654856915e+01
-5.293762637673911975e+00 6.127829976167258330e+00 2.129624233653625254e+01
-6.779519844971568787e+00 5.464683735759639838e+00 2.134993777134848258e+01
-9.093477066689267474e+00 4.083322427351857797e+00 2.168296942810223626e+01
-9.646324607222947378e+00 -1.261095608059491280e+00 2.449934574312041136e+01
-1.037118873960711518e+01 8.117666372194795033e-01 2.384389454045744117e+01
-1.015709447316505631e+01 -8.708113239775772119e-02 2.423055046359979769e+01
-9.997057121570641414e+00 3.082730925666198996e+00 2.213991782829328869e+01
-2.372577779682229160e+00 6.489465935451638856e+00 2.117010995162629428e+01
-2.916650159529908581e+00 6.490462000583971935e+00 2.120218638040934067e+01
-3.831206245681764155e+00 6.397315393005371220e+00 2.123855473467852306e+01
-4.188614617685028740e+00 6.649285495556863879e+00 2.134336719936747429e+01
-8.175672344256176061e+00 4.956709712141751822e+00 2.155572144842365390e+01
-7.716913466300413305e+00 5.393231937602627646e+00 2.149212235474475108e+01
-9.545154491795123874e+00 3.583200731398747507e+00 2.191136171988955184e+01
-1.022965226571249175e+01 2.662949834446107999e+00 2.250758014404117802e+01
-1.031861028881507814e+01 1.383042755484249486e+00 2.318900804747380562e+01
-1.046418622671077969e+01 2.242973012048192771e+00 2.287542499506026417e+01
-9.407446615792890654e+00 -1.884510922881055039e+00 2.465245212377528006e+01
-9.906809314114738640e+00 -7.811700892424635612e-01 2.485696955328151247e+01
-9.539349571709525577e+00 -1.971750082340147037e+00 2.518063571383549260e+01
-9.667930686671788010e+00 -1.405650805650519697e+00 2.501001456164019388e+01
-9.278629767937369266e+00 -2.451002409014048311e+00 2.482261390649986410e+01
-3.435260149281982756e+00 6.651273866770221588e+00 2.128172652818770061e+01
-1.382569922236206228e+00 6.788613454562139715e+00 2.128239995921281746e+01
-5.822200511416063762e+00 6.339131034235689022e+00 2.140486345734583651e+01
-6.300863012213923753e+00 5.901899762041011854e+00 2.137740065155963620e+01
-9.172307209995913979e+00 4.646028838751282031e+00 2.185999623004450143e+01
-7.281536009134893739e+00 5.790767100741081030e+00 2.151706927402279845e+01
-1.017871548431753048e+01 -2.304124742504252144e-01 2.474113649796466063e+01
-1.041084328483607813e+01 5.652607829292104480e-01 2.423469955922016084e+01
-1.054458852634690480e+01 1.852878269773423625e+00 2.336197626711697595e+01
-9.928334684392238429e+00 -9.268009375542040074e-01 2.536746009590818218e+01
-1.020033775930361308e+01 -3.741213638963429289e-01 2.525172527483922380e+01
-9.410650128091575084e+00 -2.538383603359094742e+00 2.535129990743761397e+01
-6.713968893634981727e-01 6.719640586885660127e+00 2.129782748145205318e+01
-5.393404025985243599e+00 6.703765646305980930e+00 2.145981839589516227e+01
-4.311927194615825520e+00 7.166780886115965643e+00 2.150818056577611870e+01
-8.747483371380818440e+00 4.977857544047672000e+00 2.178223189454787700e+01
-9.430465711353065217e+00 4.482543238388243978e+00 2.197894905814741406e+01
-1.062490585149090094e+01 1.463864721948253012e+00 2.384800569680743365e+01
-1.045049747980536736e+01 3.186418057665708625e-01 2.462550237696061473e+01
-1.010842618921301117e+01 3.732588455404650229e+00 2.232190459869149635e+01
-1.034250919125702595e+01 3.584246471841581183e+00 2.257738842169845128e+01
-9.799789811627523051e+00 -1.492926914210356060e+00 2.553814065602670169e+01
-9.671252026960649673e+00 -2.059012752300149796e+00 2.570881548168901531e+01
-2.027619823760391515e+00 6.943487719297013250e+00 2.128962977316123784e+01
-2.824771409159223978e+00 7.064345876263618429e+00 2.137334121940172693e+01
-3.621922019183689834e+00 7.186371252645972874e+00 2.145705248636695828e+01
-4.918484774921293656e+00 7.254120521829256596e+00 2.158473625422770326e+01
-6.846244314695868027e+00 6.188224017931885257e+00 2.154201091796999634e+01
-8.159558402333276561e+00 5.769415077061171182e+00 2.176118769158835420e+01
-9.769472853328766249e+00 4.107562711588241378e+00 2.215042693043777078e+01
-7.802351518174932998e+00 5.976222626899123647e+00 2.169964088716062633e+01
-1.060658343173154172e+01 2.830096989943537977e+00 2.302008870113725791e+01
-1.068439892097199539e+01 1.094236525330685383e+00 2.443421962388300273e+01
-1.047219303187759287e+01 1.753987278715273546e-01 2.513604959080235091e+01
-1.073468063134443362e+01 2.675256725414529413e+00 2.333990392851350038e+01
-1.016103425011883132e+01 -5.213488389048146487e-01 2.573396324225942067e+01
-9.542589616478768022e+00 -2.625716962025316459e+00 2.587965872976707615e+01
-1.790497378992875199e-01 6.666042036940577731e+00 2.130186184652817971e+01
-5.975841649133362132e+00 6.982971123343201469e+00 2.159188037231890789e+01
-6.410724001917579962e+00 6.585887404010661861e+00 2.156696415137576395e+01
-8.705343994137582087e+00 5.488993507763474611e+00 2.189907859975330950e+01
-9.251107415088108965e+00 5.208574407927098804e+00 2.203696731899509587e+01
-9.767531051230964323e+00 4.881864996592886641e+00 2.227498693223326498e+01
-7.366973681331497659e+00 6.373426004071263584e+00 2.172448218470995229e+01
-1.074389294253077054e+01 7.243634260783052836e-01 2.502043463441473747e+01
-1.078744026720631766e+01 1.982398357576150350e+00 2.395305610125822682e+01
-9.952645777103601432e+00 -1.098944234707043943e+00 2.610564072542149461e+01
-9.794986443953165534e+00 -1.685986644839230886e+00 2.601887259712411193e+01
-9.687518678287338147e+00 -2.173815997548770529e+00 2.620150537275259239e+01
-2.308380853780966468e+00 7.568008977392319814e+00 2.149808702549742989e+01
-1.682764836305068457e+00 7.397357721678076814e+00 2.140911339582851625e+01
-3.768764532187229288e-01 7.174546754210190613e+00 2.140886351101486440e+01
-1.005102339524600596e+00 7.285630001724321403e+00 2.141323852718194587e+01
-4.443745238070595072e+00 7.804630646428812213e+00 2.170969097876104215e+01
-1.039517070828643597e+01 -4.072203294300973109e-02 2.559951914953249741e+01
-1.086387419123962772e+01 1.803160115224722526e+00 2.431639122689178834e+01
-1.074875056767531412e+01 3.416265829268090748e+00 2.316450960102777756e+01
-1.021970223381440590e+01 4.382031013303364197e+00 2.250376756244943621e+01
-1.095000929865582506e+01 2.501029883067008353e+00 2.405811857826195421e+01
-1.021191309216629151e+01 -5.654091493610875485e-01 2.624476616925594641e+01
-1.068514680690478436e+01 5.076954411703813452e-01 2.574368623287973534e+01
-3.042607549558499436e+00 7.747043216577448099e+00 2.159586592244487946e+01
1.670236174346164670e-01 6.933803611801147682e+00 2.137282772315336032e+01
-3.808442767540774820e+00 7.721100820883184390e+00 2.163224851602809196e+01
-5.527439252234724876e+00 7.434603172604810517e+00 2.168950889713681462e+01
-5.079048026303128793e+00 7.886240135892697900e+00 2.178713329830345558e+01
-6.871781647759142686e+00 6.702637920819504380e+00 2.171335092318095050e+01
-8.602017599230006084e+00 6.145454183941613024e+00 2.203013160421453875e+01
-7.887702846075899110e+00 6.558647631066873984e+00 2.190695258815375368e+01
-1.093489972284395328e+01 1.622900623412962817e+00 2.474629000032365767e+01
-1.100509038166292441e+01 3.107405333737210729e+00 2.380421370373098355e+01
-1.039387594877385723e+01 -1.157033213367539143e-01 2.610066788911623448e+01
-9.486529098284249173e+00 -2.602907848490207066e+00 2.657298326405161859e+01
-9.832222952955502748e+00 -1.722633681899950364e+00 2.652283127950494190e+01
-1.019339616871638299e+01 -7.517133538973164164e-01 2.671847375172307437e+01
-1.338275966214969470e+00 7.850733684360640119e+00 2.152846921635974198e+01
-4.630634946403655583e+00 8.337935286246466404e+00 2.188476097210826055e+01
-6.517519083049355011e+00 7.313919607947626744e+00 2.182613842802804882e+01
-9.674693144198609929e+00 5.467848199805390053e+00 2.235328044028927152e+01
-9.330031916184436724e+00 5.772053771247138698e+00 2.221422681662227561e+01
-1.094331079504254767e+01 1.310459275949872771e+00 2.509812258100220816e+01
-1.068849450602932727e+01 4.086543276020738524e+00 2.301551451113380509e+01
-9.703803292011322412e+00 -1.925558789279209870e+00 2.705509824696770238e+01
-9.976971833745873042e+00 -1.271326532887402605e+00 2.684423486880679377e+01
-1.906535548080576348e+00 8.038120243678118726e+00 2.161923062453647404e+01
1.895053606430704973e-03 7.759253571151382367e+00 2.155158819834321093e+01
-6.681926916917444448e-01 7.804995657512470153e+00 2.154002913186194590e+01
-6.092021695812985804e+00 7.559372686111929696e+00 2.182618559253295842e+01
-5.643704949898798340e+00 8.011385954992654490e+00 2.192397353037207708e+01
-7.320024712575706971e+00 7.027535019085344281e+00 2.192359181623483622e+01
-1.033092909079688404e+01 5.031305019313706772e+00 2.268557303122479141e+01
-1.010492622544750851e+01 5.281587996822074693e+00 2.257130521392122091e+01
-8.509043892502317519e+00 6.831812475425135034e+00 2.220691882742307044e+01
-1.110309403124807659e+01 2.142798087679087526e+00 2.478524676077524092e+01
-1.111266918700226825e+01 3.019952129634890348e+00 2.416322874720552605e+01
-1.089081995030114669e+01 4.002030031695055889e+00 2.330882054234743350e+01
-1.106007722269700366e+01 1.150446718784202460e+00 2.558639302342065491e+01
-1.041008382061886905e+01 -2.315907321775427241e-01 2.659256120968200676e+01
-1.062640641819480791e+01 2.893537845982144252e-01 2.646685571662380099e+01
-1.100108945099470503e+01 9.332975823421520989e-01 2.630990878513974351e+01
-2.474797783681324859e+00 8.225338322705180616e+00 2.170999200705839982e+01
-3.480163896428575043e+00 8.126035065047361172e+00 2.173772894163876401e+01
-3.994816114531301476e+00 8.255449239973371434e+00 2.180730779078466242e+01
-5.310788049856698834e+00 8.592402591626029817e+00 2.208844162464481187e+01
-9.044921044347598027e+00 6.521878503131846472e+00 2.229933545875137568e+01
-7.973148699561984465e+00 7.141749237908515902e+00 2.211449926966886181e+01
-1.114264035834132294e+01 1.896232825963445112e+00 2.517576176028843804e+01
-1.130872518571644747e+01 3.010270377976621781e+00 2.476124247218719177e+01
-9.430489993178134966e+00 -2.580160276555625298e+00 2.726607318805682567e+01
-1.034078614564007026e+01 -3.341297057464026610e-01 2.709388230954780852e+01
-1.055723375957407306e+01 1.854160169148434401e-01 2.696816543346292860e+01
-1.048806133081651915e+01 8.319368622138925695e-02 2.746940356349226420e+01
-1.074882729165549300e+01 6.193146690210078464e-01 2.733244968117709917e+01
-1.081799197595695716e+01 7.245564010072826910e-01 2.683097588673356526e+01
-9.849308078260305521e+00 -1.399609972673245606e+00 2.732731498324701391e+01
-9.721800489654158994e+00 -1.527751807873085843e+00 2.780973192559678608e+01
-9.512376137230763362e+00 -2.117994351857076740e+00 2.777933263299962974e+01
-9.130695362753353805e+00 -2.919854609903572040e+00 2.786275258393470722e+01
-1.012425851895593532e+01 -8.539750157382153262e-01 2.721980500745585019e+01
-3.043213473480271158e+00 8.413436256492678567e+00 2.180077813945224463e+01
-2.099041011267985368e+00 8.550585616675711265e+00 2.181639339987152937e+01
-6.208361596700765261e+00 8.136587055810863944e+00 2.206081357392232078e+01
-9.408901558443634627e+00 6.335192757451938661e+00 2.239137248120023216e+01
-9.727031027251703321e+00 5.929531654220187242e+00 2.249103374126560340e+01
-8.472627460461552573e+00 7.365760898233788545e+00 2.235697349226586539e+01
-1.135921135654754366e+01 2.029410447598900102e+00 2.570302935081929974e+01
-1.127544487429336684e+01 3.539465912860261021e+00 2.426839981682047309e+01
-1.115427621644616707e+01 4.063833557874189317e+00 2.386093887794523027e+01
-1.103421434136629031e+01 4.588459037290714804e+00 2.345328057219359863e+01
-1.073838575618273694e+01 5.134667967317370518e+00 2.316050821214168565e+01
-1.027148913422034049e+01 -4.367882713184376153e-01 2.759513640014476721e+01
-9.996604544666789494e+00 -9.823225437288810591e-01 2.770251757615260146e+01
-1.014366214979980718e+01 -5.654194733796474859e-01 2.807798217402945085e+01
-1.591719713673570347e+00 8.419164948136954152e+00 2.174865995387744988e+01
-2.498109673646170314e+00 8.929692182705462500e+00 2.197189192196982077e+01
-1.069564451714835496e+00 8.431395190928430594e+00 2.173213710439320678e+01
-3.217867047283935467e-01 8.430005539605508247e+00 2.176153860494166992e+01
-5.829516125575823438e+00 8.501603483821449814e+00 2.213710259329185348e+01
-4.775773559304924198e+00 9.059704911689832940e+00 2.217812589193122008e+01
-4.181398557415030304e+00 8.790450250000001020e+00 2.198256536900973401e+01
-7.059393971393208567e+00 7.645027250634942817e+00 2.206047912557219703e+01
-6.544391365903603486e+00 7.781887348570466933e+00 2.200219615530819439e+01
-1.044225007362376800e+01 5.681227509752402760e+00 2.286754901380717442e+01
-1.012402403901103831e+01 6.087014078051887545e+00 2.276783310253751225e+01
-9.039765781543364298e+00 7.368197639567892310e+00 2.255549570021934258e+01
-7.602586504641098308e+00 7.503099498532213474e+00 2.214312244946340869e+01
-9.487754601938236831e+00 6.898248162630746805e+00 2.256848526448534287e+01
-1.134195860597439420e+01 2.481920265194627717e+00 2.525337951096121358e+01
-1.067966308763609717e+01 5.172977818113415616e-01 2.783379707453600460e+01
-1.100973785464695176e+01 1.159816538478156911e+00 2.719531201304049972e+01
-1.137646398638968570e+01 1.576802517523122171e+00 2.615266215666327554e+01
-9.594243405362433919e+00 -1.655951488095237956e+00 2.829220090948462740e+01
-9.339784182984127270e+00 -2.190625898864706045e+00 2.834769176066737018e+01
-9.868950656331520577e+00 -1.110685668465622777e+00 2.818509118819974191e+01
-1.041886670453722097e+01 -1.919005532473296721e-02 2.797068115986828118e+01
-3.612139540733798615e+00 8.601838130709538177e+00 2.189164542183386075e+01
-9.805879031160436909e+00 6.492661787333450896e+00 2.266815166631595702e+01
-8.058574923395619649e+00 7.724737176325700005e+00 2.232199971988965359e+01
-1.151945917209434000e+01 3.134860361436102139e+00 2.548858401653136596e+01
-1.147515438432248658e+01 3.840014290398086505e+00 2.483190091590753212e+01
-1.128905705272570437e+01 1.585580658972072010e+00 2.685632192800570195e+01
-1.136865622917084551e+01 4.095756446391653149e+00 2.446703478334742954e+01
-1.094044746602591545e+01 1.054743298550627983e+00 2.769691901300585712e+01
-9.085433830650851306e+00 -2.725075310264294615e+00 2.840315148329569084e+01
-9.888795934346136463e+00 -6.739017803991819155e-01 2.860495987777894555e+01
-9.614090044448849071e+00 -1.219071482884348301e+00 2.871217095990954959e+01
-1.016377295534741876e+01 -1.280442951849984079e-01 2.849781281210849571e+01
-1.845313208967367613e+00 8.987940029660222763e+00 2.196898098555936585e+01
-3.179300292318443244e+00 9.125348658921812017e+00 2.206976663434469899e+01
-8.007080618388621174e-01 9.012359203083486037e+00 2.193591348209169567e+01
-5.847168884826780655e+00 9.021259778864436640e+00 2.233445320121186128e+01
-5.369666770928682276e+00 9.328861118061459123e+00 2.237352624568192283e+01
-6.844657453792358126e+00 8.254555390381485225e+00 2.223735917463942258e+01
-8.591975188322852119e+00 7.837923422399094342e+00 2.254251293188851335e+01
-9.104296946377020916e+00 -2.389933118643126964e+00 2.887416950542817062e+01
-9.358602068528174556e+00 -1.855455176817822460e+00 2.881882574345869230e+01
-1.108202605215359249e+01 5.197821970056634377e+00 2.367706623058481341e+01
-1.154160350503775945e+01 2.666758263393103956e+00 2.579458704658459212e+01
-1.152353985654294988e+01 3.553734473284879236e+00 2.521582285444549143e+01
-1.156466812336594963e+01 2.063160237126226537e+00 2.639447988664386457e+01
-1.123914535264545833e+01 4.980965883883262002e+00 2.399026895338295162e+01
-1.049484598179702566e+01 4.773443826035572157e-01 2.836024087232665991e+01
-9.378609342498174684e+00 -1.418463705142581688e+00 2.924244088105846018e+01
-9.633929617653564037e+00 -7.823933387685907404e-01 2.913647325076266270e+01
-1.075563625766407228e+01 1.013650338416785646e+00 2.822334495797539944e+01
-1.120165070983984990e+01 1.594383123224874188e+00 2.755982091346153595e+01
-1.101675202241023932e+01 1.554027593322133916e+00 2.808624717887532896e+01
-1.334297459831665922e+00 8.917366654778547286e+00 2.192232087121281126e+01
-2.098999011827588745e+00 9.556929555313244506e+00 2.218938153189689899e+01
-2.746095233302746408e+00 9.649385909155222762e+00 2.224794020839622632e+01
-6.324670830576210712e+00 8.713665881445320949e+00 2.229537923896237928e+01
-4.327644337214210601e+00 9.333208210202290189e+00 2.223554759740072484e+01
-7.601782468534523218e+00 7.976463418937134620e+00 2.229503791641480603e+01
-1.070344991181219285e+01 6.130014018186031421e+00 2.336155158710467461e+01
-1.046890701143301250e+01 6.333272845373553395e+00 2.312528999583465961e+01
-9.506870296648752827e+00 7.439880795247412415e+00 2.280211964439385852e+01
-8.144011056590498399e+00 8.307811298534984346e+00 2.252952442073620176e+01
-9.123161542826627723e+00 -2.054790967423421488e+00 2.934853962190094379e+01
-9.841454819929747799e+00 7.361775508015554692e+00 2.301176383818441096e+01
-1.171928988746386580e+01 3.319964526308471164e+00 2.603018650328310102e+01
-1.153872524231070607e+01 2.141010155078685528e+00 2.686482721872199519e+01
-1.144806154086460914e+01 2.074869284383442647e+00 2.733291348910420027e+01
-9.398618907280653190e+00 -9.814715703487932874e-01 2.967331597519656938e+01
-9.908686037416117642e+00 -2.369122422108163040e-01 2.902906911099205089e+01
-1.023974522964462963e+01 3.684401903644250464e-01 2.889115938489387503e+01
-1.057082625211906013e+01 9.738258575085861901e-01 2.875336589154778721e+01
-3.787493702462497058e+00 9.266204925732250075e+00 2.214445161893181790e+01
-4.915302426632349508e+00 9.809285197473489148e+00 2.251914068303709371e+01
-6.837796642645436407e+00 8.900403762187796275e+00 2.247110261479578242e+01
-9.071578720956141595e+00 8.123186337037333615e+00 2.288356580805904983e+01
-8.850163639131487514e+00 -2.923993597512299480e+00 2.892955761936556058e+01
-1.049551140388613035e+01 6.984262608561560448e+00 2.338259631613767908e+01
-1.146184535275683380e+01 4.651914347344120237e+00 2.466559349144390723e+01
-1.154657640882000535e+01 4.350401936126304214e+00 2.497105209546999660e+01
-1.169702018400840160e+01 3.788010341320640517e+00 2.572380437917606244e+01
-1.167489564794625601e+01 4.140821447968467517e+00 2.539542098188990593e+01
-1.174156012339947353e+01 2.851875503479968987e+00 2.633656953401168010e+01
-1.175292747129668669e+01 2.549639039477950675e+00 2.663630821572186136e+01
-9.143262456104265468e+00 -1.617744536910914688e+00 2.977908219687707359e+01
-9.653770589515648481e+00 -3.457151187132099235e-01 2.956762414095324587e+01
-9.984644986285401203e+00 2.595038881887545834e-01 2.943022923144662784e+01
-1.031590628767460949e+01 8.653828823590736796e-01 2.929264909241677373e+01
-1.083180338968985801e+01 1.512026844951139370e+00 2.861627971687143557e+01
-3.393191708126565231e+00 9.742520672825573769e+00 2.230649890671331548e+01
-6.440946330648868567e+00 9.290591438140188174e+00 2.252987519746903544e+01
-5.963414239025691010e+00 9.598003889188872151e+00 2.256887584758295162e+01
-8.503966214990450467e+00 8.632785494261117520e+00 2.283150684465536528e+01
-1.112983220677373275e+01 5.807350879600038596e+00 2.390089024207184920e+01
-1.144380340597617440e+01 5.372954434243060184e+00 2.452648231301808224e+01
-8.869051504237265959e+00 -2.588946304787416608e+00 2.940276350079217238e+01
-1.163057344511795677e+01 4.767333868093104776e+00 2.516305222390968055e+01
-1.169465837807214825e+01 2.555702762111865312e+00 2.710583594748116099e+01
-1.142433549124995018e+01 2.112760246447923596e+00 2.791729149834976553e+01
-1.167102610293903631e+01 2.593863985608480416e+00 2.769039301968515687e+01
-9.105797135346019644e+00 -1.165083212803777801e+00 3.025770154932874334e+01
-1.064683865167187982e+01 1.470361389961389875e+00 2.915518417085426961e+01
-9.909029806716118216e+00 8.004563210847626120e-01 2.989266384114849018e+01
-2.999631117886090603e+00 1.021807311260483786e+01 2.246823711369446386e+01
-3.933570205034829570e+00 9.809621414895614677e+00 2.239756329871966045e+01
-4.473949113692957447e+00 9.876109384781265987e+00 2.248862729598427279e+01
-5.552214470153053583e+00 1.000734885070153801e+01 2.268973161364709412e+01
-7.294516462715575855e+00 8.580705772003694776e+00 2.245056556420102822e+01
-7.747456614378505968e+00 8.697493450098001233e+00 2.258817630943822508e+01
-1.096436493301308879e+01 6.578320454319935173e+00 2.385497168033595372e+01
-9.525997539572703232e+00 7.981928621571030114e+00 2.303592380469511269e+01
-1.155505048679024149e+01 5.208167385254423465e+00 2.486414939615184494e+01
-8.887937921310594902e+00 -2.253944540572792032e+00 2.988482233542319833e+01
-1.019525520298957844e+01 7.825441076649280348e+00 2.345513311154928004e+01
-1.191926578059149833e+01 3.505453904337387794e+00 2.657194822902762255e+01
-1.194153636804777818e+01 3.037002791387627187e+00 2.687849896420366846e+01
-9.361160483793716125e+00 -5.289995336503573453e-01 3.015212203268248103e+01
-9.578034977449464193e+00 1.948595821378611981e-01 3.002883761426517140e+01
-1.024002513416225035e+01 1.405982940373564194e+00 2.975658545553322654e+01
-1.105469822688806225e+01 2.032752053147691473e+00 2.898410470791180771e+01
-1.123951643676241119e+01 2.072740931508538331e+00 2.844459653676103628e+01
-6.954009739096253639e+00 9.477184039273087279e+00 2.270552633978299539e+01
-7.350923303500835893e+00 9.087152770967344750e+00 2.264682390627292108e+01
-8.178936442318743616e+00 8.847837570694025544e+00 2.279039696856104413e+01
-1.052216356029909683e+01 7.636611187454267480e+00 2.364041822578526819e+01
-1.189702142061889312e+01 3.973324553418772442e+00 2.626575045580709755e+01
-1.187474796854521841e+01 4.441765256432693931e+00 2.595915270196872626e+01
-1.191771658188644700e+01 3.074878219600361451e+00 2.746349404138932826e+01
-1.164724170458460328e+01 2.631717451926987472e+00 2.827420962066245380e+01
-8.850539018499169686e+00 -1.801191021303572892e+00 3.036298970817472664e+01
-9.502241677282846410e+00 7.358674931118369678e-01 3.048587572956513014e+01
-9.833808062882164691e+00 1.341372459763681357e+00 3.034928561167997074e+01
-1.066419028431551475e+01 2.042124968446454858e+00 2.957468055317293221e+01
-3.657183445092738516e+00 1.039833048108760138e+01 2.262200735832695386e+01
-6.557147527173778911e+00 9.867161521418021053e+00 2.276421849028018940e+01
-4.620122283442429811e+00 1.041854324931987996e+01 2.274147390621417841e+01
-5.177441366553274804e+00 1.055214820127139674e+01 2.287370043169515554e+01
-1.117760298865322532e+01 6.416644381755761017e+00 2.412459870463909439e+01
-8.863903983993607127e+00 8.957748155998809025e+00 2.313345701455333980e+01
-9.545110607392985003e+00 8.523641568898758791e+00 2.326957220954598782e+01
-1.164858225599050279e+01 5.765177173340358507e+00 2.506292753036437304e+01
-1.172388054546042646e+01 5.323784736183958977e+00 2.536184102616984859e+01
-1.179930081311060874e+01 4.882866936952518166e+00 2.566044485170307965e+01
-1.201941846751489607e+01 3.517892409045196178e+00 2.714198901241353923e+01
-8.813141427914953141e+00 -1.348442429180533253e+00 3.083821165960731392e+01
-9.068333280308294775e+00 -7.124212396532974001e-01 3.073300213977902473e+01
-9.231094176316355870e+00 -1.693717314262810081e-01 3.064021082381536942e+01
-6.145599498360449608e+00 1.027685216033517257e+01 2.288517857535274658e+01
-4.140907060425454311e+00 1.026238917911731363e+01 2.261824286877126866e+01
-1.143712021665818490e+01 6.395862725806880533e+00 2.470587443273068473e+01
-9.931401100774079893e+00 8.216589458250126654e+00 2.342356492553751579e+01
-1.054879815257578812e+01 8.288774331550802899e+00 2.389813400356625905e+01
-1.122543349272772240e+01 7.026898301392654034e+00 2.434862118308471324e+01
-1.088716890624481692e+01 7.657811234607481587e+00 2.412338732348951353e+01
-1.201010459529974561e+01 4.066006622769851475e+00 2.687939228150965576e+01
-1.200853315773083452e+01 3.635594219415930084e+00 2.777007689685897418e+01
-1.189390973220402969e+01 3.112714599368475277e+00 2.804729532373221090e+01
-1.146253570812779188e+01 2.591869580206981105e+00 2.881291905959745137e+01
-1.036350101800159429e+01 2.134105986761863694e+00 3.012276642886582323e+01
-9.101028595051515069e+00 1.902554680549095045e-01 3.112910677948853433e+01
-1.107204120961507066e+01 2.601610753959895828e+00 2.940393490444369817e+01
-6.997465370734795798e+00 1.015246603405060632e+01 2.303166141155670132e+01
-5.734760836539905426e+00 1.068584127659240224e+01 2.300592602835132894e+01
-7.605669696089751852e+00 9.770223503111800767e+00 2.304149079823042712e+01
-7.815750878275611768e+00 9.165916802971775468e+00 2.282613452029175960e+01
-1.180609488779528249e+01 5.986563239184151897e+00 2.555922952850840346e+01
-1.200085996976432767e+01 4.614331271064217255e+00 2.661709458062512468e+01
-1.209721985411709788e+01 3.998277927265050824e+00 2.740502676695153639e+01
-1.187010117498808093e+01 3.150538009946763918e+00 2.864172928121420370e+01
-8.938262210400724328e+00 -3.531313350008406515e-01 3.122171116929861512e+01
-1.006405406803824931e+01 2.225739589121900064e+00 3.067193255085568993e+01
-9.428988986941950756e+00 1.276704979591836597e+00 3.094385543321340748e+01
-9.264520910900698070e+00 7.333172363627271650e-01 3.103652423462965260e+01
-6.615738907344347552e+00 1.038436834929627572e+01 2.304445634296407164e+01
-6.204515122295377161e+00 1.079344220290082568e+01 2.316516483642810442e+01
-4.189949818682296545e+00 1.075965748622607165e+01 2.284015912089957467e+01
-8.213868636079295626e+00 9.387985342149871570e+00 2.305132021137063347e+01
-1.170975484290482704e+01 6.378448416286540912e+00 2.532976681515720685e+01
-9.564215485672717065e+00 9.065188665220667019e+00 2.350313495199041114e+01
-1.189101032610930275e+01 5.490478808436713543e+00 2.589537732363244515e+01
-1.197595884839032010e+01 4.994789115437465732e+00 2.623158356240924860e+01
-1.199768223543650514e+01 3.753460528493121728e+00 2.840493556309936096e+01
-1.212525245869857216e+01 4.356273265227885716e+00 2.816801433901114038e+01
-8.831827181449328990e+00 5.875761667953707801e-02 3.160955179114919389e+01
-8.994740550771911813e+00 6.018986051365298184e-01 3.151720669461709079e+01
-1.068154934836648451e+01 2.611301654526518856e+00 2.998703502868238147e+01
-1.038150817790959834e+01 2.704845525992859656e+00 3.053596330711959084e+01
-9.746451799526036908e+00 1.751353476670783227e+00 3.080793899833992100e+01
-9.159035339942645848e+00 1.145036629436824382e+00 3.142482884583109026e+01
-9.223493710183467087e+00 9.282399560284151363e+00 2.343509316261716080e+01
-1.022724009894859520e+01 8.727943412995008643e+00 2.384443382494032093e+01
-1.213120437829591225e+01 5.388827101985171453e+00 2.692928181505676832e+01
-1.080875590124696295e+01 8.734867809413339401e+00 2.441167291554794261e+01
-1.125139811670618073e+01 7.677904555477994997e+00 2.462169852703077311e+01
-1.144804806397783103e+01 7.423150682941492384e+00 2.494245513107124168e+01
-1.212684118795114685e+01 4.786694747934556737e+00 2.727396542456831696e+01
-1.147956214938305486e+01 3.160421539796602008e+00 2.923324694394684187e+01
-1.217502099036442864e+01 4.478659549458085642e+00 2.766776870124622789e+01
-9.652581331358337735e+00 2.189000277929178839e+00 3.116382130139979623e+01
-9.334987812633173121e+00 1.714625350964394057e+00 3.129995198747356255e+01
-1.108918586036855025e+01 3.170250973636655534e+00 2.981818889666663708e+01
-5.874197832181419443e+00 1.133802611593554843e+01 2.337374583411243378e+01
-7.438007959620936305e+00 1.043792626300549919e+01 2.329923367901254849e+01
-8.686375020696191385e+00 9.789247123424688724e+00 2.343615108705017391e+01
-8.248807608829702431e+00 9.928257773782895867e+00 2.331229368171264227e+01
-1.196385082096305297e+01 6.208028114406205056e+00 2.605556571872964611e+01
-1.207697872853586851e+01 5.546768752905592237e+00 2.650340836867272643e+01
-1.192127119463330587e+01 3.631316462649964993e+00 2.894139933588711244e+01
-1.208292275603619004e+01 4.554309733317592368e+00 2.890425279189229002e+01
-8.725260874031835812e+00 4.704002688807821242e-01 3.199758715608930615e+01
-9.970038327185662297e+00 2.667121165991219289e+00 3.102793440321637775e+01
-8.889434779849905155e+00 1.013539254857432903e+00 3.190515977141266291e+01
-9.558538716844442007e+00 2.627697662418788216e+00 3.151986690467683871e+01
-9.241078739034223943e+00 2.152006807430731250e+00 3.165565893717537449e+01
-6.674270243486292387e+00 1.090105153642513613e+01 2.332440209717801949e+01
-6.308412690577625881e+00 1.131232967783135557e+01 2.345625060289339103e+01
-7.878854810370738093e+00 1.024471070670928441e+01 2.334519382456966952e+01
-9.583335593604207503e+00 9.607279068165595959e+00 2.373691233900480668e+01
-1.056680323301267066e+01 8.823818803130279775e+00 2.413997905296849922e+01
-1.197239731602290114e+01 4.111672486021928030e+00 2.924037354227755614e+01
-1.225282264705882262e+01 4.959040719640180228e+00 2.793091891025640905e+01
-1.069889741789291016e+01 3.180022092184180416e+00 3.040001931193568652e+01
-1.028750294868966719e+01 3.142851333680976911e+00 3.089193042785905519e+01
-9.065268681252122818e+00 1.582803092418510804e+00 3.178041522912789674e+01
-9.876010665626692386e+00 3.105608723071774158e+00 3.138394970492355185e+01
-8.283740799284348810e+00 1.046845961209945131e+01 2.357322045153311407e+01
-1.177083010754318337e+01 6.990923409664400623e+00 2.559617712583524352e+01
-9.905418605715206937e+00 9.167446601436674669e+00 2.379069354135490499e+01
-9.161744551606396669e+00 1.007443057046748081e+01 2.376930921296641586e+01
-1.226152821859815312e+01 5.522812111654641143e+00 2.763555644326892846e+01
-1.217795914140500635e+01 6.098533587142329182e+00 2.677499908966484909e+01
-1.127728494509227808e+01 8.327175071445962473e+00 2.489399093182251121e+01
-1.150050010289535685e+01 3.701907576447353687e+00 2.962385019311024337e+01
-1.219344824171496278e+01 4.996911655080969794e+00 2.856788639730068269e+01
-8.619919389209872662e+00 8.820842684165841607e-01 3.238530448691034991e+01
-7.252053274017363549e+00 1.125055253787651033e+01 2.366261255868772295e+01
-6.307243331841188017e+00 1.169788063523836286e+01 2.365524136526347831e+01
-7.878103239037748118e+00 1.072310035014201013e+01 2.356652516247757490e+01
-8.740307323205179557e+00 1.054140074720168307e+01 2.380169387413531368e+01
-1.227023385645869702e+01 6.086564514040249563e+00 2.734102425420221394e+01
-1.058481640112084499e+01 9.359178701771254438e+00 2.438193800623738738e+01
-1.167035066168409152e+01 7.818972366074693703e+00 2.553531627244091240e+01
-1.202350620081978327e+01 4.591859879590627358e+00 2.953894876768035971e+01
-1.104285017422689563e+01 3.653311655847836015e+00 3.025835003131798118e+01
-8.971414151427550721e+00 2.020862785172095499e+00 3.213627761130297955e+01
-8.795642514842663573e+00 1.451694074235177601e+00 3.226094827599335702e+01
-9.147137687936263362e+00 2.589310491872345299e+00 3.201144597864512775e+01
-9.464481718071287020e+00 3.068558184865505023e+00 3.187591721434425551e+01
-1.024102576596852110e+01 3.587574356049602287e+00 3.123818174905703415e+01
-6.732788758916121274e+00 1.141762761751710187e+01 2.360427927064021247e+01
-9.935046289415916831e+00 1.006023590447757066e+01 2.419393405647658923e+01
-1.212146865871826940e+01 6.429275812779414956e+00 2.655132257361415071e+01
-1.197632200357287147e+01 7.016202597563768961e+00 2.620690695153096783e+01
-1.065250805971556858e+01 3.625128477031642760e+00 3.074651906394083412e+01
-1.228747811691701486e+01 5.485577277297334575e+00 2.821761508840370780e+01
-1.106874114585826874e+01 9.181017069160851918e+00 2.492513860364174860e+01
-1.170899175993930541e+01 4.192144738027500317e+00 2.969474505039980983e+01
-1.213407459905389807e+01 5.034761508553824427e+00 2.920309759913868319e+01
-9.829429402423869533e+00 3.550219667886709729e+00 3.173009533625722867e+01
-8.525836402791467705e+00 1.319840475810252434e+00 3.274150818673039964e+01
-8.318667694767887255e+00 1.100858198581560110e+01 2.383409250253292910e+01
-9.224731951462471713e+00 1.054260175743811523e+01 2.402219102162600706e+01
-7.828961436511906236e+00 1.148975646166187303e+01 2.394426182865219488e+01
-1.183187501071050818e+01 7.603216344463549881e+00 2.586242166894576044e+01
-9.606520443697391443e+00 1.014270464301825214e+01 2.400393949951471129e+01
-1.153342182434139751e+01 8.521088561333124645e+00 2.548870728937890817e+01
-1.230856433524322391e+01 6.185480604594528309e+00 2.806709290321008865e+01
-1.227893909344239098e+01 6.650298214704848832e+00 2.704640273713958365e+01
-1.130319731770608982e+01 8.977307096245674245e+00 2.516655988592489024e+01
-1.138660963295962958e+01 4.126220808535350670e+00 3.011694109989846169e+01
-1.223388095768781270e+01 5.611240689845526042e+00 2.890113066130855657e+01
-1.099558627750466400e+01 4.097939307600288572e+00 3.060467588588987553e+01
-1.019451944751512151e+01 4.032233733982610424e+00 3.158437403565386603e+01
-9.417859028586251569e+00 3.512849825907088164e+00 3.222193203686915552e+01
-8.701836629916135379e+00 1.889823007620552664e+00 3.261673542731987396e+01
-8.877548554217009169e+00 2.458813231211038453e+00 3.249213490244930824e+01
-6.791352892245463124e+00 1.193461217313136835e+01 2.388436411093216805e+01
-9.146800461136177063e+00 1.100304813959202654e+01 2.420738326623794023e+01
-8.663882063078510498e+00 1.132785626409528135e+01 2.414376707501043384e+01
-1.214964034291674899e+01 7.172005443168219863e+00 2.674067127651335696e+01
-1.202140341374800236e+01 7.693710219801561223e+00 2.643492264337994868e+01
-1.060619242833401898e+01 4.069641677061979657e+00 3.109252609036300186e+01
-1.232213382507229049e+01 6.012115625222932636e+00 2.850367414535700661e+01
-1.231644121522582935e+01 6.788627850850367906e+00 2.771842927640659582e+01
-1.086994111795712037e+01 9.596740124670221306e+00 2.484207992917917807e+01
-1.173058423912860349e+01 4.599356798869999707e+00 2.997573469865324114e+01
-1.133871846705584652e+01 4.570994504200469599e+00 3.046310384292137741e+01
-1.207467569098610127e+01 5.072610290829919322e+00 2.983497704705713716e+01
-9.053079757160595875e+00 3.029741825613079254e+00 3.236763271878391635e+01
-9.782818761107664685e+00 3.994773571376589949e+00 3.207619428629496383e+01
-7.339416297716525150e+00 1.197076889776256081e+01 2.405438982788885127e+01
-6.365811155687890910e+00 1.221492467313908747e+01 2.393534884159791076e+01
-9.629708927980502153e+00 1.067824150108801717e+01 2.427099475850155486e+01
-8.318414436391279310e+00 1.149774296187309908e+01 2.414267180299249915e+01
-1.189296141846625687e+01 8.216060023454271999e+00 2.612877303155097408e+01
-1.060285687074311589e+01 9.895429357091954259e+00 2.462426010860012582e+01
-1.214361203719182392e+01 7.716737603478319940e+00 2.707623070739630222e+01
-8.772892971880697388e+00 2.875472226561781586e+00 3.288112180567392784e+01
-8.597206125867250748e+00 2.304924888682151174e+00 3.300581661825611945e+01
-1.055982502485766439e+01 4.514316251261776713e+00 3.143862482668959402e+01
-8.421370578919823657e+00 1.735810739371288491e+00 3.313063363399270145e+01
-1.132911668437958319e+01 9.627847102130958845e+00 2.543916688277737848e+01
-1.168287766379171444e+01 5.044206182302528596e+00 3.032149919915230640e+01
-1.014805412702642506e+01 4.476789232882350866e+00 3.193039150169043694e+01
-8.980240409289912407e+00 3.448467911109872386e+00 3.273590075549584100e+01
-1.028698910106362163e+01 1.051349745570442273e+01 2.465115506930554901e+01
-1.227184265766083726e+01 7.195009318239911522e+00 2.738193266698815975e+01
-1.151692632980484099e+01 9.157682289892534300e+00 2.566882191109408495e+01
-1.170494621240132460e+01 8.686916873716361565e+00 2.589877761319679550e+01
-1.094927122220114946e+01 4.542631772203813867e+00 3.095085299179690708e+01
-9.345068678414790497e+00 3.930648136568711148e+00 3.259036839946935515e+01
-9.710071020855609802e+00 4.412277690771511551e+00 3.244450124789102574e+01
-1.228586536586163724e+01 6.401084720349168755e+00 2.932898343813941366e+01
-8.316667011702772783e+00 2.151020457308050471e+00 3.351986863192199451e+01
-1.235454076604800377e+01 6.926922876485344105e+00 2.839710236336988913e+01
-1.235678934496801062e+01 6.538654999196831241e+00 2.878928998692171959e+01
-1.218028584903352218e+01 5.736956025756387412e+00 2.958331310744166842e+01
-6.849930542346593043e+00 1.245172037066305748e+01 2.416449782943318780e+01
-9.652919032647236719e+00 1.121428125550404964e+01 2.453826263969693500e+01
-9.009091757520128141e+00 1.164712812428228794e+01 2.445338438299453898e+01
-7.828649509852631638e+00 1.230480918935371548e+01 2.445844739467684903e+01
-1.003025521272324916e+01 1.090440524754061613e+01 2.465563538021060452e+01
-1.198322360667064501e+01 8.369517967365968758e+00 2.669429888774806159e+01
-1.189817251892894490e+01 8.768699790642999758e+00 2.652247354177787386e+01
-1.230297315455821483e+01 7.557065871286508418e+00 2.812584740314973430e+01
-8.699914594972907977e+00 3.295042350670636111e+00 3.324972437129843428e+01
-1.090292438101049655e+01 4.987310240649627247e+00 3.129697379365623178e+01
-1.129249302244636510e+01 5.015758414597319970e+00 3.080922663276036388e+01
-8.492533004683526343e+00 2.721045692433671448e+00 3.339489876920256961e+01
-8.140902596092550070e+00 1.581797516753426391e+00 3.364450196043318897e+01
-1.098404066273084467e+01 1.029725582424802077e+01 2.527366941864976013e+01
-1.198616841945488432e+01 5.529309238929768888e+00 3.020168375073237144e+01
-8.318161558455667404e+00 1.198698085546311276e+01 2.445128519557106017e+01
-1.226582047622435390e+01 7.739712679945721874e+00 2.771732885803101354e+01
-1.216962717048928866e+01 8.131258865381109757e+00 2.748826277955239306e+01
-1.168669808575588398e+01 9.298109231681863207e+00 2.626371929061854260e+01
-9.272329292278316260e+00 4.347954577962297229e+00 3.295842129372756091e+01
-8.907274011871653130e+00 3.866478045689359710e+00 3.310455570725369512e+01
-1.051344023459162003e+01 4.958861095533640295e+00 3.178458618168423300e+01
-1.007504515101916809e+01 4.894257391595917994e+00 3.229905880677773666e+01
-1.208211201822410352e+01 6.124634940983261444e+00 2.997738541386773647e+01
-8.211919459918956221e+00 2.566422019077161831e+00 3.390910727943639102e+01
-8.036327062281575451e+00 1.997231142664823711e+00 3.403352644624024492e+01
-1.062086870909308445e+01 1.043090413931192373e+01 2.486617592858344850e+01
-1.147517704403730932e+01 9.827511784419460383e+00 2.600496232325870949e+01
-1.159662834981126345e+01 5.501194332378680940e+00 3.068853681461020955e+01
-1.120701547803232501e+01 5.472715713780614166e+00 3.117588762744133390e+01
-9.676100061325978885e+00 1.174968547192097468e+01 2.480515705228841838e+01
-1.063888915501885180e+01 1.096670820129507717e+01 2.510815792012873970e+01
-1.207341128636680949e+01 8.522798998163594320e+00 2.725918709090084491e+01
-9.637274541685858509e+00 4.829727860513572502e+00 3.281279692060599018e+01
-8.626996977282635370e+00 3.712472120001682807e+00 3.361787446801439927e+01
-1.081735138597251833e+01 5.444128257641695612e+00 3.166339827842291399e+01
-1.041406111438911886e+01 5.394104906232166208e+00 3.215729610852772424e+01
-1.239288162333354570e+01 7.065195089442521059e+00 2.907458916524338122e+01
-1.213714123620978746e+01 6.605147150385543675e+00 2.987012114318182654e+01
-1.222719523700814470e+01 7.024127106408165844e+00 2.963305065125521409e+01
-1.129613908233920405e+01 1.015577190784248174e+01 2.589043110469926390e+01
-1.190075650264041229e+01 5.986606919366078472e+00 3.056875702889279722e+01
-1.198111809946439621e+01 6.484833653388356822e+00 3.038191791973139644e+01
-1.032554580390085164e+01 1.140652152693708210e+01 2.509615257501240748e+01
-9.354308913508342371e+00 1.196640863253873199e+01 2.476293182622710987e+01
-8.772376582069346895e+00 1.238384770143464486e+01 2.484398856645477238e+01
-8.317907786476054000e+00 1.247581631740715835e+01 2.475962508709175580e+01
-1.225976709923132368e+01 8.284410926669426800e+00 2.805523490824608501e+01
-1.190337081064511260e+01 9.321382198959945242e+00 2.691622620662903387e+01
-1.203609544277058596e+01 9.274840196154331196e+00 2.756696475036916638e+01
-1.216355047911126341e+01 8.675968032992910750e+00 2.782547150279595627e+01
-1.162128594800054060e+01 1.002719524153832431e+01 2.657094349102694864e+01
-1.234650256662559364e+01 7.653169495002157596e+00 2.884823783318410406e+01
-8.834395436420095393e+00 4.283585089497094600e+00 3.347253547406256757e+01
-9.199545698604902455e+00 4.765187667108227387e+00 3.332646351891284553e+01
-8.761477232671479598e+00 4.700577448642140332e+00 3.384049392551735735e+01
-8.419547640296221047e+00 3.140883979297993900e+00 3.376324779000229626e+01
-1.206146318720160870e+01 6.983050636538973066e+00 3.019119635937628843e+01
-1.228035717474945265e+01 7.511625803690341385e+00 2.947175429641600886e+01
-1.151110184986392682e+01 5.958093042118411731e+00 3.105530174224987405e+01
-7.931714651464129240e+00 2.412319787234042501e+00 3.442253320202553368e+01
-7.934354260973885076e+00 1.376259021760273260e+00 3.425930581734083091e+01
-1.001254828899022797e+01 1.184583193469976869e+01 2.508416125940042463e+01
-1.214044772048247900e+01 9.361346099704094925e+00 2.816191162893048272e+01
-1.230010352545379604e+01 8.241139691793888389e+00 2.862146587961295197e+01
