-1.017117178911327358e+01 1.304154127407204378e+01 3.756232477977545159e+01
-1.178078013010555658e+01 1.532157655759838732e+01 3.530696975996033160e+01
-1.139858669425846749e+01 1.636917366404612295e+01 3.442521539817953879e+01
-1.175202545281565314e+01 1.454342465054970290e+01 3.604761717470549343e+01
-1.091285970075471923e+01 1.380163889298881585e+01 3.700985695935444397e+01
-9.488006624438172665e+00 1.328511941594469192e+01 3.822149066535967421e+01
-1.002655393137232664e+01 1.347140804903564337e+01 3.784775830011592745e+01
-8.950096530446696619e+00 1.309905128639706007e+01 3.859482862451376661e+01
-1.126056356443988271e+01 1.394555759364755865e+01 3.654574214492358664e+01
-1.115912198005403866e+01 1.688012902013986150e+01 3.438804582451973602e+01
-1.169355939670047917e+01 1.586584841461728956e+01 3.515116592684664454e+01
-1.103638466924080852e+01 1.722608238275745762e+01 3.482254773532656600e+01
-1.081879462064144093e+01 1.758352726775619956e+01 3.536389608058516387e+01
-1.099864676933639629e+01 1.716672860601809347e+01 3.554104530916028892e+01
-1.125533533701608846e+01 1.677286745443895200e+01 3.493193837613178943e+01
-1.165372010053475726e+01 1.515593454832934839e+01 3.587270800811585758e+01
-1.056513004273403311e+01 1.365771017089440953e+01 3.747404458291807572e+01
-1.144368817098174773e+01 1.438649927482681434e+01 3.644739893079007942e+01
-1.147423082848336584e+01 1.631979362364891983e+01 3.504141161204778143e+01
-1.155560477076587311e+01 1.576819748216036210e+01 3.569742623095098111e+01
-1.075742291374686488e+01 1.426382985278707949e+01 3.742790428989621176e+01
-1.115880136688465996e+01 1.446189216424070523e+01 3.690495756136843397e+01
-1.019503529650110707e+01 1.398405202672285164e+01 3.795755424582201698e+01
-8.412349876126091530e+00 1.291304286220034925e+01 3.896811748158534527e+01
-9.710874321604400450e+00 1.377151756586133402e+01 3.827100733648620690e+01
-9.298149438518723997e+00 1.367325088910902231e+01 3.857959605402037084e+01
-1.079907755346114939e+01 1.750318439893554157e+01 3.599340696069170775e+01
-1.124962970713849408e+01 1.666431506520349259e+01 3.557474709008115354e+01
-1.096092035051921698e+01 1.710739386423989927e+01 3.625935756010555622e+01
-1.150062770604626827e+01 1.616190390721153491e+01 3.560855094472672988e+01
-1.154829103799262136e+01 1.485453377300504840e+01 3.647774539863028309e+01
-8.760195900177237149e+00 1.348700585301902954e+01 3.895282859717838164e+01
-1.141763774072006044e+01 1.567054117071449149e+01 3.624373091976346473e+01
-1.130798011111981083e+01 1.645753750767783785e+01 3.606528885314600785e+01
-1.111556957057934980e+01 1.675282189882709005e+01 3.652149500636176072e+01
-1.092319663359896786e+01 1.704806307844751956e+01 3.697764274807571638e+01
-1.134493817084399936e+01 1.516507330851055535e+01 3.690707372660234853e+01
-9.825564485803180759e+00 1.430985048425675110e+01 3.844026265085236815e+01
-9.108301033349118114e+00 1.406138411951061151e+01 3.893773680447164054e+01
-1.019639894240856037e+01 1.454512444642896440e+01 3.810446579235759401e+01
-1.052821297841714099e+01 1.465961019848722735e+01 3.777861639492932966e+01
-1.094966639222082705e+01 1.486975166547199123e+01 3.738187922666812568e+01
-1.065339953174623311e+01 1.767329054775486341e+01 3.671234461235169988e+01
-1.099610026706256249e+01 1.652344257906863945e+01 3.709709656948076884e+01
-1.119764179810084848e+01 1.616268703340776014e+01 3.665573654108757040e+01
-1.127959725965043347e+01 1.557283122866129865e+01 3.679032685273779890e+01
-1.114180172352033615e+01 1.547529536821558516e+01 3.733595091127245524e+01
-9.456259893143686313e+00 1.463551280775279828e+01 3.892276713247391484e+01
-1.029901159066733385e+01 1.505539177612535795e+01 3.812934046489804985e+01
-8.921016933302494678e+00 1.441567840186768201e+01 3.912159793448466871e+01
-9.877635570225297812e+00 1.484545246726939105e+01 3.852604342452816155e+01
-9.483514520583883112e+00 1.526203127590912700e+01 3.900454573010144799e+01
-1.106900103487390119e+01 1.599895242815289720e+01 3.721659706484525998e+01
-1.072039226163806269e+01 1.526533588914772643e+01 3.773265158338362824e+01
-1.057657016415383033e+01 1.691478273550151812e+01 3.752586537521755616e+01
-9.960426546501814471e+00 1.553888671739162852e+01 3.856238003258930291e+01
-1.074085642711944288e+01 1.573535158446249937e+01 3.779391996134399534e+01
-1.037663488056145944e+01 1.552087492226721643e+01 3.813102776801116534e+01
-1.065870542392379683e+01 1.632506620082694582e+01 3.765983791267039749e+01
-1.033994951081573355e+01 1.599538964280090703e+01 3.825192430598996651e+01
-1.023023823261902265e+01 1.678161911354925095e+01 3.807363203653621753e+01
-2.668185571239499954e+00 -3.499004369958657601e-01 1.976045196904109602e+01
-1.893039983747649924e+00 -4.020203318055892150e-01 1.974945784425566231e+01
-2.316171603262150658e+00 -7.379783222658448105e-01 1.971747878024035572e+01
-2.008973821521848002e+00 1.827528502814010913e-01 1.981123910601639437e+01
-1.777106482257569287e+00 -9.867976341811003360e-01 1.968767612985034532e+01
-1.515499354234428164e+00 6.120382107410608785e-03 1.982563621597762094e+01
-2.779932405973629894e+00 2.301654460969971838e-01 1.982171166595177780e+01
-1.122284177944273598e+00 -5.476179552785153115e-01 1.978757073907041075e+01
-2.124907551941507045e+00 7.675217597672521208e-01 1.987302007104656809e+01
-9.347998801575181371e-01 1.709446541103556705e-01 1.988727933442373086e+01
-1.539484924641667529e+00 6.683600299109163645e-01 1.990334026754537788e+01
-1.030779876828751496e+00 -1.267667326281618045e+00 1.970780119163585553e+01
-3.914387572350810918e-01 -2.171617658422133612e-01 1.987990672245055990e+01
-4.004134579515941650e-01 -9.637282753285478787e-01 1.978971012172157629e+01
-7.482396215205031620e-01 7.906092172854937150e-01 1.997505967444966046e+01
-1.820598392808141508e+00 1.554899326594034070e+00 1.998940779896555853e+01
-4.491706374728102191e-01 -1.607720526956324836e+00 1.977381528160526614e+01
-1.284420534846355100e+00 1.172756464990764247e+00 1.998223415373674428e+01
-2.120544221160408083e-01 4.084587501757019901e-01 1.996788427728404969e+01
2.299589140535897025e-01 -6.597885220797077288e-01 1.987161980843993447e+01
1.812024619185338414e-01 -1.303779592387783959e+00 1.985572500210282243e+01
-1.488714008743488582e-01 9.966641588284287367e-01 2.006435265401684376e+01
-5.960143211568821320e-01 1.501111194528167214e+00 2.009888407216599759e+01
3.241365862259107389e-01 2.630545705276842589e-02 1.996070777618514214e+01
-1.294764333134320156e+00 1.876726380526476889e+00 2.008942487186519799e+01
1.764870357685192626e-01 -2.029105572074911379e+00 1.984397261070400376e+01
3.152625227492258930e-01 6.294428643682608016e-01 2.005254276319678297e+01
-1.831253080211258322e+00 2.258669369041179209e+00 2.009653897988593840e+01
8.889020112944940877e-01 -1.583036445328229957e+00 1.993812266940914668e+01
8.746190379712045493e-01 -9.694410369012488315e-01 1.994582638167365118e+01
3.735880420515598210e-01 1.193780204127001365e+00 2.014487642393621769e+01
-6.581361339749877137e-01 2.213765815037901596e+00 2.020243190336378092e+01
8.603363089228439620e-01 -3.558499463222316583e-01 1.995353004044831735e+01
8.514586866869340298e-01 2.472623420747472878e-01 2.004536093144421827e+01
-1.305524114566175564e+00 2.580429549028277592e+00 2.019653651223509172e+01
2.418189736980874693e-02 1.464837806870550541e+00 2.015293891878695121e+01
8.425816829116015150e-01 8.504268151706969592e-01 2.013720033953151045e+01
1.061983779735880679e-01 1.955684050161492937e+00 2.023625733950330385e+01
-1.994824508676587005e+00 2.946022894160485794e+00 2.024786183750283897e+01
1.689571496309023146e+00 -1.192741658813383010e+00 2.014101374330470051e+01
4.222088683851883406e-01 1.644109032828956485e+00 2.021875698371840357e+01
8.337021748993953540e-01 1.453854937561122052e+00 2.022908062775507076e+01
1.274947595221144647e+00 -7.742948870915651316e-01 2.004727034115227013e+01
1.427383872251217545e+00 -2.810359557864385849e-01 2.011750867551508293e+01
1.509856451443152947e+00 3.044738970595933791e-01 2.023112627572119493e+01
-1.375901486274912822e+00 3.338459343478047625e+00 2.036874678895546609e+01
1.472426697494486847e+00 1.316177779088135269e+00 2.037912234359732722e+01
2.276793721887193644e-02 2.480150747611947093e+00 2.030883654771812630e+01
-7.792728389065674000e-01 2.902507369034555307e+00 2.029663257644385155e+01
1.703372689414436758e+00 7.887440470201190212e-01 2.035875187383536300e+01
1.768116339908193613e+00 -6.686988110481737468e-01 2.019211868753936301e+01
1.503916701232190567e+00 -1.904139626503097649e+00 2.008263860640122900e+01
8.248164438251225361e-01 2.057783720729417176e+00 2.032103804454973073e+01
2.104664844620874664e+00 -1.611645153612238257e+00 2.023486280475135501e+01
1.370076577202618662e+00 2.052290002446837569e+00 2.046662912129033529e+01
1.994800189792147238e+00 -2.061766862437676151e-01 2.028158748644861831e+01
2.147918023967293255e+00 4.186076593880053709e-01 2.042031535979846524e+01
2.205201697187279652e+00 1.072460093808205617e+00 2.053784878278963077e+01
2.315185004196379737e+00 -8.316423023945099802e-01 2.033730563366576050e+01
1.879677957625896623e+00 1.679283320772787080e+00 2.054522520683326192e+01
8.159378848049919641e-01 2.661294655082616867e+00 2.041293299376640391e+01
-2.533421520750155365e-01 3.224388251106210745e+00 2.039666710681537509e+01
-7.353521411786473339e-01 3.438895494395859398e+00 2.042302798167542477e+01
3.743968069993597325e-01 2.953072917664994357e+00 2.041532363042542286e+01
2.831345591633163572e+00 -1.374054258394976191e+00 2.045279004475014517e+01
2.040139259154860163e+00 2.218108712572183894e+00 2.067249912951506730e+01
-9.323395144109328792e-01 3.938810547244634641e+00 2.052931113975649779e+01
2.715101010981976870e+00 4.934288174116706616e-01 2.058431720962866507e+01
2.562382041319753778e+00 -1.313014598902808305e-01 2.044570270741306928e+01
2.454156535512975523e+00 1.668158978642399148e+00 2.069777329537911115e+01
8.070607948261889764e-01 3.264782503772100775e+00 2.050482589194853134e+01
1.626130211369792411e+00 2.768075016038717528e+00 2.064722318972020432e+01
2.726765628978361500e-01 3.546323352202054746e+00 2.049671785741436025e+01
-3.359019768363711855e-01 3.790306539738987901e+00 2.052378147569181266e+01
2.868216825133829584e+00 1.118206461084815473e+00 2.072304696615192654e+01
3.020168844309885525e+00 -6.745974155855406496e-01 2.054466905939075261e+01
1.212154293045416553e+00 3.318014423394842538e+00 2.062194767811006102e+01
1.898654285429410282e-01 4.112082630055203580e+00 2.062378429682476622e+01
3.558213947848098524e+00 -1.136464069398207766e+00 2.067072467595464502e+01
3.282359469903246563e+00 5.682498985960489080e-01 2.074832023019819616e+01
3.129468911562518052e+00 -5.650188599032015396e-02 2.060965307243902700e+01
2.791982617718759219e+00 2.396711789164215123e+00 2.079283886766071987e+01
3.193340617745006327e+00 1.728831923147224892e+00 2.080880695699853433e+01
-4.184595547649548886e-01 4.356218365328613729e+00 2.065089606433648228e+01
7.981890588412232646e-01 3.867947026823166823e+00 2.059667139350222698e+01
2.281601442027251903e+00 2.766139547622212369e+00 2.074217582283267802e+01
2.055268988445472012e+00 3.419113248906327396e+00 2.075063809431555129e+01
3.502106278175010523e+00 1.190792498149606526e+00 2.081954669853511319e+01
4.422655643358366362e-01 4.434978749411172316e+00 2.071469433947192584e+01
3.627446670892179981e+00 -5.590822348894795013e-01 2.072215418902062467e+01
1.426716621953545650e+00 3.643531862181637049e+00 2.067365478809676560e+01
-1.026775958329513294e+00 4.600349077330267988e+00 2.067800618944170310e+01
1.329693284978253009e+00 4.209085217770112131e+00 2.073264366552671945e+01
3.915623664344319188e+00 6.435375953720277042e-01 2.084485439376695837e+01
3.696683791993720991e+00 1.829174257528579789e-02 2.077359287984809555e+01
2.683877076064996814e+00 3.194688368747871099e+00 2.082762275266118124e+01
8.634845658368960064e-02 5.002009481073159236e+00 2.083271739251566856e+01
-6.482229370804289958e-01 5.084780693452451317e+00 2.081439199457667044e+01
8.532710998982239170e-01 4.498157502009524578e+00 2.074300934001097474e+01
3.949956293836429655e+00 -9.028371718450031169e-01 2.083273657291448444e+01
1.867055181593710866e+00 3.975519838300496378e+00 2.079289357490720747e+01
3.784345380868466613e+00 1.691970388825313254e+00 2.089215048582357781e+01
3.312837409676977263e+00 2.970169418183182586e+00 2.090463860169161237e+01
3.759707544131854373e+00 2.307081900310168354e+00 2.092748531122772349e+01
9.083527634100695414e-01 5.128364742607165461e+00 2.088934720166320602e+01
2.538615208361148401e+00 4.043215706535619347e+00 2.091619083804429380e+01
4.134676796312634295e+00 1.268759656637120203e+00 2.091611576323813892e+01
-2.696732199347796621e-01 5.569212747224603355e+00 2.095077673735423929e+01
1.384773528354225958e+00 4.839291391719714674e+00 2.087898319989276175e+01
4.059898916931030222e+00 -4.426580815933998103e-01 2.089496365167647340e+01
4.354160242394582880e+00 -7.313335768627658717e-02 2.096481551423228140e+01
3.096889314119726233e+00 3.511977940816481070e+00 2.094024291375104951e+01
3.942549909842360201e+00 2.745481076733564674e+00 2.098171166859452441e+01
1.861210197295702473e+00 4.550213389954984144e+00 2.086862060297741550e+01
4.352405727502506871e-01 5.839978233653091877e+00 2.103657499672027242e+01
4.352758750182102787e+00 1.894489539686333268e+00 2.098743896818293209e+01
4.811527980022995088e+00 6.500706755484898514e-01 2.110783405796439993e+01
3.719658505357443801e+00 3.356075001675781433e+00 2.102534959733959496e+01
9.635073469292128046e-01 5.759407150764876526e+00 2.103587972977323162e+01
4.422653512634665773e+00 -9.039384954730402821e-01 2.101643153228712180e+01
2.393360611566047957e+00 4.891728956959534358e+00 2.100476118771364042e+01
4.698082081447593872e+00 1.416510255196385293e+00 2.108342223997308906e+01
3.404133509956346781e+00 3.933467851410923366e+00 2.104878245189842900e+01
4.570490536277602267e+00 2.520682651995264312e+00 2.105882136986332398e+01
4.349258220547190135e+00 3.131240460425955163e+00 2.110243541429435510e+01
1.375568945431024925e+00 5.449926628538986684e+00 2.101369884962834433e+01
1.860747974431529395e+00 5.259078523218068568e+00 2.102616671153020889e+01
4.715763592482102418e+00 -5.342942313560178347e-01 2.108634118686783054e+01
5.008187437544119547e+00 -1.646641246993789942e-01 2.115625190326316130e+01
-9.438235842594483449e-02 6.294423870315983827e+00 2.112294159377175973e+01
-6.258114270337884477e-01 6.136605396143455238e+00 2.106887596041856980e+01
1.018647697901575055e+00 6.390291644236370416e+00 2.118237638862427730e+01
3.128932649554758694e+00 4.562900030025518028e+00 2.108600922075502382e+01
4.919147556388605125e+00 1.946911441236586882e+00 2.115484167658417647e+01
5.391642231834934407e+00 2.668666447793532348e-01 2.127339602029135079e+01
5.270472584865089516e+00 1.373210018672317290e+00 2.125085233463067524e+01
4.126649581843629733e+00 3.741965473576971846e+00 2.114606248598563099e+01
1.744692820889542251e+00 6.082294155226789734e+00 2.119605595111021756e+01
3.903389365452897053e+00 4.352971309582737369e+00 2.118971067597694358e+01
4.866193401859048251e+00 2.977730160181252916e+00 2.124590071417696535e+01
4.630877593687110938e+00 3.503027418984355545e+00 2.126897307429041462e+01
5.161220156231545175e+00 2.328360479495926061e+00 2.130827524620898927e+01
4.586190102653858736e-01 6.653825031124842582e+00 2.122394991749212068e+01
-4.632631972859755920e-01 6.649556008523068051e+00 2.119194832758399727e+01
2.397254977549698740e+00 5.653080432154466983e+00 2.117447380720750161e+01
2.925472678298125295e+00 5.233200388057491992e+00 2.114089305836038335e+01
5.622026970608797747e+00 7.993481605452257277e-01 2.134689211877577719e+01
-1.014097967917369364e-01 6.917357071005932667e+00 2.126552335883769018e+01
1.507372809305220551e+00 6.686916409163086605e+00 2.130362338898972752e+01
3.680210466629023180e+00 4.964154465759903267e+00 2.123337262419043725e+01
5.446796926746759304e+00 1.807997697161951356e+00 2.138019248366312297e+01
4.652758257454234325e+00 4.198715298478639113e+00 2.141013958006599793e+01
1.073752921652569636e+00 7.020765910188962344e+00 2.132877871183460883e+01
3.457401249054891768e+00 5.574549264984093533e+00 2.127697844562257501e+01
5.985344275120288771e+00 1.371539148291355037e+00 2.157707412644729672e+01
5.459513709215593202e+00 2.785306892821783897e+00 2.149516841194979833e+01
5.164589297039574589e+00 3.434531605573360125e+00 2.143279576421721444e+01
5.754406394468241537e+00 2.136183253197392329e+00 2.155754455409103088e+01
2.525871309005664145e+00 6.405146610629052439e+00 2.135623725897811553e+01
2.991556692398214867e+00 5.989886678438910650e+00 2.131661162688046929e+01
2.060120591778461741e+00 6.820489944609371413e+00 2.139587154997308360e+01
4.408009712648567890e-01 7.175966173412057003e+00 2.134306079452004923e+01
4.198896881090544042e+00 4.722962092829070535e+00 2.135940511371029515e+01
1.594474307142951908e+00 7.235749706276308757e+00 2.143549893145679519e+01
4.033555619733243169e+00 5.268312340436819952e+00 2.140937697841195231e+01
5.462675660473373718e+00 3.891644146883154409e+00 2.161969236591636445e+01
1.128837203864711203e+00 7.651004866909499214e+00 2.147512737324963084e+01
4.606662110999915072e+00 4.962225404932384620e+00 2.154177557793047271e+01
3.979835053491393992e+00 5.981824610125359598e+00 2.151522252933239088e+01
6.348101418574859878e+00 1.943880676929852669e+00 2.180726242716281860e+01
5.183720473923683514e+00 4.656031982375943734e+00 2.167422002347093724e+01
5.757707283468471715e+00 3.242855841815169171e+00 2.168221654147480848e+01
6.052740318070986447e+00 2.593289378676006063e+00 2.174465551678179409e+01
2.961615608955102452e+00 6.580831620349576916e+00 2.147774134806531876e+01
3.394666611298164494e+00 6.241002087234636342e+00 2.145391279776313098e+01
2.131551454737952600e+00 7.307752155255050397e+00 2.154463312777038908e+01
2.679245722711885769e+00 7.094399909336367216e+00 2.157533595959028005e+01
5.760825886335830148e+00 4.349683001296363649e+00 2.180685471241574547e+01
1.820816863298950761e+00 7.847771567586560693e+00 2.164496104510443075e+01
4.661471065379298118e+00 5.662777845098287521e+00 2.167994253087012524e+01
3.874264133859790959e+00 6.509552197609608015e+00 2.164239581390483735e+01
6.735519087436710350e+00 1.051508776799493061e+00 2.188399076928876141e+01
6.646054911762234951e+00 2.400756861199486281e+00 2.199426258845791793e+01
6.055634794682783983e+00 3.700418504471915782e+00 2.186926642200480231e+01
3.331940458058984422e+00 6.907529126723924939e+00 2.163086706061559994e+01
1.235086038591349800e+00 8.248660017917726961e+00 2.170141082233454100e+01
5.054118401958469953e+00 5.201004993803643117e+00 2.172643050519286234e+01
6.940810086399678447e+00 1.751950000000000118e+00 2.205666596719030537e+01
6.242962867274093774e+00 4.182263877141415342e+00 2.206592785263515211e+01
5.577167111861026427e+00 4.961406247415076187e+00 2.185316436042652555e+01
6.350869132026486064e+00 3.050526193389044405e+00 2.193176932233709664e+01
2.513885243889382615e+00 8.044840441257955277e+00 2.181507802027406839e+01
4.501466452410705976e+00 6.389717454056165202e+00 2.175374022197937762e+01
7.190606695507752555e+00 2.393767298703478819e+00 2.231899766805747021e+01
6.078996307095087204e+00 4.896722618325110687e+00 2.209823190106758872e+01
3.269165279543338354e+00 7.574706599876621205e+00 2.180799409507594078e+01
1.983943073217212749e+00 8.532916868281741785e+00 2.191037319004403727e+01
5.209491032874626448e+00 6.186224485735808187e+00 2.194588889516589703e+01
5.393362155360685861e+00 5.573674517817046592e+00 2.189951584729599787e+01
3.951019629696323143e+00 7.032958795957723552e+00 2.181065515933900301e+01
7.292439538319655412e+00 1.141115846502116060e+00 2.223245340194271691e+01
6.725270857831604943e+00 4.014290550795500678e+00 2.232511947124905305e+01
6.791122964931675554e+00 3.325947314281490375e+00 2.224360658870790175e+01
1.341473731954341275e+00 8.847142442825932207e+00 2.192800722325295482e+01
7.411382807870809941e+00 1.633891232912173752e+00 2.240615596178720281e+01
6.651062510507994574e+00 4.761060428899233088e+00 2.241757968745874763e+01
5.775954155329442230e+00 5.711688197760524943e+00 2.212968522808063554e+01
3.206408517708096984e+00 8.241800790783429420e+00 2.198509919849581351e+01
5.025787504733929545e+00 6.798264550396114991e+00 2.199222381813429905e+01
4.570319996184238676e+00 7.158512257999523065e+00 2.199044281475070051e+01
7.723811201282069661e+00 2.437584239867670366e+00 2.273429863794364536e+01
6.397138157394719471e+00 5.441835537337682993e+00 2.238966363659193703e+01
7.440321197094881711e+00 3.035298787708018864e+00 2.258130003117123863e+01
3.660990583480818739e+00 7.880615911467886647e+00 2.198688080774271825e+01
1.836240927725932837e+00 9.073115546687942512e+00 2.207953488186368673e+01
2.793035736292309057e+00 8.692450412104530955e+00 2.208410156463415674e+01
5.588729953404213191e+00 6.529346337414844825e+00 2.222177598885189198e+01
7.882293234235109303e+00 1.517010405138514484e+00 2.275593183021501176e+01
7.998981588735491144e+00 9.637767710178170022e-01 2.275721426234121125e+01
7.644222543785734736e+00 5.300152916618470211e-01 2.240833439219382228e+01
8.069644283330060119e+00 1.998865507081112991e+00 2.295276740493205381e+01
7.208151293197310849e+00 3.843853940632337096e+00 2.258463119105826067e+01
7.019452713218760742e+00 4.367085892895795851e+00 2.256707264010952585e+01
4.114522458930252924e+00 7.519528623246882759e+00 2.198866207926880989e+01
2.379789924512191845e+00 9.142961847384388108e+00 2.218307023535104605e+01
6.152111281352096839e+00 6.258171361374999186e+00 2.245153158935026383e+01
3.215502923532969071e+00 8.786844617422699955e+00 2.221382806379720165e+01
3.719986152514761280e+00 8.489736769137586236e+00 2.223312609019189523e+01
1.447785095184367821e+00 9.445248824577731739e+00 2.215446092742090656e+01
5.350872743589506264e+00 7.139289143777127755e+00 2.227893366804154596e+01
4.957080653872937503e+00 7.345305554866604858e+00 2.217649471643159131e+01
8.190355283777368101e+00 4.193304096228590572e-01 2.281828623054423488e+01
8.256982260288969755e+00 2.478348288587622683e+00 2.314960234061133093e+01
7.973438702194606265e+00 3.076431899884543686e+00 2.299656771987874038e+01
7.446619653941288774e+00 4.251668142332523992e+00 2.280305221675732952e+01
7.202807337732591186e+00 4.830056068163135485e+00 2.276243869086594884e+01
6.958923557096785117e+00 5.408631425642049351e+00 2.272181386579918083e+01
6.715406605503336124e+00 5.986352356722479229e+00 2.268124993726949867e+01
7.689995922004731810e+00 3.674327861368036796e+00 2.284359325214778025e+01
4.239005410384168115e+00 8.159649245116899152e+00 2.226593635499773782e+01
3.224583211027225893e+00 9.331820828912718468e+00 2.244252690972096431e+01
5.913873645789302635e+00 6.869358644120200807e+00 2.250862009427993016e+01
8.353692837200407340e+00 1.399847002264656748e+00 2.310609333383114361e+01
7.996567579603588882e+00 -8.191363860334860414e-02 2.258451659528818567e+01
4.888356098554667462e+00 7.892298752400522588e+00 2.236074976035139272e+01
4.234408998939304780e+00 8.737801412145792312e+00 2.248118013660245751e+01
1.966947086294286828e+00 9.593021014417452363e+00 2.228194194122100669e+01
5.676138795912453183e+00 7.480511360278096156e+00 2.256591546531202752e+01
8.541071303192566688e+00 1.879148448003622240e+00 2.330293817307644133e+01
8.665912341403220864e+00 6.229904469720320970e-01 2.322407357857148114e+01
7.646025373493696264e+00 4.708745397551943768e+00 2.308075498255177038e+01
7.300071245811378340e+00 5.936495821741037737e+00 2.313012475772514520e+01
6.477404708516522724e+00 6.596736109366980294e+00 2.273830407285589672e+01
2.600405357491945679e+00 9.735172283025271156e+00 2.247668270094983001e+01
6.238981272905695263e+00 7.208285575035389137e+00 2.279546435040737862e+01
8.725860241567851006e+00 2.434243817046670255e+00 2.357835025036873589e+01
8.442151941369310464e+00 3.032436128685044086e+00 2.342517381547797228e+01
8.158475409578667126e+00 3.630538288933474078e+00 2.327201345718507497e+01
7.884924283662825495e+00 4.214605914028266120e+00 2.313962562606207740e+01
7.627728008053323627e+00 5.279899789281687461e+00 2.321642671620071496e+01
6.865976555291202210e+00 6.474098460200414351e+00 2.296082287197605964e+01
4.819537935091379843e+00 8.439329936994221626e+00 2.254501723389285317e+01
3.730381178267566433e+00 9.125771882579547523e+00 2.250007113747389909e+01
3.233659460389505913e+00 9.877385979951871064e+00 2.267147176199056702e+01
5.584448291173383261e+00 8.209706625601112862e+00 2.281150794064284426e+01
8.824959392011963999e+00 1.280414144764652207e+00 2.345617271067578713e+01
8.506900202471577188e+00 -3.581995669045023867e-02 2.299205894745124823e+01
4.750650521974305818e+00 8.986754050371819957e+00 2.272941729549031464e+01
6.000956241008767122e+00 7.818917333747052112e+00 2.285253310408469218e+01
9.009949239613876060e+00 1.835509880740853861e+00 2.373178417204894330e+01
8.910860211677395171e+00 2.988496051049455371e+00 2.385378048222079173e+01
8.348012841178231724e+00 -6.921826308357266200e-01 2.276027365963046378e+01
8.962561524080102870e+00 6.883514465000617477e-02 2.346763895851418980e+01
8.079894190845180901e+00 4.755071146317733977e+00 2.343573186367493122e+01
7.524033732039711708e+00 6.481500523280034898e+00 2.348683525153461105e+01
7.016745565894368930e+00 6.962540644935861778e+00 2.324077676077430255e+01
7.884892836296600649e+00 5.886735628086768202e+00 2.357911909275356166e+01
8.353440803110842694e+00 4.170930292156250552e+00 2.356809941271920650e+01
3.743557554678958788e+00 9.943817443850209159e+00 2.284337075040381038e+01
4.247310046230264646e+00 9.464950634317331080e+00 2.278639520985053224e+01
5.167763490874057730e+00 8.598327001347529475e+00 2.277045717855643048e+01
6.439932419449283962e+00 7.858934346416641681e+00 2.316850427369484677e+01
9.121552549667669041e+00 7.270845416757392154e-01 2.369966586955828447e+01
8.626989867284724056e+00 3.586789562014386146e+00 2.370047066704629302e+01
9.194731196235416348e+00 2.390210745454935282e+00 2.400709697474431081e+01
9.286934181530755339e+00 1.250091346967745931e+00 2.394654589075706141e+01
8.763713516950936366e+00 -7.530708019390479624e-01 2.317763131436081281e+01
6.748380924751920418e+00 7.475889543639668844e+00 2.324194871594147216e+01
6.036211997076137870e+00 8.441951847615396076e+00 2.316273598048025661e+01
9.471863082755850982e+00 1.805018752158920492e+00 2.422205218107096769e+01
8.274952866660637341e+00 5.295831987027868948e+00 2.373198221478545378e+01
8.548690783827856521e+00 4.711231306753446368e+00 2.386443015089220765e+01
8.822131813662672073e+00 4.127129265132235325e+00 2.399670725870958421e+01
8.694247057801533174e+00 -1.204202151031421808e+00 2.305686310578023424e+01
4.732134415495286461e+00 9.531638297114637837e+00 2.300581996482419811e+01
5.619551823284994363e+00 8.832472236468483118e+00 2.312163218650077923e+01
9.095540944869153321e+00 3.543066580511676111e+00 2.412896487720389871e+01
9.418200334894763159e+00 1.737758836760356085e-01 2.394322115525118733e+01
9.583599078466354726e+00 6.966097231080546903e-01 2.419011537628298925e+01
9.379507794034855905e+00 2.945004774686640570e+00 2.428241109166258127e+01
9.298797660142108512e+00 -3.199548539482754417e-01 2.376910454280488594e+01
7.446022778203128745e+00 7.004342524246586876e+00 2.359602534974229471e+01
8.182138664498266323e+00 6.362683016836109928e+00 2.397150603212601894e+01
7.167432396675506467e+00 7.450755578292411307e+00 2.352058704522652022e+01
8.244255877686939016e+00 -1.376974715067395882e+00 2.274255265574218043e+01
9.179386091354585275e+00 -8.135617347811142652e-01 2.359499077670319522e+01
5.202998633632319070e+00 9.220905791525654038e+00 2.308052827157794695e+01
4.218199553830804582e+00 1.028246705835837105e+01 2.320083518888374030e+01
6.878827498639301652e+00 7.899162701301009726e+00 2.348441010657850825e+01
9.656550295133222050e+00 2.359927657881193852e+00 2.449728579819684171e+01
9.748995583699976208e+00 1.219852111214624335e+00 2.443701833627564213e+01
9.933710586064798065e+00 1.775032636923427054e+00 2.471232013344059197e+01
8.743865377757462198e+00 5.252094711316920517e+00 2.416080898976145974e+01
8.470145874738241432e+00 5.836997971529499729e+00 2.402844374596228860e+01
7.894500208679226638e+00 6.887714344578733439e+00 2.391464021861241207e+01
9.595045307422456204e+00 -8.735677895240290258e-01 2.401235879181315624e+01
9.714492089723069768e+00 -3.793863926901143713e-01 2.418650384766656813e+01
9.040437281093527844e+00 -1.716164593602520716e+00 2.335345004745994046e+01
8.578391212196683213e+00 -1.733094620675581066e+00 2.301706963082230573e+01
4.713628196799746206e+00 1.007620666878464988e+01 2.328208332413077386e+01
3.718687660538710027e+00 1.067030585532658193e+01 2.321162570811206649e+01
6.475224858656440041e+00 8.481983206716950718e+00 2.347877755052901350e+01
9.290818520719014373e+00 4.083347796095098126e+00 2.442531345932246722e+01
9.879996497947127310e+00 1.435479483861772099e-01 2.443346464291947484e+01
9.841233472249141911e+00 2.914903838834498995e+00 2.477252178600042498e+01
1.021129995256555745e+01 1.189653360683922800e+00 2.492775465058029738e+01
9.564118032149705684e+00 3.499361834173808194e+00 2.455748547790860314e+01
7.606261078140331477e+00 7.413861498570380348e+00 2.385765359145397113e+01
9.017485898440259717e+00 4.667410438284767871e+00 2.429312921099542066e+01
9.490928246097800169e+00 -1.551616951702067482e+00 2.383128329845436966e+01
8.140438806100130265e+00 -2.062166779385033344e+00 2.272483703026604474e+01
8.821290966996915728e+00 -2.230570083376296253e+00 2.323691346218804199e+01
5.181890072546155857e+00 9.856592114268229565e+00 2.340304232912014371e+01
5.655101213082963874e+00 9.455185177404036523e+00 2.343196015407243493e+01
6.071492593294124163e+00 9.065229352841889465e+00 2.347305198121194536e+01
6.914252099431993592e+00 8.522265393897605179e+00 2.379481793661456734e+01
1.011842123131329174e+01 2.330303740600335960e+00 2.498762406551434267e+01
1.004549554618182938e+01 6.664214707891883416e-01 2.468043185645203508e+01
8.605572494653010551e+00 6.408909757044795263e+00 2.434499716406658010e+01
8.334755697717143974e+00 6.846753703054631046e+00 2.427148132396887803e+01
7.318287858065557039e+00 7.939547562815561399e+00 2.380071781258174823e+01
9.918223925666449503e+00 -1.536839052165037689e+00 2.426885725602325294e+01
8.602122167242235662e+00 -2.745085260716195297e+00 2.312037839719623733e+01
4.695115285613704614e+00 1.062130187657159652e+01 2.355844372628379446e+01
4.194953168364303764e+00 1.091827001005114539e+01 2.352308789102334430e+01
1.034199745691795336e+01 1.130237208105918378e-01 2.492386626915338610e+01
1.039584269554409168e+01 1.745218665653427204e+00 2.520291786163114978e+01
9.985413049459440415e+00 3.604621788728976206e+00 2.501707051514188862e+01
9.135629468631256245e+00 5.207573803920213962e+00 2.452751991444957724e+01
8.968400573391599906e+00 5.989417463432223698e+00 2.454158405007656540e+01
8.258234907348153797e+00 7.554679678758151162e+00 2.445738403434392794e+01
7.775527830250641870e+00 8.128711180107115908e+00 2.425331300841041582e+01
1.017628079801653840e+01 -4.095621387332589181e-01 2.467669372492989055e+01
1.001070289005912528e+01 -9.328478568537506010e-01 2.442974275291240005e+01
9.386694142641148986e+00 -2.228231746311133410e+00 2.365013556258209704e+01
9.167540722188778801e+00 -2.742841056597820071e+00 2.353361669855268090e+01
9.743513387000234616e+00 4.088003007072022577e+00 2.486160739851022683e+01
9.470215640711181493e+00 4.672087122926526170e+00 2.472945984804601238e+01
1.029042771862637728e+01 2.961560453359134648e+00 2.525379458004123734e+01
1.050771592283689060e+01 6.359638174520603204e-01 2.517105457595557993e+01
7.397602448440999012e+00 8.483138484056329531e+00 2.411494409146490270e+01
9.825730135920737851e+00 -2.139019720093447763e+00 2.410798616726006216e+01
5.630776833090672895e+00 1.018135749235206511e+01 2.380028955346880437e+01
6.106747708256643037e+00 9.687836250549672457e+00 2.378302509396975850e+01
5.154352859023472178e+00 1.067390864682365859e+01 2.381757109182066756e+01
6.510268826840762912e+00 9.105131470854708198e+00 2.378891876723787746e+01
1.067357580835297703e+01 1.159492890485154248e+00 2.541846558879803908e+01
9.557350696903117893e+00 5.387047016296967250e+00 2.497312600237628644e+01
8.740958612421579232e+00 6.980662184743023246e+00 2.466145723780580923e+01
1.029094218580095266e+01 -1.395647401547908117e+00 2.472607750276351624e+01
1.024522499162753952e+01 -2.076306329217850966e+00 2.461467457749530752e+01
4.676599961630790503e+00 1.116650003287183246e+01 2.383484377045812863e+01
9.922943505475650738e+00 4.676772959675780328e+00 2.516579054418802386e+01
1.061278138088543699e+01 -4.317553117777305771e-01 2.519445584371251812e+01
1.077870187250612055e+01 9.099238491721881039e-02 2.544186544756134438e+01
1.059551527258316916e+01 2.318439513381647998e+00 2.549059900346770036e+01
1.087317900251865765e+01 1.733277707081328778e+00 2.570614812815592742e+01
1.040663371362928125e+01 3.709865412745164015e+00 2.547657755702427806e+01
9.102130510759625537e+00 6.793434029017381803e+00 2.493404156550127837e+01
7.029759923828343915e+00 9.278733878002011437e+00 2.423569939816355756e+01
8.876343745623016090e+00 7.552423521954027663e+00 2.497791702583123907e+01
8.232825983204426379e+00 8.317934998518309087e+00 2.470596510420395120e+01
1.044685811814547272e+01 -9.545263763806939306e-01 2.494705656233274027e+01
9.733182504117507960e+00 -2.740652869582178131e+00 2.394707046604046496e+01
6.508530282845443438e+00 9.929758263653962302e+00 2.418003144762764123e+01
1.011876776464588623e+01 4.140188297684117558e+00 2.526267785143016198e+01
1.094458547540678772e+01 6.140403327271294343e-01 2.568925102687022388e+01
1.079456684439105807e+01 3.055716968166586778e+00 2.579951979163021747e+01
9.466387333431654838e+00 6.141767606039804761e+00 2.505445001401489336e+01
7.814473579143463411e+00 8.617110864298167527e+00 2.450981579871833560e+01
1.057115649526663503e+01 -1.858428812958761167e+00 2.502241543580845118e+01
1.019958801346743549e+01 -2.755320898203057478e+00 2.450340621954202192e+01
6.136839674753097107e+00 1.020821698009902789e+01 2.407658759840127161e+01
5.678589378091737139e+00 1.090628045237160748e+01 2.421187730181257081e+01
1.109941387518091815e+01 1.246835920277408860e+00 2.590409832653359601e+01
7.476877643909206839e+00 9.026446852585959135e+00 2.442900256191647301e+01
8.597891595549475241e+00 7.990857016921900424e+00 2.489816745424797517e+01
1.010265884143366222e+01 5.266490778146140528e+00 2.547045932748099872e+01
9.874668320733681171e+00 5.789171687828908119e+00 2.536814330307926824e+01
1.088341454400852015e+01 -9.767430196964829170e-01 2.546485353957015718e+01
1.067568333361075084e+01 -1.380770327292127675e+00 2.518514801305149930e+01
1.005673023318575865e+01 -3.121678781277904324e+00 2.431676390588427950e+01
9.341847706643429561e+00 -3.404441125736471729e+00 2.381111605385580532e+01
5.072319814450668041e+00 1.144803770157308342e+01 2.418885031973323407e+01
1.041150535131169264e+01 4.492143463683047955e+00 2.563760782920855164e+01
1.121540343749810731e+01 6.900239415623948824e-02 2.595986668560735211e+01
1.104940978449218036e+01 -4.540698468731482196e-01 2.571235421913639385e+01
1.107260577290677084e+01 2.306577339568943952e+00 2.599357720067924404e+01
1.125076993601764030e+01 1.769484867999240540e+00 2.613210868484910065e+01
1.082786370561642109e+01 3.815113400186906034e+00 2.593609781194801656e+01
9.635647343743062976e+00 6.856419354997772331e+00 2.545004015780294537e+01
9.340623662400618699e+00 7.561748001146417764e+00 2.541177168218667148e+01
8.123075002502385900e+00 9.038677122405665898e+00 2.495089825006699158e+01
1.066568341155480226e+01 -2.769888701282936516e+00 2.505940248939750248e+01
9.720063169021743832e+00 -3.337061184982530460e+00 2.407265768422901431e+01
6.507088854753380502e+00 1.039448868968952411e+01 2.442314606793626197e+01
6.166954586862510190e+00 1.072867376749076129e+01 2.437017551170307073e+01
1.139747530179442592e+01 6.470779527186687474e-01 2.620193853410508922e+01
1.152533016158260892e+01 1.334194975072051426e+00 2.638982835515092873e+01
1.109695639291222236e+01 3.398793359269610903e+00 2.616510929203674607e+01
9.964513700275656305e+00 6.294169654495881616e+00 2.556746059885693612e+01
7.556229180701461878e+00 9.570265396893653076e+00 2.474335178395714507e+01
9.011842713228100266e+00 8.124664252216822646e+00 2.529463997239298934e+01
8.689953140271901688e+00 8.507111767948840608e+00 2.515844687069638042e+01
1.028242757694088461e+01 5.856392855760128136e+00 2.577522041883050719e+01
1.104558433898374048e+01 -1.619678761276832857e+00 2.560619385121553293e+01
1.085140701361590487e+01 -2.321321627650668518e+00 2.531882569877052092e+01
6.910504887170700883e+00 1.017223475403180011e+01 2.457721505379140936e+01
9.706941777528484749e+00 -3.933363108466444213e+00 2.419822536118662981e+01
1.127196491031332748e+01 2.879697833774477189e+00 2.628090935682416074e+01
1.155979612853165683e+01 2.096085381611695553e+00 2.651419036476690039e+01
1.058468617691443292e+01 5.250971610461394157e+00 2.596918691593601736e+01
1.132048032005556415e+01 -9.994471579118239246e-01 2.598326129174236598e+01
1.068454427428149955e+01 -3.326587589440624271e+00 2.505758166060554970e+01
1.038006660986640739e+01 -3.502460798034117140e+00 2.468626668033375182e+01
5.468166790808790978e+00 1.173004149430577847e+01 2.454301384337831138e+01
6.197093142779328545e+00 1.124918535243021545e+01 2.466378017559945945e+01
1.091698438176335451e+01 4.585619306790727379e+00 2.618248719555223758e+01
1.148656524644697718e+01 -4.766853164708533819e-01 2.623085072088919389e+01
1.124921663945410621e+01 3.920394130176755976e+00 2.639575523853301320e+01
1.013343938226229923e+01 7.008992311676887965e+00 2.596279732081284308e+01
9.804905213321767121e+00 7.571077711255471243e+00 2.584562660849042359e+01
9.476128280164083151e+00 8.133589777065115101e+00 2.572836726954901820e+01
8.789312678607824836e+00 9.186463652516820844e+00 2.555133097317261814e+01
1.134001205438427107e+01 -2.196670216548515686e+00 2.591032123422279909e+01
1.113164228689360158e+01 -2.783950046595034422e+00 2.561525915501672301e+01
7.965754176829685562e+00 9.707572312132628056e+00 2.513389068509638236e+01
6.754966780364137335e+00 1.083203741803219877e+01 2.481935111871565169e+01
1.154864159871109131e+01 -1.608626387934514401e+00 2.620578426044146880e+01
1.166846497240745073e+01 1.016917985912734607e-01 2.647274433048486131e+01
1.147125644330929184e+01 3.452638205840415697e+00 2.656814493550851708e+01
1.195071526480694679e+01 1.421446741475923536e+00 2.687496170288162389e+01
1.046224254710678281e+01 6.446456792880799647e+00 2.608006206471242905e+01
1.076428887695011838e+01 5.841331316450228073e+00 2.627386457195852287e+01
9.147207886908297780e+00 8.696358604028240791e+00 2.561105411857194269e+01
8.430955123916064053e+00 9.677227544719121610e+00 2.549152970680937358e+01
7.635608845092442643e+00 1.011425807882912054e+01 2.505779833516713850e+01
7.313021196656676715e+00 1.041520465628792103e+01 2.497492434713016252e+01
1.107920699562662037e+01 -3.524335505434260885e+00 2.552031372257437880e+01
1.189554929509166925e+01 7.236444490952813613e-01 2.676835211506505630e+01
1.178228773821017761e+01 2.784337283629113813e+00 2.684033870524963916e+01
1.106671252426337126e+01 5.235452886018024721e+00 2.646791762251350733e+01
1.175758513423513563e+01 -1.022017337028980011e+00 2.650172138533653410e+01
6.227249797321235292e+00 1.176960874301048676e+01 2.495732436996027559e+01
6.743016276820431365e+00 1.174607079672772869e+01 2.529134171485873850e+01
1.180215891680955842e+01 -2.191740021628812762e+00 2.648966595244773714e+01
1.143219817001817518e+01 -3.214568601299931494e+00 2.598394647409690705e+01
1.153065428606126730e+01 -2.812594394412610832e+00 2.611357537602349055e+01
1.136870672217694533e+01 4.630441458799724685e+00 2.666170537019592146e+01
1.196634233801178482e+01 -4.983846530667490615e-01 2.677041242433636370e+01
1.195323572657423661e+01 3.418129624636939923e+00 2.710275974100367691e+01
1.206489624832389396e+01 2.176913509575874706e+00 2.708765809690130055e+01
1.221397096215359035e+01 1.030364889107125981e+00 2.714687442498213699e+01
1.167057874449395882e+01 4.025678501917760777e+00 2.685542565732097486e+01
1.056931382498214411e+01 7.009947631289278114e+00 2.635861399145258233e+01
1.025748446464988284e+01 7.486354609029548968e+00 2.622902142578933748e+01
9.753199339988102068e+00 8.387893798622593877e+00 2.606163807484355388e+01
9.213350010684701274e+00 9.237992217882959878e+00 2.590430508083930405e+01
1.200061818573706240e+01 -1.490067470089548651e+00 2.677901921295908849e+01
8.072926020584898055e+00 1.016756859214568465e+01 2.543177958923078208e+01
5.862961818607153930e+00 1.201096062471645709e+01 2.489708508640446993e+01
5.252679542005273206e+00 1.220886294445813824e+01 2.472406421033283763e+01
7.229002193465211334e+00 1.120183981540952267e+01 2.533169134331908268e+01
7.714936523396946022e+00 1.065789178620035216e+01 2.537203228100641539e+01
1.217540017886652493e+01 2.607403579410597777e-02 2.703949040977636642e+01
1.237601500244053199e+01 1.508681161223351275e+00 2.736000780994748993e+01
1.087969551235704735e+01 6.644253819520603344e+00 2.654371579968727701e+01
9.539108150186111246e+00 8.922957941292898099e+00 2.603960038090474072e+01
8.878149082795916414e+00 9.647804287637292475e+00 2.582639729843377907e+01
6.257446838655590149e+00 1.229030132800608754e+01 2.525101257151742473e+01
5.708581429084140346e+00 1.274392018601690602e+01 2.525636342461424277e+01
5.117426069991349635e+00 1.271118806582834537e+01 2.495704534335244063e+01
1.193057011038436244e+01 -2.841050474334667619e+00 2.661302692774508571e+01
1.223584124551159391e+01 2.810698996158505381e+00 2.735006971716344637e+01
1.238406626622823481e+01 5.495925392205098792e-01 2.730806397283135212e+01
1.118190320050724651e+01 6.038732036414589111e+00 2.673761873606537165e+01
1.014780608121547090e+01 8.043800311827686400e+00 2.630894049250139233e+01
1.152921974588749876e+01 5.067736256940651884e+00 2.690839281623315671e+01
1.217609445058115725e+01 -9.600903009236158026e-01 2.698836023344590984e+01
8.325385230778103107e+00 1.043846711252658821e+01 2.574916879689172333e+01
7.739094676437773046e+00 1.117193848353875119e+01 2.568726707419159183e+01
7.763258269820954460e+00 1.168571276135894088e+01 2.600233473489290859e+01
8.080582077131300167e+00 1.091571537761742050e+01 2.577167666494215226e+01
1.233635882817329055e+01 -4.814544271381888674e-01 2.719866921076380351e+01
1.224402979408429815e+01 -1.959204615338687283e+00 2.705678238015245540e+01
1.181696096133980056e+01 4.594032062573930375e+00 2.711250494522182208e+01
1.210674092573174221e+01 4.190285040292629049e+00 2.733420973000092857e+01
1.251845287080782398e+01 2.203267092230338342e+00 2.759740966035625576e+01
1.259258124420951219e+01 1.072763115109609089e+00 2.757644294219589653e+01
1.157261208562364629e+01 5.600525129130519808e+00 2.705357153043886598e+01
1.067629923451769436e+01 7.572983460544231882e+00 2.663693490797262342e+01
1.094787120512543943e+01 7.151207675900841387e+00 2.676720201491464124e+01
1.003027103975501788e+01 8.642209055053381661e+00 2.639490984837378917e+01
9.279549504960519002e+00 9.780070247949343099e+00 2.619779028399350196e+01
9.571970655247159954e+00 9.409091389937508154e+00 2.628054311832143597e+01
8.788530171752716669e+00 1.020097372408415026e+01 2.600357649977646091e+01
7.170450670675955429e+00 1.213282407948470798e+01 2.582775398536038836e+01
6.577888932854295767e+00 1.258005705603853919e+01 2.565318209244676240e+01
8.446325616215924370e+00 1.117365157294448430e+01 2.617142953577339171e+01
1.264640737908834822e+01 -1.918162353999343095e-01 2.757202985195227285e+01
1.213467624047736848e+01 -2.438449085489606816e+00 2.689203769318564241e+01
1.244395565359493006e+01 3.603184112292525221e+00 2.764143284051635874e+01
1.129709517846363731e+01 6.842037265696102821e+00 2.700731631333159655e+01
1.170348292850150074e+01 6.286697770338628644e+00 2.731710262630187103e+01
9.930809542141167512e+00 9.149460030516666009e+00 2.646793090040940299e+01
1.242200434438970724e+01 -1.451656949904312599e+00 2.726877995719798875e+01
6.229850977714944449e+00 1.286485198301130950e+01 2.563498598576297738e+01
8.299946669810776001e+00 1.181565518906704071e+01 2.644451764334996469e+01
8.518892850359804925e+00 1.070586351757373400e+01 2.601910912979850821e+01
1.288042843219269784e+01 4.375498951741442211e-01 2.787545583512842029e+01
1.259421545949014387e+01 -8.982206822139335856e-01 2.747456906371143504e+01
1.280105874935961729e+01 1.595863144636432196e+00 2.784477355270658094e+01
1.279814341946627998e+01 2.920575337655024306e+00 2.795833725844326878e+01
1.040680915388014327e+01 8.389280231631772722e+00 2.665516254203630453e+01
1.196332048301566608e+01 5.162318705249083095e+00 2.736954196104509762e+01
5.650655056642854390e+00 1.323868501413470611e+01 2.556875996154901287e+01
1.261520032214231435e+01 -1.947150929725825819e+00 2.748798245467922641e+01
1.225314073031047712e+01 4.758612533480571116e+00 2.759130118829301637e+01
1.210987044666103785e+01 5.731357356331059805e+00 2.762691053311565526e+01
1.124884441146135572e+01 7.588055978875392960e+00 2.719308433185360130e+01
1.078334960530748887e+01 8.136353702029401447e+00 2.691541664050579286e+01
1.045495579615009518e+01 8.993961009346532975e+00 2.689348419706194449e+01
9.345825977693468900e+00 1.032274877889074638e+01 2.649159602752980902e+01
9.833974726090884744e+00 9.849252628971530754e+00 2.669372442598309192e+01
8.896065852962900422e+00 1.074819730031894061e+01 2.633151308448414341e+01
6.898529166036583504e+00 1.287014734566240293e+01 2.605560359332653420e+01
6.201847176565421726e+00 1.343947760906774036e+01 2.601901986738597472e+01
8.812516550682977012e+00 1.143192926746199767e+01 2.657167415782699749e+01
7.787441458219479529e+00 1.219941622100049194e+01 2.631736241500896867e+01
1.314200692629235512e+01 -1.396141261113086063e-01 2.814723139921686723e+01
1.301236901669073021e+01 -8.363448172723556562e-01 2.796084167832493250e+01
1.288250525708810201e+01 -1.497382609778958651e+00 2.780312038899187499e+01
1.297619500684031379e+01 2.137687505262848564e+00 2.807893545525098844e+01
1.306263928837070054e+01 1.018599660287877517e+00 2.811649457193185242e+01
1.254295990286278872e+01 4.354916090392487504e+00 2.781305982464683169e+01
1.297620763736182781e+01 3.789359648636351885e+00 2.822442167132605562e+01
1.171434066346141734e+01 7.039758443673339805e+00 2.747075418733375329e+01
1.225625966549331913e+01 6.299780042867247687e+00 2.788399374143989462e+01
1.032213460046715880e+01 9.375757755336174171e+00 2.689585251537795685e+01
7.371026215200397580e+00 1.260027655660905133e+01 2.624495408767583271e+01
5.592611905568107389e+00 1.373344888700682631e+01 2.588120089008239333e+01
8.695013409116015168e+00 1.187035931410217060e+01 2.674619807247319869e+01
1.332649600554074176e+01 3.221483387871238335e+00 2.854729938669186140e+01
1.332421730125361492e+01 4.413803056752901299e-01 2.838825956564115316e+01
1.202642699406566962e+01 6.725633111782009621e+00 2.772993591193880292e+01
1.089063405186681344e+01 8.700951122254021897e+00 2.719450070997788771e+01
1.232964236225026156e+01 5.278663708779798291e+00 2.776754504065877782e+01
