2.104193883180970559e+01 -1.025997717834867196e+01 4.152942912810547682e+01
2.121071310188525416e+01 -1.014183571485473223e+01 4.102072825173755888e+01
2.243079629850048917e+01 -8.118400351101557888e+00 3.875273601778250310e+01
2.089896482608546080e+01 -9.846473230888687311e+00 4.262015932808507301e+01
2.096848275461122668e+01 -9.459230973199490577e+00 4.332657647811271318e+01
2.133451923942759265e+01 -8.484133852484562865e+00 4.390102586756135850e+01
2.156463442150445786e+01 -9.859290163814664609e+00 3.974679086836184183e+01
2.138454498937752746e+01 -1.012705156539177942e+01 4.008396846782300571e+01
2.263012139673947942e+01 -7.515495801105325668e+00 3.857777890391040643e+01
2.057174445182614519e+01 -1.027243634755277668e+01 4.234312824021360910e+01
2.111625024196212053e+01 -7.973990625000000776e+00 4.462758563626641006e+01
2.159399352064790278e+01 -9.757844060717427936e+00 3.925971786068502212e+01
2.081786143864535177e+01 -1.045555399345524350e+01 4.064171786672465458e+01
2.202174057400639029e+01 -8.791663952658886672e+00 3.836207759847631849e+01
2.187542304608868804e+01 -9.062939158409786700e+00 3.852551489492759629e+01
2.047772350376307671e+01 -1.009809726477109493e+01 4.291095970374905022e+01
2.047949258293693831e+01 -1.069248034607488762e+01 4.165922724418931011e+01
2.078659015273153798e+01 -8.577418065716713613e+00 4.437815924808301560e+01
2.157877967387362972e+01 -7.375988979434320747e+00 4.431317408804621039e+01
2.213825733675068719e+01 -8.270153013627741245e+00 3.803508576089408422e+01
2.239475445201677317e+01 -7.825140846503016334e+00 3.824966388084537527e+01
2.140884532370323257e+01 -9.765216740768414283e+00 3.862878816945482896e+01
2.024436068775004571e+01 -1.069874661705516594e+01 4.206598671435336456e+01
2.045741835820564702e+01 -9.180785884769964156e+00 4.412905616961286626e+01
2.127497913007472619e+01 -1.027661387012114247e+01 3.942592824790677497e+01
2.254202526033174081e+01 -7.330775631809996362e+00 3.805534672600399659e+01
1.983851125878251409e+01 -1.063321926863496891e+01 4.301758945339533824e+01
2.030762116091088032e+01 -1.084318818447172106e+01 4.094992667844774559e+01
2.038374210986529889e+01 -9.923547519314025678e+00 4.347879280634437293e+01
2.012832742253104712e+01 -9.784193119586241494e+00 4.387999919713340091e+01
2.047646962290184192e+01 -8.380990925834710836e+00 4.476973228139818417e+01
2.133266635336792305e+01 -7.275335214686982077e+00 4.464850916810465975e+01
2.042483175848686372e+01 -1.076941623257958014e+01 4.026254701091005472e+01
2.181202986697443436e+01 -8.862207679664996007e+00 3.779681724059923908e+01
2.282944883456939067e+01 -6.912622996852999080e+00 3.840282540031731884e+01
2.225477564786009310e+01 -7.748680123500983896e+00 3.770809780100518793e+01
1.987779450900131906e+01 -1.087874789064821002e+01 4.240363759838487567e+01
1.979931088518690885e+01 -1.038761503008058895e+01 4.363100046355780393e+01
1.991715543291738655e+01 -1.112491049765682405e+01 4.178903450934691222e+01
1.983622808697960238e+01 -8.788300598009692877e+00 4.491211410165195872e+01
2.084860171663770956e+01 -7.398564387967837774e+00 4.501438340915694170e+01
2.154911315891623858e+01 -6.580808978350438210e+00 4.467039256391209534e+01
2.151902043871706383e+01 -9.405046138001855738e+00 3.812310299152188975e+01
2.196729424473118186e+01 -8.166926215932972966e+00 3.736058567802768238e+01
1.988898401509010228e+01 -8.010593746970158691e+00 4.522730813348295698e+01
2.106888046006453763e+01 -1.031515523159080416e+01 3.879873554113419942e+01
2.072953131258758575e+01 -1.065009896100110964e+01 3.945228275428433307e+01
2.255760854043345631e+01 -6.978454115135768632e+00 3.780881911364917869e+01
1.935788326714179775e+01 -1.072195460486297769e+01 4.329700097883069532e+01
1.982455866619423546e+01 -1.121549302794897152e+01 4.102740691404044782e+01
2.023518567464040174e+01 -7.418091563564465751e+00 4.531424412691082182e+01
2.104831662675766424e+01 -6.279810712828330921e+00 4.517279421087683744e+01
2.084213332102457272e+01 -1.054319165602524500e+01 3.894845844468286344e+01
2.132904979867753781e+01 -9.383596435381042156e+00 3.739667748318701257e+01
2.167992722905444580e+01 -8.585009742295822477e+00 3.701322677547256035e+01
2.287379349870848344e+01 -6.172282690534057537e+00 3.814678050286326538e+01
2.228597962096656460e+01 -7.044235104200165409e+00 3.721527488539361173e+01
2.116293372032567888e+01 -9.746851914654723004e+00 3.772105553475876860e+01
1.891666979348515198e+01 -1.105513227236734686e+01 4.296316792493171732e+01
1.895216026297847733e+01 -1.061250804286077631e+01 4.369417888511723902e+01
1.902923618010063933e+01 -1.124486725062249626e+01 4.240481896563615294e+01
1.942291163259697484e+01 -1.134810652475443327e+01 4.133552226040995237e+01
1.949756977213302633e+01 -9.790825502214337561e+00 4.434288159579676147e+01
1.954281739122757955e+01 -8.602567674121150532e+00 4.514069978527388827e+01
2.058159334655182704e+01 -6.825047195545155709e+00 4.540165672525807850e+01
2.086272030622937024e+01 -1.035370966313961461e+01 3.817135604882609101e+01
2.003184670863038619e+01 -1.108324426641216576e+01 3.988344023150926176e+01
1.973200352457753226e+01 -1.130604685528455633e+01 4.026606154812741067e+01
2.205478176383760669e+01 -7.569133924942378577e+00 3.708756106592853286e+01
2.160236426681216315e+01 -8.932740938235655292e+00 3.723168311571610900e+01
2.251624886683620730e+01 -6.332123061226756278e+00 3.740093361013629192e+01
1.914185973968834631e+01 -1.143509078872997264e+01 4.184648321711125618e+01
1.919691298063284535e+01 -9.195040798868735266e+00 4.505440050933483320e+01
1.993987291147617569e+01 -7.275403085930499891e+00 4.568746188459518720e+01
1.933519421213301825e+01 -8.205145434611461397e+00 4.560867766799649559e+01
2.079096060546548230e+01 -6.189543788022407789e+00 4.539280994696539295e+01
2.018442695226271155e+01 -1.102337743643263579e+01 3.947862074256494225e+01
2.179674802809892853e+01 -7.975769180176633277e+00 3.680078704717821836e+01
1.892938449579479609e+01 -1.157099134215330238e+01 4.088265338056197606e+01
1.871321496068387802e+01 -9.661653895283970783e+00 4.474603875200977399e+01
2.030050169903320878e+01 -6.327746566698547070e+00 4.572470965215116223e+01
2.040937975091271639e+01 -1.080972278020139932e+01 3.847108965382913226e+01
2.222178498875328145e+01 -6.653327239006551430e+00 3.687837870965875453e+01
2.080656802025669094e+01 -1.008892689186649960e+01 3.731869941959371317e+01
2.139235464812643883e+01 -9.003396215675820713e+00 3.666563298268878413e+01
2.150932359806506611e+01 -8.393750631957557218e+00 3.645320908003256477e+01
2.201447689247405748e+01 -7.109985869684272153e+00 3.662200602196963928e+01
1.847530839018643789e+01 -1.138849400325998396e+01 4.262923768806020774e+01
1.829045288315634110e+01 -1.111438818302488585e+01 4.319326778558258439e+01
1.836767152014119731e+01 -1.174497604189467559e+01 4.190384990104350038e+01
1.874076199163561185e+01 -1.161993193723235507e+01 4.140760611426355808e+01
1.860280316789689437e+01 -9.384715513372292151e+00 4.509438969503856498e+01
1.929818546416630909e+01 -7.725614270200786393e+00 4.597433401091931415e+01
1.892672493426723079e+01 -8.684772666422199805e+00 4.565801213367409161e+01
1.993553926805748944e+01 -1.114591553677824898e+01 3.868980496872575969e+01
1.963948411561915819e+01 -1.139657614857019929e+01 3.950495443092149372e+01
2.291810589703896284e+01 -5.432532953785954355e+00 3.789092499182878271e+01
2.223107758956717106e+01 -6.182166632868729472e+00 3.667183985776254929e+01
2.092151012928377440e+01 -9.716870490477507616e+00 3.679106088598349089e+01
2.162620255811708248e+01 -7.784617806020668773e+00 3.624099047696007858e+01
2.065646565589878847e+01 -1.039228249031634022e+01 3.754368620682616609e+01
1.822874660704932026e+01 -1.012904471032752163e+01 4.443716362372365580e+01
1.840007732994771672e+01 -8.999852239602020632e+00 4.554728924907134058e+01
1.865701502964663661e+01 -8.175299704562410952e+00 4.626162604428035507e+01
1.967831518202240559e+01 -6.416868624311445224e+00 4.610000940292892579e+01
1.843586708432446741e+01 -1.179388363430878250e+01 4.042979395618733918e+01
2.247488785580176796e+01 -5.685833006520100597e+00 3.699304570415782933e+01
2.001833229058696162e+01 -5.830903024938692170e+00 4.604731706133057401e+01
2.048631121262828003e+01 -5.315915975271613192e+00 4.582051989052043695e+01
1.933793496020655667e+01 -7.003298558672112151e+00 4.615344267520544008e+01
1.792723351387777697e+01 -1.143831435912803762e+01 4.283659748973692416e+01
1.810594467191302570e+01 -1.083715740973038599e+01 4.375731822380917890e+01
1.800799487083300576e+01 -9.574618060906141537e+00 4.513458012446005085e+01
1.819760290391217339e+01 -8.617468631537803958e+00 4.600020786977811582e+01
1.997670055981550163e+01 -1.107621766847177547e+01 3.799379231811582969e+01
1.890941593586291702e+01 -1.167752090755951677e+01 3.951091262876540355e+01
2.198691807204961890e+01 -6.679224596837873840e+00 3.635017496306263496e+01
2.174304108053238949e+01 -7.175721243072276323e+00 3.602888346355892679e+01
2.097923180430524326e+01 -9.276887153363770011e+00 3.621306541196045714e+01
2.045038993278174644e+01 -1.043082318012641529e+01 3.691656147861220916e+01
2.105644338499477186e+01 -8.993782153775049082e+00 3.603017060821316875e+01
2.128733007182982817e+01 -8.142572097601597392e+00 3.586003515994050161e+01
1.940803224604526278e+01 -6.225563183871466677e+00 4.622515394582836024e+01
1.774461367774101817e+01 -1.059615040493241978e+01 4.412847887310390860e+01
1.803419401234491559e+01 -1.172172768071237137e+01 4.229549692560397034e+01
1.816549825307858868e+01 -1.186732385614782181e+01 4.111983455200494575e+01
1.899760744415303293e+01 -7.589381792897119894e+00 4.620734656490853354e+01
1.773782043357419269e+01 -9.061348794720940347e+00 4.573862336274085294e+01
1.757865747595663564e+01 -1.018041233799266720e+01 4.465158759485487394e+01
1.946319329627321082e+01 -1.146765698316894166e+01 3.868354156697858315e+01
2.213323637130849164e+01 -5.562703759824814576e+00 3.629387161712404719e+01
2.058452738231311585e+01 -9.887665265378968726e+00 3.633844914818693184e+01
2.140414193982494240e+01 -7.533612491027156466e+00 3.564782232863148437e+01
2.019184677931108496e+01 -5.228805066270068025e+00 4.597167496133564413e+01
1.737096221902766047e+01 -1.139441708341722936e+01 4.320148042147648226e+01
1.759247627314306328e+01 -1.205546084956057129e+01 4.196130619181708710e+01
1.842218865687803131e+01 -7.595068164850674819e+00 4.642262605248041751e+01
1.790818591617552258e+01 -8.437349032841193974e+00 4.633605800008801623e+01
1.879773292574212817e+01 -6.620170131712058925e+00 4.640401044948259823e+01
1.741271961854089412e+01 -9.764672429655064434e+00 4.517492872995570252e+01
1.911860138160192335e+01 -1.158489129485055358e+01 3.900296059076767818e+01
1.794160719152177563e+01 -1.201712395905056852e+01 3.997624577817699532e+01
2.195470727749175310e+01 -6.087800840726407259e+00 3.610785258413469023e+01
2.234449360413220376e+01 -4.859967930593458441e+00 3.648922953739267427e+01
2.056596002808394985e+01 -9.550476073971006841e+00 3.576033342823023276e+01
2.016947301655061153e+01 -1.041583158024448252e+01 3.628814441931758950e+01
2.093513514578991774e+01 -8.445566073813246533e+00 3.541526510071191325e+01
2.173743679359891701e+01 -6.459086765425301913e+00 3.580000012077046989e+01
1.978015018229144317e+01 -1.102041847209169312e+01 3.697711792621356608e+01
1.968441477419617769e+01 -5.330357259901213673e+00 4.621694199703350137e+01
1.857506210649993150e+01 -6.286660988044507015e+00 4.651733426520564763e+01
1.896269389592402987e+01 -5.558401730776004079e+00 4.645164538118319797e+01
1.726150315550583159e+01 -1.106232072219979656e+01 4.382041327275700837e+01
1.727809670426100652e+01 -9.507703149639224804e+00 4.547711400127766268e+01
1.774312875241088605e+01 -7.502196596227663328e+00 4.655883143202691343e+01
1.818743254330389902e+01 -7.014712492983192327e+00 4.658351328717765227e+01
1.928671481597337944e+01 -1.153881559557369485e+01 3.786124390992819144e+01
1.749574101389474734e+01 -1.217872939038563906e+01 4.033451048758199420e+01
1.817837009286695960e+01 -1.195890721376247079e+01 3.951687500661507357e+01
2.137196602196516793e+01 -7.186555343280929264e+00 3.543495083897384035e+01
2.106533784891497518e+01 -7.891405043925278306e+00 3.526687382998719045e+01
2.072048204953548378e+01 -8.984171876838775717e+00 3.539461281235033852e+01
2.036293527455128682e+01 -4.626524265864259355e+00 4.589680433889498801e+01
1.934894033142306924e+01 -4.829728764476376668e+00 4.638662873450183355e+01
1.748138868630009313e+01 -1.172728051040273556e+01 4.258210206403411746e+01
1.703986809344670306e+01 -1.050896129998164064e+01 4.451707124283188932e+01
1.754405218076538731e+01 -1.211712174693151489e+01 4.114718349520708074e+01
1.712077788520280919e+01 -9.123273128418594169e+00 4.597092995151940187e+01
1.729885559338204004e+01 -7.989096550342385861e+00 4.653431961141651385e+01
1.790291486243625485e+01 -6.462958008090939899e+00 4.673755710797007623e+01
1.715923903118345706e+01 -8.699778794627029299e+00 4.641073244169542988e+01
1.681786780466310560e+01 -9.954771139842820915e+00 4.521535159395578773e+01
1.859746950900717621e+01 -1.177329678519370049e+01 3.850072990462922462e+01
1.996355864298340066e+01 -1.063185971809515173e+01 3.644290611902000165e+01
1.847229068374953798e+01 -1.183436065276349680e+01 3.903984118124312630e+01
1.954377840783114451e+01 -1.134287212141976653e+01 3.751622458749085354e+01
2.203539622921452690e+01 -4.943260191743925169e+00 3.591590739055859416e+01
2.173183197704576131e+01 -5.742288844445972984e+00 3.557106217257686609e+01
2.027698122014889037e+01 -1.001396190116092555e+01 3.587816777950470737e+01
1.980106824859937475e+01 -4.360529861443033894e+00 4.617240161060492198e+01
1.877274354061997030e+01 -5.190025311415662479e+00 4.655411167152735175e+01
1.819586523392340638e+01 -5.550272614445972863e+00 4.672255451712836560e+01
1.695854277659860543e+01 -1.154566468359406706e+01 4.293291194191271387e+01
1.683291460153087726e+01 -1.125157618861582165e+01 4.348076410240025069e+01
1.712200351322295333e+01 -1.217450769973880398e+01 4.154726205828276875e+01
1.745698645671191684e+01 -7.297024234070525139e+00 4.672455278571322879e+01
1.685436251689171172e+01 -8.474985611222654924e+00 4.650993551966236339e+01
1.744751077381518556e+01 -1.224030359163913850e+01 3.952283926489000976e+01
2.015299070974270990e+01 -9.823865024441795768e+00 3.530793305594595921e+01
2.072653944566119577e+01 -8.249190911713846219e+00 3.488593566596775730e+01
2.143845619622696574e+01 -6.181336486385855977e+00 3.523355880557134157e+01
1.953821914666024995e+01 -4.057871427624564653e+00 4.628799219140588406e+01
1.674910297941860193e+01 -1.180361620804828071e+01 4.246109255815254357e+01
1.656328913321711838e+01 -1.113202930320148276e+01 4.378496060469468176e+01
1.686623574696812966e+01 -1.208964707985354003e+01 4.191625850653994689e+01
1.661602990487771692e+01 -9.460018408594795147e+00 4.585044707313490164e+01
1.640967172755407333e+01 -8.965370746933665203e+00 4.648565706735691094e+01
1.623020674176945022e+01 -1.030197737769066535e+01 4.483135610949643279e+01
1.947682229433648970e+01 -1.083285971384574076e+01 3.596934292191462390e+01
1.883651441261471504e+01 -1.156663935934472143e+01 3.641548868963653263e+01
2.100071837446513712e+01 -7.197400939930007624e+00 3.484074144687281205e+01
1.910996533173667444e+01 -1.161008559352391778e+01 3.703767540975817951e+01
1.807625554659275124e+01 -1.196173247612747481e+01 3.799841549317478950e+01
1.790711643694114841e+01 -1.204592127164174187e+01 3.879626069748307771e+01
1.690505950979387251e+01 -1.228976050262258823e+01 4.041504936997281305e+01
1.988862613335259510e+01 -1.040085966907886750e+01 3.565988556226052708e+01
2.038477294274809992e+01 -8.974574411158224407e+00 3.475953283418326123e+01
2.107009907051056175e+01 -6.550493979989047588e+00 3.475392997893133895e+01
1.897960855744961606e+01 -4.295276629904349441e+00 4.653682380704537280e+01
1.761820306574077222e+01 -5.910715785191700711e+00 4.689173484492820876e+01
1.794981410168346159e+01 -5.194298154435415427e+00 4.682318237886102708e+01
1.707731637289974813e+01 -6.561499400478729704e+00 4.693018472839423083e+01
1.640413347772394204e+01 -1.144164759709457257e+01 4.314091493915533704e+01
1.665217466305345440e+01 -1.229341809010772657e+01 4.113378196188423175e+01
1.672653975830251483e+01 -7.579145743077019937e+00 4.686602248277164762e+01
1.620274972986641160e+01 -8.410802341432470186e+00 4.674688529092173894e+01
1.629974437565218537e+01 -1.074859493162470159e+01 4.427639021062805114e+01
2.143283100184966017e+01 -5.465123527741890364e+00 3.500475899574890093e+01
2.172623471460638456e+01 -5.026570346527633681e+00 3.534246324696260189e+01
1.827993585040020008e+01 -4.477815420243032918e+00 4.675497663401612414e+01
1.617755492562557862e+01 -1.007919737974665786e+01 4.523529250410257418e+01
1.597515214406162087e+01 -1.163176770071533106e+01 4.280087307254262896e+01
1.586401601842775833e+01 -1.120252562260639984e+01 4.374974201475568236e+01
1.614109599315234789e+01 -1.212380825191294420e+01 4.187135062348863102e+01
1.602402880807049712e+01 -9.708028045205821854e+00 4.571178339173498273e+01
1.599609174757281593e+01 -7.860988820690990586e+00 4.700780227097350661e+01
1.580193106545656256e+01 -9.100320567888157797e+00 4.651584301993360526e+01
1.549257844190956490e+01 -8.268447472754987260e+00 4.690764346358067627e+01
2.113947794964920845e+01 -5.903603145637983829e+00 3.466711914277596662e+01
1.841806969841151798e+01 -1.185287430775813888e+01 3.702288616310720926e+01
1.677886420193956951e+01 -1.237253561619223596e+01 3.951209503648789223e+01
1.734403648671065667e+01 -1.226484646828986769e+01 3.889108208577730608e+01
1.697331200905583160e+01 -1.234098608190250701e+01 3.908099386426593469e+01
2.056630320804262624e+01 -7.877751644539974230e+00 3.445505548693343911e+01
2.002624714253068916e+01 -9.517641982823015212e+00 3.471928354510807679e+01
2.038758769372185498e+01 -8.607141162982083316e+00 3.450483059662877849e+01
1.693610056310200562e+01 -6.167995815257704351e+00 4.702421099503096258e+01
1.730452282985600121e+01 -5.315052874984760756e+00 4.702330471778893894e+01
1.564219027937963169e+01 -1.064935231741986321e+01 4.444714465700586459e+01
1.553501306492074896e+01 -1.020375882873337936e+01 4.525536730028940724e+01
1.586891813200816337e+01 -9.336835983186348997e+00 4.618827980316996218e+01
1.898938744844745230e+01 -1.103414948934318218e+01 3.549509701369970571e+01
1.856281554637596898e+01 -1.152316457807392602e+01 3.579273293397204725e+01
1.863665654630669621e+01 -1.170809277576168128e+01 3.661346340938850830e+01
1.960782619413239658e+01 -1.038590206970262386e+01 3.503173013267879554e+01
2.139119759533657117e+01 -5.051558040854886578e+00 3.486894841727097116e+01
1.724039646727690211e+01 -1.228947569511052507e+01 3.825818886759060433e+01
1.618235125647110806e+01 -1.241234939868731146e+01 4.072030424128887915e+01
1.973989019436627856e+01 -1.009734090349200208e+01 3.485538892405278233e+01
1.752960733419495298e+01 -4.399836434512071293e+00 4.699848353000297863e+01
1.653660161875435008e+01 -7.211724617504077450e+00 4.696889457712327953e+01
1.625406572352174095e+01 -6.425183090341076486e+00 4.715709200263338374e+01
1.554660789974351864e+01 -1.182170820402603795e+01 4.246115663068850665e+01
1.532762080648475234e+01 -9.709075142399919756e+00 4.589066011205256501e+01
1.524079004206827292e+01 -8.030649828983278837e+00 4.709773785922749312e+01
1.755496100312784691e+01 -1.215019781608375382e+01 3.749602570416828939e+01
2.062991084001050623e+01 -7.208239385532929866e+00 3.424723606176934965e+01
2.105616668032554273e+01 -5.076551250239344171e+00 3.439543999388841655e+01
2.084612535096493602e+01 -6.342084188553566371e+00 3.432948517656442533e+01
1.638598754148376813e+01 -1.241211366146510819e+01 4.009958744194819502e+01
1.611021736725949438e+01 -1.250476816772164135e+01 3.950135994279333573e+01
2.162720924261714117e+01 -4.394439952007012096e+00 3.510739353918464190e+01
2.004875011664600493e+01 -8.964971260407821774e+00 3.412385830260752329e+01
1.806980245728656342e+01 -4.080484893175604810e+00 4.684252946193677047e+01
1.651784308812511526e+01 -5.373594146160091789e+00 4.719989914750497917e+01
1.505502495275108288e+01 -1.099622780159717195e+01 4.406349492711608207e+01
1.525138423404256827e+01 -1.152317171961622044e+01 4.315768547717978976e+01
1.541560514678784344e+01 -1.215800794816079922e+01 4.182648390479342027e+01
1.497340807394182782e+01 -1.066232778698333128e+01 4.466950541879943870e+01
1.578408553114943835e+01 -7.272432445268702139e+00 4.714894238860460263e+01
1.498847067470164163e+01 -8.678580157924475458e+00 4.680743951557363403e+01
1.772622626762590414e+01 -1.209564474008426593e+01 3.700809933790237238e+01
1.816349250249384184e+01 -1.180610214922345058e+01 3.618938193953157878e+01
2.015409353849583241e+01 -8.091837200961002452e+00 3.388899052239028009e+01
2.083407082421730294e+01 -5.690732538959019315e+00 3.419194906569777714e+01
1.545756528190762147e+01 -1.232614693974703179e+01 4.115346232713009300e+01
1.968762920684698159e+01 -9.668033121595854595e+00 3.426327236081640848e+01
1.698939076543642912e+01 -4.719185177371052475e+00 4.715497936107244925e+01
1.604614854705635096e+01 -6.028217286526177610e+00 4.724504576331133165e+01
1.516591430849937971e+01 -1.127278259929738091e+01 4.371478780321638169e+01
1.502426344880655051e+01 -1.176059942744628195e+01 4.267856822939928207e+01
1.511815978919388925e+01 -1.200728633701152681e+01 4.212150323282659059e+01
1.519443093925075416e+01 -9.235327353788024496e+00 4.654614371442895049e+01
1.478639172384637845e+01 -1.008119602887770938e+01 4.559312812354409772e+01
1.489025237893888232e+01 -1.032842966020753117e+01 4.527554532287657452e+01
1.850252094017063698e+01 -1.123520684968075756e+01 3.502140314062692283e+01
1.828931263777596783e+01 -1.147973044361379458e+01 3.517041602047579119e+01
1.932661490056813847e+01 -1.037093415923973616e+01 3.440265632085740322e+01
2.055277146926702159e+01 -6.780569289066885830e+00 3.399185451527498714e+01
2.128224654593786269e+01 -4.356202747639351003e+00 3.461033319209720815e+01
1.713677129056984327e+01 -1.231413844026604920e+01 3.762528951897921559e+01
1.649911669469190656e+01 -1.244169801468257575e+01 3.863913346578086561e+01
1.658086087279133380e+01 -1.242828248466662266e+01 3.791128790996747711e+01
1.571253511998031449e+01 -1.253129786675911106e+01 4.030683072492214336e+01
1.776883064689343072e+01 -3.639545082604083159e+00 4.697470855909931231e+01
1.557172117734679162e+01 -6.682406433439343374e+00 4.729033926520700959e+01
1.468688793534119874e+01 -9.725799960520596699e+00 4.608481527496606844e+01
1.495704579633157394e+01 -7.246528633098400007e+00 4.728617910519586331e+01
1.448547665412405294e+01 -8.199823149215323070e+00 4.718789715398075657e+01
1.703331146856050182e+01 -1.233879169661474329e+01 3.699329154327432434e+01
1.760681933229417595e+01 -1.204180223886976542e+01 3.642316883664678784e+01
1.769033563684266142e+01 -1.190413600643721459e+01 3.576530394977280736e+01
1.867116978236348501e+01 -1.090350550687648123e+01 3.447516725589748177e+01
2.025940528735323909e+01 -7.219074464368460120e+00 3.365421383699084856e+01
2.050526104330163690e+01 -5.969732342705139416e+00 3.377424859104952048e+01
1.582223791236278210e+01 -1.257165930842941393e+01 3.887288649610442093e+01
1.961301252849294485e+01 -9.155768629310543361e+00 3.368943620263478067e+01
1.722858244828154284e+01 -3.958884191032066013e+00 4.713087662766021424e+01
1.635963093474299868e+01 -4.945839428928521464e+00 4.727719760957441508e+01
1.533768583187076651e+01 -6.040741261318194333e+00 4.740640315761796586e+01
1.573013564499456862e+01 -5.172366726514800561e+00 4.739972531511916287e+01
1.446809715315906253e+01 -1.134298053991365585e+01 4.368000174155194060e+01
1.454120899288917279e+01 -1.162635984069894235e+01 4.304769342146231992e+01
1.461516782755194299e+01 -1.190921698041093535e+01 4.241449187088301187e+01
1.435704666308323496e+01 -1.089814761562890766e+01 4.448767674709838360e+01
1.468943910690833832e+01 -1.219225909215889203e+01 4.178162598054579036e+01
1.424545567251772482e+01 -1.045309300181284584e+01 4.529580369516583005e+01
1.448382232727324137e+01 -9.091879294634747311e+00 4.670719473046206360e+01
1.962389854364831621e+01 -8.865486889299765139e+00 3.350020993255127166e+01
1.602494909833574965e+01 -1.254242976434955104e+01 3.819728234161766522e+01
1.518952116988945633e+01 -1.248081878683364110e+01 4.057286484991541897e+01
1.471721677230254066e+01 -1.238473082484800791e+01 4.101374273242680601e+01
1.544156952997236409e+01 -1.263700221404575075e+01 3.949062253278138712e+01
1.524272741241508555e+01 -1.265026055197606247e+01 3.989336264981596969e+01
1.928782349128934825e+01 -9.706798038760377167e+00 3.373975650716808161e+01
1.673155373329687734e+01 -4.225444221594371719e+00 4.727381262451858390e+01
1.458737427054566460e+01 -9.370384527017861842e+00 4.657652679136051432e+01
1.411244880772343890e+01 -9.979458379756721342e+00 4.595127436828296652e+01
1.801563325751087774e+01 -1.143627630867193368e+01 3.454769127180074406e+01
1.767309876390145718e+01 -1.171083907512449862e+01 3.500793470301631771e+01
1.881409025768789434e+01 -1.048319257575638552e+01 3.394672887817569062e+01
2.018974641184914987e+01 -6.530712612655230842e+00 3.342762288942356719e+01
1.978210778861241792e+01 -7.556106585815583365e+00 3.314829027403326478e+01
1.622495773454152967e+01 -1.250390828489426198e+01 3.758004036753361987e+01
1.531056629188072549e+01 -1.267667775057217483e+01 3.862554461989606835e+01
1.896263729275198529e+01 -1.025784339469561424e+01 3.379007750984759895e+01
1.486957620071557251e+01 -6.831922367124348305e+00 4.737459567221733181e+01
1.510065316435462357e+01 -5.398855668623306236e+00 4.752252127005822757e+01
1.610186445276053391e+01 -4.452156938963592658e+00 4.739615068540396692e+01
1.409363872676176932e+01 -1.188021804089365929e+01 4.248704206195709077e+01
1.420279962090942050e+01 -1.229349477024642923e+01 4.134807770832615148e+01
1.397935926339285828e+01 -9.505615297711630163e+00 4.660704734143295269e+01
1.372795187267601769e+01 -1.066276923954844058e+01 4.496461688970556025e+01
1.434352735784098343e+01 -7.808660928805631229e+00 4.728215275992742050e+01
1.385471887948052228e+01 -8.937406834901109320e+00 4.694270551125364932e+01
1.684243143409910815e+01 -1.230358479598961274e+01 3.636765886951138071e+01
1.825860411830522168e+01 -1.089671745944120218e+01 3.394444149752436601e+01
1.987115979760037021e+01 -7.154635638435697942e+00 3.314371368907068671e+01
1.963433551745318084e+01 -8.228832314414789906e+00 3.323825737304251504e+01
1.474504387304939357e+01 -1.257698688415609922e+01 4.024677439194722695e+01
1.917737716460694486e+01 -9.346525035981356311e+00 3.325511457142865623e+01
1.647402058485253562e+01 -3.731755608539023772e+00 4.739268289639670684e+01
1.416723595674315028e+01 -6.981374895932273894e+00 4.745909668577785823e+01
1.547238590141685677e+01 -4.678697739585286897e+00 4.751878198179026214e+01
1.392091336271735358e+01 -1.153002485612704930e+01 4.327200951318403810e+01
1.359347525517222444e+01 -1.109972995230032744e+01 4.419236213653628198e+01
1.394910447192392766e+01 -1.221331579323332761e+01 4.174603276449923328e+01
1.358905728785065925e+01 -1.050876380768073659e+01 4.530920463044230218e+01
1.348951493385479949e+01 -1.015358462783303928e+01 4.580077355817157780e+01
1.653533073164209100e+01 -1.240225502224378573e+01 3.654423779727349597e+01
1.642497152150071571e+01 -1.246540844833904060e+01 3.696279856213858039e+01
1.721708913693421295e+01 -1.200221031970893470e+01 3.534114452736648104e+01
2.012001630768005356e+01 -5.841657854712748232e+00 3.320079825712837618e+01
1.555079862497372822e+01 -1.264317982690773690e+01 3.775543572034719375e+01
1.425738095991192367e+01 -1.246391797890797903e+01 4.066998193855146582e+01
1.477292315957802948e+01 -1.276923643254495033e+01 3.947989626069622915e+01
1.859865681589826991e+01 -1.014475244530563280e+01 3.317747847937349803e+01
1.455769584294122687e+01 -5.976329758108237300e+00 4.752950561973113253e+01
1.584436964405477966e+01 -3.958461108550088703e+00 4.751514396380517979e+01
1.376620008420452024e+01 -1.138194837141647930e+01 4.366984078553173987e+01
1.337360315850593295e+01 -1.171611259721906428e+01 4.286428764862424146e+01
1.349055754878549784e+01 -1.198926524177048236e+01 4.225288158037684383e+01
1.321070209964063480e+01 -1.087232198323983567e+01 4.463363148116441437e+01
1.373013710909009433e+01 -8.370066543353258837e+00 4.727823385307025461e+01
1.665168244483984594e+01 -1.226847450672557294e+01 3.574242555123405651e+01
1.743379133607436771e+01 -1.169034919687796226e+01 3.452933971764199583e+01
1.830149399463611104e+01 -1.059546740621917671e+01 3.349073679681426086e+01
1.770313105454875924e+01 -1.131029992799570749e+01 3.394215481453947802e+01
1.980141253892804798e+01 -6.465913346448544985e+00 3.291693949813237197e+01
1.948281119248174065e+01 -7.090181870153138277e+00 3.263308539364930283e+01
1.919892806328959978e+01 -8.765973863640020625e+00 3.287637312308118709e+01
2.038588290681810378e+01 -5.126565092551112812e+00 3.344810183827642902e+01
1.581745818946726700e+01 -1.259185414561673788e+01 3.693233944081771369e+01
1.468751847757879148e+01 -1.280694927272564421e+01 3.817593062079826183e+01
1.371695583213699443e+01 -1.239466155279987980e+01 4.091523570805042453e+01
1.401190176947026700e+01 -6.553738503203252463e+00 4.753659612709736848e+01
1.445640767851730502e+01 -5.523020973410332601e+00 4.760068250272752266e+01
1.480927650628242276e+01 -4.597680914107757921e+00 4.768595627621937183e+01
1.359757883672202183e+01 -7.750752000415784160e+00 4.741095012124458918e+01
1.621661411263048791e+01 -3.237952554642460790e+00 4.751162694651766571e+01
1.339007328684236242e+01 -9.798398859966770402e+00 4.629236208174543066e+01
1.317463484706766152e+01 -9.590373669398118750e+00 4.663244055524116050e+01
1.293419007760502204e+01 -1.056434420032533161e+01 4.532265633081229339e+01
1.603778268581137922e+01 -1.246571450409131110e+01 3.609556338573048606e+01
1.755778356283391517e+01 -1.148514548639303712e+01 3.414328503798085279e+01
1.674392569766270356e+01 -1.210028537481554345e+01 3.491705715941187549e+01
1.930481193680089902e+01 -7.893152337058137569e+00 3.264236345445918630e+01
2.005018437022532751e+01 -5.151620660458609002e+00 3.297364290561824163e+01
1.397962031280193784e+01 -1.260797914652125229e+01 4.007782866845805358e+01
1.473020955355424633e+01 -1.278807127313655734e+01 3.882802005608175477e+01
1.874158182671684258e+01 -9.537351171007216522e+00 3.282062813748662933e+01
1.346488803124999833e+01 -7.130703067057519107e+00 4.754377598362180635e+01
1.527824778976416731e+01 -4.144278962688258794e+00 4.762773133868477515e+01
1.565044674684972925e+01 -3.423907324079783265e+00 4.762403569487709376e+01
1.306279350683512064e+01 -1.141965311885397405e+01 4.365973794254194473e+01
1.282630993145521359e+01 -1.190255422321959777e+01 4.245659327432058916e+01
1.269354698084367605e+01 -1.108080407526814426e+01 4.430253205357789881e+01
1.320917709743101476e+01 -1.223442778760358784e+01 4.171050281320133024e+01
1.318893806079277198e+01 -8.717055365013280266e+00 4.712960868050453911e+01
1.646110296363239556e+01 -1.223344923463984379e+01 3.511772214618497401e+01
1.739038445523945242e+01 -1.118425651973343449e+01 3.333615062405891649e+01
1.961677750701966261e+01 -5.587701065876236939e+00 3.250510924740935792e+01
1.507656786502594493e+01 -1.274396587692297089e+01 3.731350140001774207e+01
1.432372408607514203e+01 -1.279666675576503820e+01 3.907163958753759658e+01
1.402309296563164054e+01 -1.277673503820000533e+01 3.940580938633048902e+01
1.381193743085694337e+01 -5.647192797965925770e+00 4.767906966302421523e+01
1.417967516395154171e+01 -5.047644322781616566e+00 4.771332282145053938e+01
1.280125601192739637e+01 -1.009097702848296230e+01 4.597790578129225025e+01
1.296843214865259242e+01 -8.434412551204083286e+00 4.730310958223734730e+01
1.537512447398682625e+01 -1.262371499036369116e+01 3.627442513676316338e+01
1.685212911744849151e+01 -1.194437513751460500e+01 3.451100054006167994e+01
1.778925096500589120e+01 -1.070766533005280863e+01 3.303505688779760874e+01
1.709993278321634946e+01 -1.153404603408674944e+01 3.373888445948421122e+01
1.933296723005436135e+01 -6.557099648184951057e+00 3.233469718096714729e+01
1.913996691947816942e+01 -7.507271419031806836e+00 3.232082518701156459e+01
1.963440254495245796e+01 -5.122431664026511733e+00 3.245297733111578964e+01
1.520992244461709397e+01 -1.271830559773922964e+01 3.690188118611377632e+01
1.464484251726199737e+01 -1.282586248672393303e+01 3.752366284823575882e+01
1.323093472537049564e+01 -1.249593802364941908e+01 4.048222941759850357e+01
1.877458694808641582e+01 -8.666602729386999826e+00 3.225344447299150374e+01
1.823461522943335211e+01 -1.003164221990502547e+01 3.256475918115868495e+01
1.331761802222893110e+01 -6.451636972975129503e+00 4.765065483077360398e+01
1.279068362367665479e+01 -7.606969833566853190e+00 4.748017262516610515e+01
1.451823635590091222e+01 -3.795740196713661252e+00 4.784959007719221091e+01
1.508431801874206712e+01 -3.609839729371098205e+00 4.773671068763206193e+01
1.593971869763285198e+01 -2.712889412845708392e+00 4.761961605931419683e+01
1.406713604705037923e+01 -4.455054587157089685e+00 4.781885326408168879e+01
1.259294273464058378e+01 -1.167990337813335522e+01 4.305312419008154734e+01
1.240051605800750245e+01 -1.081822829432407929e+01 4.490358941671360782e+01
1.294402954117519755e+01 -1.236983492676567664e+01 4.109824265868431326e+01
1.264756811189528030e+01 -9.064469498543944681e+00 4.698094019645203190e+01
1.627042204895800737e+01 -1.219844624217425633e+01 3.449266310771219679e+01
1.909399650399770465e+01 -7.025654301540106061e+00 3.212185615577080711e+01
1.403498838325896614e+01 -1.283879326516462882e+01 3.788928582940331324e+01
1.327326319096708396e+01 -1.278436965847975237e+01 3.933177104207162955e+01
1.387440907908757204e+01 -1.282417401326480011e+01 3.866326829203605087e+01
1.237070123156870949e+01 -9.675162465151279534e+00 4.665799049032308687e+01
1.830601724809861608e+01 -9.728078653734142378e+00 3.238636907652137609e+01
1.274735391508697901e+01 -7.164929188638444302e+00 4.756255670630581989e+01
1.537361663684128743e+01 -2.898876685327467673e+00 4.773215435890889324e+01
1.361687034545700214e+01 -5.113313083482758259e+00 4.778823383875155173e+01
1.235979204848089452e+01 -1.145748521104474449e+01 4.364969895331410754e+01
1.225393837394140384e+01 -1.182897596438819576e+01 4.271498714020883369e+01
1.227777674922722007e+01 -1.208963407561785353e+01 4.204799042218224514e+01
1.227954428701401390e+01 -1.061991301721581316e+01 4.533617189023835437e+01
1.221339650032570034e+01 -1.038347335464905008e+01 4.566355389740502346e+01
1.247032561392877881e+01 -1.225556923031117407e+01 4.167505066981971851e+01
1.554033121443786314e+01 -1.252920248345749599e+01 3.564696451815412104e+01
1.582662465750894931e+01 -1.237615093565583813e+01 3.501620113431883397e+01
1.882757425917064609e+01 -8.230171494498462081e+00 3.213649304314804311e+01
1.707757010465833503e+01 -1.105821110079092762e+01 3.273001790470473082e+01
1.656891651843111646e+01 -1.183915802756664704e+01 3.391108436973786411e+01
1.918312498748177219e+01 -6.024039890582336021e+00 3.203632113632057354e+01
1.921863566103785459e+01 -5.093249757900184527e+00 3.193236846385626748e+01
1.460218976117130296e+01 -1.284479971135700538e+01 3.687141724716342850e+01
1.210893542894216601e+01 -9.412270895783416691e+00 4.683227052743897190e+01
1.316699070402906813e+01 -5.771417407344895167e+00 4.775767751695020280e+01
1.211790048173471668e+01 -8.081618552219167029e+00 4.741671439158380963e+01
1.480752033173266469e+01 -3.084850974312563832e+00 4.784493712893762307e+01
1.220694026431013413e+01 -8.498761574939052821e+00 4.732813796060024458e+01
1.217591640536185160e+01 -1.128797355152879689e+01 4.397111790053257607e+01
1.164307079455043770e+01 -1.108624697616519050e+01 4.449529221733683215e+01
1.500203738216882599e+01 -1.267131721074102657e+01 3.593796913389159187e+01
1.727721906752972814e+01 -1.081981844329238029e+01 3.257956417787033132e+01
1.664224476684121257e+01 -1.158295234661385464e+01 3.333462572934651291e+01
1.871643388082942039e+01 -7.518219365405205856e+00 3.178768267469126130e+01
1.239807831862093046e+01 -1.244949330501096796e+01 4.077191982923286417e+01
1.274515688832306282e+01 -1.259721906029272809e+01 4.004943615762170595e+01
1.342514241472594350e+01 -1.285173320544923570e+01 3.825493216877821112e+01
1.206667020414935720e+01 -8.947128468289781367e+00 4.709201857436246286e+01
1.835028902402065398e+01 -8.567239012363575767e+00 3.163056685921455369e+01
1.811053862229682210e+01 -9.243027643699130991e+00 3.179155374728548367e+01
1.787087587200525007e+01 -9.918625364529495059e+00 3.195253082845469095e+01
1.203033858640707265e+01 -7.199036405825664175e+00 4.758147643028717511e+01
1.255081843449256418e+01 -6.259672129242712657e+00 4.770516185565235645e+01
1.394343503490991409e+01 -3.885881777173672003e+00 4.792365768124261649e+01
1.349252510729276722e+01 -4.544701849028847995e+00 4.789306357242364953e+01
1.566291710528432723e+01 -2.187684102508018924e+00 4.772770275431435039e+01
1.165831675850174065e+01 -1.149534823480004597e+01 4.363973683960850281e+01
1.162967779030680227e+01 -1.067547896308173350e+01 4.534974924230983362e+01
1.170555438812863080e+01 -1.201586201721001501e+01 4.230683799558638469e+01
1.553008943802528918e+01 -1.237214566606259325e+01 3.442898785469362366e+01
1.731770974839567856e+01 -1.042536459952187933e+01 3.203800767996590793e+01
1.602037106266899258e+01 -1.208136895646560305e+01 3.390052900143248849e+01
1.874953740339662644e+01 -6.460323819696431435e+00 3.156761579036348664e+01
1.870515102533881802e+01 -6.961123086452407627e+00 3.161060349282860216e+01
1.887036154667131882e+01 -5.739863358791734704e+00 3.160299712642700243e+01
1.945708481642567733e+01 -4.313379919685478292e+00 3.214694636484939139e+01
1.364190057926424160e+01 -1.286292665099403010e+01 3.753197683046782629e+01
1.172961986962762815e+01 -1.227672793405502638e+01 4.163967328183696281e+01
1.252343669218463873e+01 -1.279209980010641701e+01 3.925778525196285784e+01
1.157138309389688757e+01 -9.759948838613931699e+00 4.668366160289180300e+01
1.833887609003989283e+01 -8.010811871397613970e+00 3.145350980574666622e+01
1.431080704369867895e+01 -3.223346126324590610e+00 4.794887558456365895e+01
1.509698711175661501e+01 -2.373718836210049421e+00 4.784033079535495858e+01
1.168185703614266657e+01 -1.175539948228963461e+01 4.297344967848694353e+01
1.160057785640588435e+01 -1.021811557852034547e+01 4.601610463363516601e+01
1.504297101262744896e+01 -1.259271319386308008e+01 3.519844671489488519e+01
1.577100407784502778e+01 -1.221380630023431380e+01 3.405851872029144545e+01
1.676456299980218745e+01 -1.093210920488568760e+01 3.212351452612894320e+01
1.618453952738400758e+01 -1.163188174561657462e+01 3.293035542774296687e+01
1.385868578383202454e+01 -1.287412578326787305e+01 3.680902883676849058e+01
1.412111348195484872e+01 -1.286754975181127492e+01 3.646993080619937899e+01
1.446374696002596671e+01 -1.281344383941186038e+01 3.622897077654110376e+01
1.237475882088357970e+01 -1.283960200310182920e+01 3.851521687943201044e+01
1.151085113705043916e+01 -9.161304521854388483e+00 4.701855528021963693e+01
1.297993291310828567e+01 -4.919334934850476238e+00 4.791488309142021507e+01
1.252243182911626818e+01 -5.799027310432483873e+00 4.778551016414090213e+01
1.145033513263043901e+01 -8.563139599815885461e+00 4.735330508317528597e+01
1.193222469915099460e+01 -6.746859041533729062e+00 4.765278577603915267e+01
1.336846015227889239e+01 -3.976037591670888549e+00 4.799790888266648636e+01
1.460019457689643829e+01 -2.512167580010247203e+00 4.794421211052943477e+01
1.538641262254314057e+01 -1.662817339830173324e+00 4.783578259281165401e+01
1.605975113106388719e+01 -1.353119886655065773e+00 4.764098517880882611e+01
1.086266151147538217e+01 -1.120904636263743370e+01 4.418247102872408050e+01
1.108514180579745911e+01 -1.082659666958692490e+01 4.499971516010534600e+01
1.109974365790013984e+01 -1.188691817752146385e+01 4.254595712992243506e+01
1.577008932751912162e+01 -1.196419340473825876e+01 3.330784711799486075e+01
1.832744550464106226e+01 -7.453535666783825064e+00 3.127619740105344448e+01
1.880276517924553659e+01 -5.064065970996869837e+00 3.141168598008642832e+01
1.905362763215993382e+01 -4.340705663914829593e+00 3.164764746140486196e+01
1.175912572381576027e+01 -1.262557430155973570e+01 4.000195335437300059e+01
1.174523493792569262e+01 -1.245116972101944341e+01 4.082061713974064077e+01
1.225938788518385181e+01 -1.269854170140878757e+01 3.961664663591604096e+01
1.297599205479840201e+01 -1.287932909717536845e+01 3.784669500956160704e+01
1.781931168269573718e+01 -8.700966290381860091e+00 3.114537122961913340e+01
1.797453915830467253e+01 -8.424027335264034022e+00 3.116412365453524558e+01
1.745979413405190783e+01 -9.714485716753152644e+00 3.138689274088421755e+01
1.738783997157717209e+01 -9.965003006857955370e+00 3.153569761370877345e+01
1.138221809751775382e+01 -7.893810245146900328e+00 4.747696705055636812e+01
1.187729939540191459e+01 -5.826604523066351682e+00 4.781348470383417748e+01
1.464144410875794478e+01 -1.870770393087665573e+00 4.799145606266426967e+01
1.107779907118991325e+01 -1.162659398841102387e+01 4.321242505348643448e+01
1.075905154724016555e+01 -1.064673627323072225e+01 4.530073494338373763e+01
1.097011910559259817e+01 -1.147699245791410938e+01 4.362936727642613732e+01
1.049893153966018211e+01 -1.175799345532128015e+01 4.278511907454473118e+01
1.432532715311961269e+01 -1.278217482506973823e+01 3.558660915751239173e+01
1.527131944301433641e+01 -1.222918748563775537e+01 3.362414091027149254e+01
1.478953664370163779e+01 -1.254590033554549144e+01 3.436529109809928428e+01
1.551965212202568623e+01 -1.184695415118211592e+01 3.271479721045329114e+01
1.796303765765466665e+01 -7.867137024380561172e+00 3.098684141875001430e+01
1.831602048073515476e+01 -6.896546680065198665e+00 3.109900109856669559e+01
1.311532687891574511e+01 -1.290348641440937882e+01 3.674666949479633615e+01
1.364011129851257031e+01 -1.289033070587394469e+01 3.606850279379531088e+01
1.121631811514748733e+01 -1.235525580132568813e+01 4.119731901528875539e+01
1.177361355353588657e+01 -1.279990180384014309e+01 3.918384109769887402e+01
1.074165385825414276e+01 -9.729332569375374717e+00 4.665994576253694248e+01
1.230885066749323542e+01 -5.278265684882697428e+00 4.788666256527842080e+01
1.131445606062337461e+01 -7.232996441139177612e+00 4.760050262138960875e+01
1.279354120914164739e+01 -4.066171845058582868e+00 4.807228819804872444e+01
1.227213648700318949e+01 -4.663063230872753095e+00 4.799524039901974248e+01
1.373598334963752166e+01 -3.313505720637134555e+00 4.802302469698365428e+01
1.410341169587353072e+01 -2.650609017338019235e+00 4.804824902515451157e+01
1.577265367982581701e+01 -8.899248327830496796e-01 4.813478860242549473e+01
1.093160850547122287e+01 -9.967335912364507777e+00 4.631325713793121679e+01
1.028157411920202513e+01 -1.145863887032936645e+01 4.361904812177327528e+01
1.073900711722370716e+01 -1.200180195194061561e+01 4.219531458260656365e+01
1.694199746341467261e+01 -1.038809742092835364e+01 3.162280721764069469e+01
1.601712680593253069e+01 -1.133083322625844680e+01 3.212275157902941913e+01
1.454589225990761037e+01 -1.265621521361596713e+01 3.475017270185864504e+01
1.572694314256131953e+01 -1.168081697348390868e+01 3.252618346430878660e+01
1.098393636686732222e+01 -1.224572791352471413e+01 4.160554794665907252e+01
1.252685564976269106e+01 -1.290695995788676242e+01 3.743846129163613767e+01
1.085897784670838817e+01 -8.839293187579441380e+00 4.716813321986033003e+01
1.067140310424762717e+01 -8.513897532787586542e+00 4.732995075601127155e+01
1.127241864688841311e+01 -6.544421022393857257e+00 4.772095134612544598e+01
1.316117254887454990e+01 -3.403651230095960489e+00 4.809732310292375956e+01
1.389643356386631368e+01 -2.078725917316322391e+00 4.814750226083274498e+01
1.515745837343265734e+01 -1.130489126539242717e+00 4.832535349988099682e+01
1.058156396837730284e+01 -7.622363457333147352e+00 4.749489745807943564e+01
1.053995501166283688e+01 -1.097506296964136574e+01 4.464958143686053660e+01
9.993811383673156357e+00 -1.112396713307707152e+01 4.429901414081098210e+01
1.643746423410439306e+01 -1.073674704448376716e+01 3.155991837217857565e+01
1.441002897780083458e+01 -1.248218066659015157e+01 3.374565798676812989e+01
1.785433322359711639e+01 -7.135223074854646796e+00 3.064823041685733784e+01
1.106971015866111507e+01 -1.259691132085925069e+01 4.003909706547191405e+01
1.070264797303002702e+01 -1.243387244484960519e+01 4.075465495280112549e+01
1.023834138816954820e+01 -1.221470724772658301e+01 4.157143634228122409e+01
1.172518861588091710e+01 -1.285403353527396320e+01 3.832987323610137764e+01
1.237196786690960160e+01 -1.293288067654001061e+01 3.668432752285574594e+01
1.026727611432518650e+01 -9.115580236121004987e+00 4.698307354700146732e+01
1.759863718912651009e+01 -8.280758781262129276e+00 3.069748860268865442e+01
1.690494720684590035e+01 -1.001136832593783765e+01 3.111898128512711992e+01
1.175212566992485286e+01 -5.258666693842336315e+00 4.791839294946549188e+01
1.352907957313582266e+01 -2.740679833301201018e+00 4.812241116481687442e+01
1.441225397819469656e+01 -1.338340226468451855e+00 4.848085404557597400e+01
1.058453741445919860e+01 -7.158145948493607413e+00 4.757472882767342526e+01
1.029199576426785612e+01 -1.017448923500126057e+01 4.594327330123452668e+01
9.653928117694050570e+00 -1.163584447195828098e+01 4.305668739833013348e+01
9.919512685482812842e+00 -1.188947282743454004e+01 4.235791082454230150e+01
1.354927048725409122e+01 -1.283083757683656501e+01 3.510357929799972254e+01
1.625889491753144966e+01 -1.093952660834018253e+01 3.169983192723049115e+01
1.477164005898940857e+01 -1.224458064227358634e+01 3.318976890771634203e+01
1.404843322970888764e+01 -1.271978856507126920e+01 3.430154765872293154e+01
1.526931795888721233e+01 -1.172977031906105339e+01 3.212198882938873368e+01
1.763482558720853532e+01 -7.703786523647156770e+00 3.056813569653890994e+01
1.315911345625830187e+01 -1.291314044985374743e+01 3.566707632149285701e+01
1.123697611429574295e+01 -1.282755017257837693e+01 3.871621747171767680e+01
1.704895033087477074e+01 -9.510462838680284747e+00 3.082156129705047931e+01
1.123081034482758511e+01 -5.854141621551453234e+00 4.784157736834725227e+01
1.266172105715796725e+01 -3.454000448895543141e+00 4.816849416487917779e+01
1.192881016856048859e+01 -4.058811753537859168e+00 4.811833997186868572e+01
1.169590641684641064e+01 -4.658103174278187986e+00 4.802597916964003844e+01
1.554795055194339959e+01 -3.565192395627311828e-01 4.862450175334461022e+01
9.885723858069956904e+00 -1.061794126042765640e+01 4.525172942458446101e+01
9.912740736435754485e+00 -9.698776612162514965e+00 4.663638755419815141e+01
9.591642501613730332e+00 -1.144028500425482520e+01 4.360876944246984976e+01
9.825234035314039716e+00 -1.086734724083624393e+01 4.476895994534594081e+01
1.418691300961041968e+01 -1.275096658645613878e+01 3.494424385037171987e+01
1.494368187434815454e+01 -1.199435299103542008e+01 3.260357144309760002e+01
1.099341220200751934e+01 -1.278709855633147541e+01 3.913361942049766640e+01
1.018859245402862967e+01 -1.251257207154845474e+01 4.031167988987506590e+01
1.049324736365686661e+01 -1.265142473116224409e+01 3.970096971295853194e+01
