2.863137682328254385e+00 2.150342039153127160e+01 3.633946511976025562e+01
5.793361114534317791e-01 2.279660197038254310e+01 3.508586850938525004e+01
4.248415033263844620e+00 2.078193701880411481e+01 3.678891355272057950e+01
3.511866283911564413e+00 2.158791272656563365e+01 3.614878535212628918e+01
3.879824965461829755e+00 2.118531737607911580e+01 3.646812198523401349e+01
4.616967958584779375e+00 2.037849247583124423e+01 3.710968016217688614e+01
5.084317043986501083e+00 2.030989257047531993e+01 3.704037535438660456e+01
-1.585312946234840092e+00 2.217910147182204028e+01 2.854825338290656944e+01
-1.445101734106803093e+00 2.245074003685491348e+01 2.897666623856078871e+01
-1.725525382698495536e+00 2.190206022409251219e+01 2.811988722660196771e+01
-2.112588157639409658e+00 2.324506441215237373e+01 3.088371430704894749e+01
-1.107503479008490110e+00 2.332010198126332057e+01 3.070991355480394702e+01
-1.615806815960764142e+00 2.341385159437052721e+01 3.117400510378687528e+01
-7.270414995063169128e-01 2.283275030578691300e+01 2.954121011467212199e+01
-6.454642536321214541e-01 2.303660414607389129e+01 2.995025582164369027e+01
-4.404486039725934443e-01 2.352449472632361704e+01 3.339889266769568366e+01
-3.963188618508841632e-01 2.313805158321282818e+01 3.431172187921571748e+01
-2.216275621076091884e+00 2.343774751474608564e+01 3.214625969675593353e+01
-1.613825240623498081e+00 2.354295476070547011e+01 3.231184750377951787e+01
1.699431183883728602e+00 2.199708120765854602e+01 3.601323080119744446e+01
1.534191270348514990e+00 2.230283782747331145e+01 3.569309855422076083e+01
-1.455457597458786612e-01 2.279012123330027251e+01 3.511848619498068302e+01
6.149166854815540262e+00 1.957548669431688637e+01 3.753920385951564498e+01
2.908711212439222926e+00 2.172410322321773180e+01 3.610367503476817319e+01
2.304330464943566525e+00 2.186054645019781262e+01 3.605847160527159900e+01
5.536349999459074134e+00 2.044718249269211796e+01 3.675436329891505949e+01
4.924789057990050622e+00 2.067077538401563430e+01 3.670129216980855347e+01
2.102530175306369209e+00 2.226839218873972115e+01 3.562793800436884339e+01
-8.547654029094083894e-01 2.255724316085883174e+01 2.907249935212212222e+01
-9.827713108279132470e-01 2.228043613870639206e+01 2.860415097112275973e+01
-1.123117991908461288e+00 2.200342064638945416e+01 2.817588010434351276e+01
-1.568035488272628841e+00 2.359598187731490881e+01 3.177116256995920196e+01
-5.987603815750959235e-01 2.322235975580434086e+01 3.039668893020160567e+01
-9.970154028481129638e-01 2.344537438304369559e+01 3.109840263963615214e+01
3.281548704785558490e-01 2.307517134551407167e+01 3.462714119120776246e+01
-1.133021332557257344e+00 2.357081013428220828e+01 3.266070032295882442e+01
-2.598942805776578435e-01 2.362841721947447127e+01 3.283774223898658562e+01
1.803032657596593813e-01 2.344196943897472352e+01 3.376775188223805202e+01
2.023769303872943459e-01 2.324878375692354737e+01 3.422416223350154496e+01
2.011704196928822130e-01 2.356607655545003865e+01 3.326277697131030209e+01
-8.238920075660112197e-01 2.366421198521590341e+01 3.202383821096866967e+01
1.516984433108824692e+00 2.262957235072386197e+01 3.532150953529241377e+01
1.304801912203785497e+00 2.280302148286919461e+01 3.505322071265153738e+01
1.415179296426206212e+00 2.308452209520909904e+01 3.457843489729199149e+01
6.736141423601083922e+00 1.937522320805404874e+01 3.759355283294003414e+01
7.325016811376309001e+00 1.917505624949471965e+01 3.764787929388857890e+01
4.119282274749440198e+00 2.137421237740302971e+01 3.619158629419794693e+01
3.017924028431242078e+00 2.199505913694042647e+01 3.577279654784108232e+01
3.984841234270973587e+00 2.164903060543564806e+01 3.587753764049271865e+01
3.661855536325822058e+00 2.198020522659160747e+01 3.554066478152681441e+01
6.097188314017709665e+00 2.002180386206511287e+01 3.703991341733032527e+01
6.156226760259111863e+00 2.035306473839382235e+01 3.666561559577125706e+01
4.727282190827245323e+00 2.116028721091387865e+01 3.623533176114042931e+01
5.335290431561552360e+00 2.094633217789121105e+01 3.627908894797965189e+01
-5.207491848787491051e-01 2.210473418025091874e+01 2.823187574236275665e+01
-7.255181926307013862e-01 2.175216331639929379e+01 2.774646253462828938e+01
-1.328192719843389158e+00 2.165086995607495268e+01 2.769054058330566903e+01
-3.926761530096087860e-01 2.238508209809555538e+01 2.869981285201444976e+01
-8.989392580540370159e-02 2.312480287983305871e+01 3.008355814083004987e+01
-1.362117394510336810e-01 2.293919889787349931e+01 2.963700240519489171e+01
-1.044433668104248980e+00 2.356268997591677916e+01 3.150617394333976762e+01
-5.520589180478300273e-01 2.340826633238520671e+01 3.084315524852863533e+01
-5.208632461046961426e-01 2.352945449035787817e+01 3.124120145253210623e+01
-2.644579782679589708e-01 2.266371531298404207e+01 2.916833287508702455e+01
-4.360828521337566793e-02 2.331046715039715167e+01 3.052987400845338684e+01
8.010469260271891878e-01 2.335944614338637138e+01 3.413659762238063422e+01
4.422092554767000361e-01 2.370468485699189642e+01 3.251426871071524971e+01
2.674976689522011453e-03 2.349629318542714884e+01 3.097623574379308664e+01
3.769722944113031993e-01 2.272502500990491470e+01 2.927468358166816387e+01
4.908512537979271007e-01 2.300120273645474356e+01 2.979462695363593738e+01
1.004237383948286766e+00 2.278600717097921802e+01 2.943239621997441446e+01
2.029762513555645853e+00 2.280936703238318941e+01 3.502059930066840820e+01
6.612347856122557488e+00 1.972210760097336291e+01 3.722920136361091181e+01
7.271464425155230948e+00 1.962074906621590742e+01 3.714850278335253364e+01
4.457961279364506701e+00 2.171005753491967383e+01 3.560654058050695170e+01
5.943245839040306677e+00 2.073237126225482641e+01 3.632284751444748849e+01
6.655531213972500915e+00 2.004510261154737094e+01 3.684437825202439143e+01
6.553603706664449469e+00 2.051858248604297330e+01 3.636657359274408208e+01
5.133173048382075443e+00 2.135873142093121402e+01 3.580744290121164397e+01
5.909915812637586363e+00 2.110802507905309611e+01 3.583292948501873099e+01
2.523842885842508821e+00 2.240224665861865461e+01 3.539669885763198209e+01
3.123210499921839745e+00 2.224703123682266437e+01 3.537860333851409678e+01
-2.009829558376396152e-01 2.186247025360875895e+01 2.790806755183892562e+01
-2.405309683129318032e-01 2.144527237359939420e+01 2.733803530466061460e+01
1.189386704997996008e-01 2.162001712628414296e+01 2.758406164320591358e+01
4.934372088365456821e-01 2.188161781698489250e+01 2.796006892733793947e+01
1.202398070131213553e-01 2.216433840027391611e+01 2.833789104677883230e+01
-9.304231296406552110e-01 2.139935628222887587e+01 2.726078325638125222e+01
5.371910741938942246e-01 2.318675106080199910e+01 3.024110335787479542e+01
1.393452302111278795e+00 2.329920957794515601e+01 3.407469665326490116e+01
-6.063122356019154946e-01 2.365161065535819773e+01 3.246878796678860368e+01
1.142683081023276426e+00 2.350432537506361541e+01 3.356356037174781903e+01
8.427452090389513373e-01 2.360762574186661311e+01 3.312665887826384647e+01
-7.919275572694720045e-02 2.373246649671224873e+01 3.227672176429398121e+01
5.221531814545046224e-01 2.365637161386959519e+01 3.204910759103691476e+01
1.118294769073350015e+00 2.306321807142393610e+01 2.995236719108066481e+01
-3.823573500578546919e-02 2.361422503133302442e+01 3.162620029573180247e+01
2.486066665719379731e-01 2.244496181857519801e+01 2.880626253375112711e+01
7.217873540478211503e+00 2.006824832703416917e+01 3.664912781290891530e+01
7.167013007064381824e+00 2.030483573587962098e+01 3.641029238576912519e+01
4.931055077399505215e+00 2.177097797999961770e+01 3.533579952052212292e+01
5.472066154790096171e+00 2.147564973763437735e+01 3.551530792399301362e+01
5.877738274696252319e+00 2.148349124609222471e+01 3.534301145196435812e+01
5.404144860620015756e+00 2.183180991648695723e+01 3.506502239699687351e+01
4.729810310135178497e+00 2.202722793726163530e+01 3.505484952353777572e+01
2.704376088033315639e+00 2.261399232292684758e+01 3.502916081233628631e+01
3.379514397760731814e+00 2.241843725291524336e+01 3.503772623855451229e+01
4.055114127570987215e+00 2.222271714041657376e+01 3.504629616117111368e+01
2.071394548479241315e+00 2.164470019680164725e+01 2.789097920157252730e+01
2.589385757522951526e+00 2.159100905459709097e+01 2.795262284625729876e+01
2.405230459049663594e+00 2.132509256589783675e+01 2.756123796551053928e+01
2.912554044351644666e+00 2.131724871207692473e+01 2.767970833844843526e+01
1.690429321148534392e+00 2.142161455364022515e+01 2.751783206162465234e+01
1.188691095035951051e+00 2.190081395754468119e+01 2.801223875558759602e+01
2.080005063360033102e+00 2.104882798237609975e+01 2.713327543713724310e+01
4.384739655928733826e-01 2.137777791262714899e+01 2.726040018828811640e+01
9.746340509576832956e-01 2.151801798270051336e+01 2.747426245214125018e+01
7.607842193107056117e-01 2.113560947906762877e+01 2.693689551366793111e+01
8.901268591078353998e-01 2.250456235066497612e+01 2.891233827221875430e+01
1.517192242533351054e+00 2.256484483471555080e+01 2.906989614397194543e+01
1.631434009570821075e+00 2.284639157793657915e+01 2.959011654041535522e+01
7.614823431161020784e-01 2.222392336156162074e+01 2.844396627800784927e+01
1.737145705239289128e+00 2.196422597118834830e+01 2.822066575954707446e+01
1.403024889596870883e+00 2.228349227517940534e+01 2.855011129482373633e+01
1.420792162485938981e+00 2.109221926727643037e+01 2.703509189058085482e+01
2.080477652079823159e+00 2.227283801416919928e+01 2.870780036134876312e+01
2.499680359070759028e+00 2.191227123436047819e+01 2.834639964170827042e+01
5.835253786919353258e-01 2.337248280586035065e+01 3.068761638861459318e+01
2.410413168325991506e+00 2.291236675158915048e+01 3.464348089686219367e+01
9.632612229325631104e-01 2.367691933793659587e+01 3.275241085982936085e+01
1.043162532000045495e+00 2.362860466186823416e+01 3.228718700309540424e+01
1.986077375422358626e+00 2.323892452302954226e+01 3.401277100385156160e+01
1.484269600699559932e+00 2.364915356759480147e+01 3.299053668283377760e+01
2.046521738011452207e+00 2.347228200903638395e+01 3.328978168291484963e+01
5.764347741856622465e-01 2.349902064631704235e+01 3.118221996645435468e+01
1.164899852348981302e+00 2.324868397487009020e+01 3.039871044672805667e+01
7.771036251027089392e+00 1.937909325842559127e+01 3.727697908015970540e+01
4.288010793604127180e+00 2.247508401551056423e+01 3.447607416945641745e+01
3.714111546378971340e+00 2.253814868395476623e+01 3.465381324442072497e+01
6.353376458586541986e+00 2.113544161970779101e+01 3.562077173241959116e+01
7.779643973349484654e+00 2.009126905261301843e+01 3.645397727411035760e+01
3.117756014606163362e+00 2.277776083275641028e+01 3.452649456601705680e+01
2.791126722512165870e+00 2.301530183291723120e+01 3.426625931209228781e+01
2.578723406670188290e+00 2.317861493017327845e+01 3.395083640288725491e+01
2.608907988723245364e+00 2.329536425977685354e+01 3.358911152844439840e+01
3.172001417755344388e+00 2.311821989298502444e+01 3.388883119477991812e+01
3.730070588667864229e+00 2.279662221186310589e+01 3.418248548797590303e+01
3.086316962879565917e+00 2.162885321514262671e+01 2.812767539888340451e+01
2.738626307957393369e+00 2.100542511365110343e+01 2.723146823894111179e+01
2.488379600568892069e+00 2.064133724629063593e+01 2.679726872735020748e+01
2.922805634699553679e+00 2.060402023948943295e+01 2.694491803019358400e+01
3.106716748278683937e+00 2.020215065068251548e+01 2.665806679157601167e+01
1.745603818871456436e+00 2.312519436961941821e+01 3.011009536950501797e+01
2.050612370914667526e+00 2.262728510928323544e+01 2.931818729349168251e+01
2.162356008795684570e+00 2.290883019318087932e+01 2.983836965090309334e+01
2.586542458319830651e+00 2.268971938602614458e+01 2.956648651655593696e+01
2.896202429074028029e+00 2.277780734835890186e+01 2.993014662815027194e+01
2.385981766693280992e+00 2.307288409355235714e+01 3.033421313141738196e+01
1.738369579543842747e+00 2.325140730894090169e+01 3.060479319059313497e+01
1.157537547597947247e+00 2.337511792700995272e+01 3.089343829322797319e+01
1.731112477050193554e+00 2.337795351141964417e+01 3.109997042788917909e+01
2.297201151254259166e+00 2.322151370834662032e+01 3.086279841156225245e+01
3.033199299824651973e+00 2.302059947750288416e+01 3.055818462950203696e+01
6.346061204996698013e-01 2.357232139261875759e+01 3.161406592357947076e+01
1.123044636246096184e+00 2.358037137107202241e+01 3.182198465166597146e+01
2.002612927450591052e+00 2.353326386163889339e+01 3.285115631091602495e+01
1.564153053857323616e+00 2.360082683831536698e+01 3.252536607826225890e+01
1.644015353845476479e+00 2.355258150924915839e+01 3.206021256251335672e+01
1.723854677635639820e+00 2.350443639816700170e+01 3.159507710700392025e+01
1.150162851956662902e+00 2.350173471399866187e+01 3.138820667917169160e+01
4.846397097633982298e+00 2.215327217689829808e+01 3.476990031587218510e+01
6.828874614741674343e+00 2.078741267841922991e+01 3.589850236799991734e+01
6.423547697372280929e+00 2.137522029349122832e+01 3.521199072319989654e+01
7.057271480508514827e+00 2.109186588594618073e+01 3.530314496074601749e+01
7.304246324787424527e+00 2.043939393401056037e+01 3.617620728956466536e+01
5.492322422935567161e+00 2.202436257855997326e+01 3.451528892780443414e+01
4.856781054833339439e+00 2.240579593011302606e+01 3.413902125258712772e+01
5.582800093676615560e+00 2.221718740633672340e+01 3.396482111942288640e+01
6.029774243034236036e+00 2.168670813977521306e+01 3.494600790633118237e+01
6.658028452178314183e+00 2.154140853623455953e+01 3.482683593868217287e+01
3.792808756271509818e+00 2.294103617139197482e+01 3.377016810473573827e+01
2.824336707909191446e+00 2.329833959805988997e+01 3.308073496156423943e+01
2.520862378992661856e+00 2.341739433534458570e+01 3.271178410885525523e+01
3.300854227005958652e+00 2.314057876827765270e+01 3.340333251334528342e+01
3.429610934807722611e+00 2.316298213899427694e+01 3.291800840229662839e+01
2.013359348956622163e+00 2.350041741590521482e+01 3.240452525753035218e+01
2.335056968332344329e+00 2.339816635646480592e+01 3.187414076537555374e+01
2.208684023911642758e+00 2.337042501401507621e+01 3.139169811952190514e+01
3.585160325470881038e+00 2.150499141338594100e+01 2.823700655433031415e+01
3.259864601272348228e+00 2.194014023971832827e+01 2.857522649210897825e+01
3.743948870949945995e+00 2.111068617162350591e+01 2.786201670743074033e+01
3.404300005503287707e+00 2.084025017560995252e+01 2.737773805495371704e+01
3.508944182160937508e+00 2.049999663611694345e+01 2.711198624951278902e+01
4.068437733533637690e+00 2.067526054469636421e+01 2.752383065961985054e+01
3.784724820120267008e+00 2.016715467343727397e+01 2.692995319344553806e+01
3.290112158318628577e+00 1.980032904637486268e+01 2.637128410200795159e+01
2.475105180592715115e+00 2.245982035392363230e+01 2.913654755497591964e+01
2.694139810682269598e+00 2.323627588735137550e+01 3.118829444566499731e+01
3.598048451711616913e+00 2.273093420063943171e+01 3.019593110067879849e+01
3.515811969881090793e+00 2.249132795077987623e+01 2.960964044418744834e+01
3.010534548476749173e+00 2.247044370322367257e+01 2.929446204286146127e+01
2.757128647644379704e+00 2.226217281205070719e+01 2.886533805657653318e+01
4.269942444074366961e+00 2.265362450585674026e+01 3.405190622257450883e+01
7.368519524234845797e+00 2.067677052817584382e+01 3.577430459231066351e+01
7.812903756752701767e+00 2.038127353789162299e+01 3.598770483637274964e+01
7.284985865323011289e+00 2.139625177656084531e+01 3.470779163162607261e+01
6.206131216716633148e+00 2.187312513641213130e+01 3.434550197068595878e+01
6.807275488689682241e+00 2.165559118231693603e+01 3.442714211588509698e+01
6.232845594339905482e+00 2.212028580574239811e+01 3.370798261957007469e+01
4.414215435072328830e+00 2.276405158262901907e+01 3.365163051977339848e+01
3.039034411911454736e+00 2.330154532673511270e+01 3.257241617185039217e+01
3.937364301889636042e+00 2.296629123185796573e+01 3.322417046926670281e+01
3.558898833058002698e+00 2.318545928077732654e+01 3.243273072951019742e+01
4.087704486703530371e+00 2.299156517823498191e+01 3.267821471206642769e+01
2.946192706891789914e+00 2.329190080042192790e+01 3.215319796219927895e+01
2.959579554716741168e+00 2.321792807157017080e+01 3.154740887972159058e+01
3.599467865344534445e+00 2.311288490734800405e+01 3.188212699320640908e+01
4.127494306324305029e+00 2.266341674012736362e+01 3.049399674674875271e+01
3.680181305424703897e+00 2.296830213819078281e+01 3.078220155758544152e+01
4.366751805920690899e+00 2.276297494969255197e+01 3.104729438099779060e+01
4.814140558857465280e+00 2.245818198319255643e+01 3.075920816746643283e+01
4.019734461523113644e+00 2.248875767031992368e+01 3.002655199421113252e+01
4.574371768823206175e+00 2.235622906841296498e+01 3.020570183130841002e+01
3.639906963904048443e+00 2.304046247719287521e+01 3.133131020569953051e+01
4.145172644876312873e+00 2.290458274101698777e+01 3.166721690655771582e+01
4.105021104887614847e+00 2.297703366395755609e+01 3.221742041972771631e+01
4.650302369608810160e+00 2.276875100492267734e+01 3.200353329405051284e+01
4.592211886947970001e+00 2.273930947347331966e+01 3.154412406501867139e+01
4.633409309002924914e+00 2.278317577138752981e+01 3.246294914474796656e+01
3.186936792176144895e+00 2.310222901753438052e+01 3.098523305092300362e+01
3.758854967419719362e+00 2.181631148054277247e+01 2.868460265087517413e+01
4.083596842663751225e+00 2.138112162216043544e+01 2.834633655583012413e+01
4.407927752195127447e+00 2.094549531638652340e+01 2.800778029367454636e+01
4.193378441309141280e+00 1.975375973013293418e+01 2.673388991567480488e+01
3.924385509988990162e+00 1.937532730443403750e+01 2.626592722175115924e+01
4.517565313652982972e+00 2.158286407108096583e+01 2.885778486815704724e+01
4.599869733557706120e+00 2.120152862662171600e+01 2.843895726695262738e+01
4.829649524413220263e+00 1.884167369094178568e+01 2.635366451664678067e+01
5.219642950898452760e+00 1.911398663990429014e+01 2.680451990316307231e+01
5.381121418697086156e+00 1.864848306641560427e+01 2.651623145344964172e+01
6.017541915779771600e+00 1.880530791700620341e+01 2.703438386436923579e+01
5.779720528044189010e+00 1.849430980874926078e+01 2.663131173488698877e+01
6.366266206536374206e+00 1.829047629406889541e+01 2.692273253893641183e+01
6.156209060180829695e+00 1.778686466595977222e+01 2.640166726169867673e+01
3.433407546099290553e+00 2.225148421688354006e+01 2.902289795687552498e+01
7.878772867810901026e+00 2.096123100551591989e+01 3.505498228762668589e+01
6.792165933355010843e+00 2.183073941160785481e+01 3.400137084593805525e+01
7.352044854736025314e+00 2.154082008828571304e+01 3.429514081620105515e+01
5.043633095369831842e+00 2.258709228533214031e+01 3.353310430190362013e+01
4.616373267802538649e+00 2.279767436359102462e+01 3.292370052708305650e+01
5.195634618231223634e+00 2.256029145372968969e+01 3.179080564991340552e+01
5.173026879539166956e+00 2.257961661224627292e+01 3.240293910416239243e+01
5.144469565847202830e+00 2.260394969148788036e+01 3.316897471751317283e+01
5.053875070272162873e+00 2.255739388458695061e+01 3.131274141653574716e+01
5.089081485445738018e+00 2.220356863161771344e+01 3.040464851163917714e+01
4.342938326386204473e+00 2.221894751438462379e+01 2.971532455526391914e+01
5.672041955010558745e+00 2.220116508961196544e+01 3.109057491268566409e+01
5.603607957325078104e+00 2.205071986813377904e+01 3.060359218870674169e+01
5.535009462903339283e+00 2.189635862828366442e+01 3.011629125296404652e+01
5.740435248347081298e+00 2.235189907986169544e+01 3.157810343408399234e+01
5.718175725511926544e+00 2.237113086252662342e+01 3.219054867760712568e+01
6.284631947962781240e+00 2.212502006173169278e+01 3.181428725403431912e+01
4.894466966002212871e+00 2.004531894254223090e+01 2.738149698105632623e+01
4.731060147487878176e+00 2.051046318202633501e+01 2.766974124590028694e+01
5.398478516256532522e+00 2.025313346650641932e+01 2.786115459056249222e+01
4.915073884716251840e+00 2.081836818405478340e+01 2.815963528236653346e+01
4.462275128534406221e+00 2.013214805884098624e+01 2.720184053330044094e+01
5.057417041214741893e+00 1.957959667643120483e+01 2.709294442163418282e+01
5.656604402429231016e+00 1.934792424134525746e+01 2.726511885690751669e+01
5.561052040176074129e+00 1.978774566328518247e+01 2.757269047183437749e+01
4.572336622149998142e+00 1.924467891421134880e+01 2.653522283619989608e+01
5.099054197748388084e+00 2.112641125104211426e+01 2.864979058710327564e+01
3.473011830387654708e+00 1.939848398939888341e+01 2.608452315411289746e+01
2.912435393791197313e+00 1.952011946844413615e+01 2.595986045155295230e+01
4.285136924569764361e+00 1.872573049860803351e+01 2.594138272546280533e+01
4.913825946965291180e+00 1.845459114155784164e+01 2.608476902113269702e+01
5.541762700865265678e+00 1.818326150746943526e+01 2.622820176146900550e+01
3.655293955073978474e+00 1.899685545347307425e+01 2.579796026087450045e+01
3.016828165027839237e+00 1.918139775763441079e+01 2.569730626180919941e+01
4.384776043860982853e+00 1.824831856207046954e+01 2.565339358064329289e+01
4.802053046163831773e+00 1.800384428132355197e+01 2.570269709566843019e+01
4.111501371712075859e+00 2.208163941990505208e+01 2.922498282459479668e+01
5.282825364651957400e+00 2.143428538239736625e+01 2.913971650105503031e+01
4.789182965474842568e+00 2.191175113893350712e+01 2.942710017372592191e+01
5.466316857774229376e+00 2.174186019276250548e+01 2.962920366379728776e+01
5.020430765802291972e+00 2.204918915493633591e+01 2.991757283358574071e+01
5.531652723784239001e+00 2.108393357376253618e+01 2.891696006986490630e+01
6.255160719189682972e+00 1.911616256626100707e+01 2.743729584472435334e+01
6.011304028078305883e+00 1.955261456235340845e+01 2.765131390363685426e+01
6.505956407515592232e+00 1.872287678456127225e+01 2.734002073267511790e+01
6.698002961043994397e+00 1.782652623451909690e+01 2.683611346940801567e+01
7.124550841515674193e+00 1.809153008044705047e+01 2.734686323653633266e+01
6.994158076658592016e+00 1.864036117737956033e+01 2.764566019260871244e+01
7.911413936142371206e+00 2.125107949682822195e+01 3.458873541846236321e+01
7.845935068816529245e+00 2.067123074980847619e+01 3.552141677627650296e+01
6.793606618337511449e+00 2.187914722434732795e+01 3.348494238611315410e+01
6.234492998361430338e+00 2.216871876795023866e+01 3.319136391526750884e+01
5.672974062334918521e+00 2.241003205389513653e+01 3.341449844795885582e+01
7.353176073489818165e+00 2.158929426102802651e+01 3.377845004614529500e+01
5.695701723175092823e+00 2.239051138996257961e+01 3.280234496717073256e+01
6.256581274462888587e+00 2.214934957612058497e+01 3.257953778490604435e+01
6.199391904918562624e+00 2.200426866182822749e+01 3.127713461288501762e+01
6.130658566541509202e+00 2.185373365683386737e+01 3.078994726910008595e+01
5.682597445850356976e+00 2.062602501296048985e+01 2.849897417780932685e+01
6.064679685145930144e+00 1.999589031190682320e+01 2.805244713011156676e+01
6.478991895822738378e+00 2.013923388150591265e+01 2.852090656604850594e+01
6.226751519429434722e+00 2.054003202090551383e+01 2.879799188842211777e+01
6.685815798415010391e+00 2.035736881786437635e+01 2.894608173683925045e+01
6.941081341009378569e+00 2.004452931614191158e+01 2.877664561311824087e+01
6.492736359562895743e+00 1.942707363569426349e+01 2.784030648070598346e+01
6.862833987107135769e+00 1.918919189179977280e+01 2.794460593208715338e+01
7.225337869423313464e+00 1.943491657769470038e+01 2.840114303520453376e+01
7.406051548551968899e+00 1.885554615794072930e+01 2.811767764232323685e+01
7.536594172825457072e+00 1.830655572852774071e+01 2.781880641763047990e+01
5.720350086109154297e+00 2.134140580884082894e+01 2.935219073288321923e+01
5.993079157285061243e+00 2.154706821785094562e+01 2.981558440481430239e+01
5.264140930062533030e+00 1.786886699670749223e+01 2.585457121423955584e+01
5.618749537128788774e+00 1.763715489939556491e+01 2.593989690798506587e+01
6.770299631716454769e+00 1.738954727825642266e+01 2.657534736671335551e+01
6.730537830799549148e+00 1.973838784994930506e+01 2.824386387698333678e+01
8.373040966710281197e+00 2.029119925385474588e+01 3.580491906979777639e+01
7.912536510396212641e+00 2.129944749365732903e+01 3.407213851255416870e+01
8.405453995095300002e+00 2.058130508194209796e+01 3.533851998612066581e+01
6.794860287604314486e+00 2.192760418946256351e+01 3.296852294664395089e+01
7.354332256877603058e+00 2.163770516288319712e+01 3.326191763047752659e+01
7.913480612063886532e+00 2.134786196218689724e+01 3.355555066989894897e+01
6.827910738800288648e+00 2.189844001177138466e+01 3.205017012624433903e+01
6.742846933809050647e+00 2.177751993062333113e+01 3.151330652476338301e+01
6.811449845977041839e+00 2.191297672663883134e+01 3.250934037494880613e+01
5.974031230341561027e+00 2.094048837297544452e+01 2.907490465629789966e+01
6.630502001736824802e+00 2.071270114537179907e+01 2.932611336766835919e+01
6.264451483568685752e+00 2.114335624354808374e+01 2.954889524175896653e+01
7.151123646921884180e+00 2.035027986637102515e+01 2.930878950656915549e+01
6.775905184740024900e+00 2.100008144603107141e+01 2.978533294470706139e+01
7.719288023787217234e+00 1.913144243389982435e+01 2.855832611480446204e+01
7.491591878669855653e+00 1.956164659695066987e+01 2.879592868105945414e+01
7.948618196714412498e+00 1.852157243714431090e+01 2.829075725260581819e+01
7.254065346229613631e+00 1.754222876318106472e+01 2.704801265081658812e+01
7.518531734197448024e+00 1.784825244432309432e+01 2.747257366351924546e+01
8.176767593615529961e+00 1.791119017739351094e+01 2.802322335878356796e+01
7.382763046757164105e+00 1.699187418234343383e+01 2.674887713688635316e+01
7.647607907961146978e+00 1.729835953922443537e+01 2.717368877381117187e+01
7.361254280758199542e+00 2.065647623107226849e+01 2.984174912314134076e+01
7.592860228405917233e+00 2.026608225143674247e+01 2.964851186085068235e+01
7.623656032673849836e+00 1.986059383688587943e+01 2.924427855529932430e+01
7.045221145683724373e+00 2.115753482567211208e+01 3.018819510084371061e+01
6.325235575131653576e+00 2.160419481075776105e+01 3.039592947316291927e+01
6.519125364545740098e+00 2.135238858185571331e+01 3.000182550679818050e+01
8.437696467520144239e+00 2.087136215174139409e+01 3.487212403832197793e+01
7.355310533411236307e+00 2.168617300028244443e+01 3.274539626491451827e+01
7.914253301935332274e+00 2.139633019723904539e+01 3.303897660956967997e+01
7.371553540913099667e+00 2.167162444119613340e+01 3.228630519228588014e+01
6.657387547701026698e+00 2.165676207423677724e+01 3.097629916975860453e+01
7.286088249235012526e+00 2.155077578306187647e+01 3.174947486626536630e+01
7.986991630736693715e+00 1.931555743366967803e+01 2.901568027208354650e+01
8.027515247391040276e+00 1.998593550232109095e+01 2.977377071113144069e+01
8.254619102727167146e+00 1.949726580035179779e+01 2.947305286106963962e+01
4.986007209440150412e+00 1.755391667946932088e+01 2.548029247074779136e+01
7.090397658355685806e+00 1.668316715962537700e+01 2.635604276735955054e+01
7.799882670927820172e+00 2.047358898833372365e+01 3.007400695322903061e+01
7.571124979217446871e+00 2.096164762727622843e+01 3.037460579221037449e+01
8.327792559327214406e+00 2.015687614618122936e+01 3.026605581176197646e+01
8.099870190593994934e+00 2.064471802722077243e+01 3.056652079455279747e+01
7.114622213491381686e+00 2.130922679627138905e+01 3.067545848905943373e+01
7.200524964641220826e+00 2.142993665867835062e+01 3.121255445263057382e+01
8.349882416614923031e+00 2.101539572117111376e+01 3.436290324832484089e+01
8.319041293885723221e+00 2.107612690260656407e+01 3.391213902150927595e+01
7.914859096187173648e+00 2.144486558861187220e+01 3.252238688962226831e+01
8.212507518325610434e+00 1.882744243488919267e+01 2.871544940204090679e+01
8.480419731939457861e+00 1.900907734921414516e+01 2.917282204474430429e+01
8.607744196746271115e+00 1.963677599267525054e+01 2.998462972163671836e+01
8.675880193063681745e+00 1.924355741061812353e+01 2.962657231183234785e+01
9.292438093098141394e+00 1.922452862405875607e+01 3.023411971677523979e+01
8.960798944450553805e+00 1.977638743207921834e+01 3.049621224450232049e+01
9.096867537487426603e+00 1.898972749216421363e+01 2.978009879170199170e+01
9.632665602646845571e+00 1.863282450483269415e+01 3.006443175417597047e+01
8.901147733987791355e+00 1.875504986020071740e+01 2.932627885600387430e+01
9.341598531078522782e+00 1.858519687549932797e+01 2.967859777628976303e+01
8.705238830977464204e+00 1.852046511532362061e+01 2.887259297748763132e+01
8.441083115664069325e+00 1.821601869172557997e+01 2.844792452659467941e+01
9.290137009443693472e+00 1.834721122838815788e+01 2.939089273211597231e+01
7.743456111561092925e+00 2.120311648443636798e+01 3.144881742950009240e+01
7.657403672990017895e+00 2.108232921380681546e+01 3.091175439628482025e+01
8.627975562746275529e+00 2.032789711507789576e+01 3.075835135829620981e+01
9.155492719572130511e+00 2.001112167185532087e+01 3.095012394760564689e+01
9.487645096942936007e+00 1.945918016251691185e+01 3.068781963559995063e+01
8.362072581918214453e+00 2.069472855609070905e+01 3.126836140175883472e+01
8.875840527158635140e+00 2.063559542037357630e+01 3.464635351130056051e+01
8.787703551874724184e+00 2.077970509057302451e+01 3.413712352427992158e+01
8.624364294240713491e+00 2.094076672862630772e+01 3.344660335172700627e+01
8.963889909627090091e+00 2.049151374224351230e+01 3.515559248879892351e+01
7.829249360746189268e+00 2.132393410722697169e+01 3.198554823273408942e+01
9.845374791818969129e+00 1.922164716661366057e+01 3.087757175511448438e+01
9.760144336740596671e+00 1.815636436269382870e+01 2.975665716546026829e+01
8.870004138552808115e+00 2.031050335789021943e+01 3.121980450300098298e+01
8.167838804592637558e+00 2.100828662939057168e+01 3.177601234361209137e+01
8.460919922857192077e+00 2.110192915521728096e+01 3.275609724457136451e+01
8.269936412492739919e+00 2.109487043262809536e+01 3.224624096599050205e+01
9.219575567513700776e+00 2.046559870072092480e+01 3.438152922472482231e+01
9.007210452152143887e+00 2.075862824689430042e+01 3.299003732038215020e+01
9.190356899728024942e+00 2.060755802165502004e+01 3.345107185914428527e+01
9.225925080973476966e+00 2.054344103959606826e+01 3.391086263469058792e+01
8.815726953293991031e+00 2.075176551496056376e+01 3.248013247296148620e+01
9.682838793328119920e+00 1.969408876579968748e+01 3.114198985307679735e+01
8.624142218196194420e+00 2.074496108699392494e+01 3.197023790821820555e+01
8.977768298338586916e+00 2.039481821193144739e+01 3.169414800123976406e+01
9.072652317888897144e+00 2.046557689918068945e+01 3.217222348769291784e+01
9.330715656922802026e+00 2.004449576737874139e+01 3.141802967191626550e+01
9.787647604623918696e+00 1.978815835770861042e+01 3.172090497376012763e+01
9.435031065884565749e+00 2.013859448590891787e+01 3.199708725123596409e+01
9.642456572138431881e+00 2.022222506423953092e+01 3.425051441316062295e+01
9.663300016091765698e+00 2.030727012075132265e+01 3.368477582399818004e+01
9.396427793749543511e+00 2.034125201947417949e+01 3.257761088421514017e+01
9.892180032552973401e+00 1.988232991141156347e+01 3.230002831452577539e+01
1.005890502996306424e+01 1.990097921856661856e+01 3.459016807279020611e+01
1.007976467840901158e+01 1.998595334997057549e+01 3.402409201170696207e+01
9.553636276820565598e+00 2.041499715140028570e+01 3.322416844505031719e+01
9.996508647093715894e+00 1.997664684931118373e+01 3.287970822943240989e+01
1.048745262856519567e+01 1.924213368280899061e+01 3.208531886129244270e+01
1.031800926395468920e+01 1.959091808945688840e+01 3.264215471522273049e+01
1.010039163639506654e+01 2.007088019029873749e+01 3.345857738357548783e+01
1.043544738491024049e+01 1.964841939939338999e+01 3.314832055019429191e+01
-4.961146995405344207e+00 1.853651004512051159e+01 3.784715057784407577e+01
-4.389835391186295510e+00 1.860693644097291610e+01 3.815518421746950395e+01
-4.304100525153733869e+00 1.864532667996035897e+01 3.816533807235752818e+01
-4.367662578019358754e+00 1.887141283063215269e+01 3.785437678587512522e+01
-5.862690296744816010e+00 1.865374185390298223e+01 3.722208283279224617e+01
-5.551956156515937657e+00 1.858171938821151770e+01 3.746765223065064987e+01
-5.258417275005315084e+00 1.854663583885822931e+01 3.766680897527324134e+01
-4.562562268172442259e+00 1.887803093975746549e+01 3.771936430380372940e+01
-4.005864703943232463e+00 1.869872093738090868e+01 3.833965999349381804e+01
-3.904535028288555587e+00 1.874195209125699080e+01 3.837152993468227891e+01
-4.164888519195642402e+00 1.895784535153384454e+01 3.791824986755753457e+01
-6.144043588226979047e+00 1.874881388886201350e+01 3.698326956858663550e+01
-5.156983060537372765e+00 1.889798516879068302e+01 3.735904275265016139e+01
-5.778155083690182714e+00 1.904219910777456448e+01 3.686790472312771527e+01
-6.380823265779145714e+00 1.891195928921617408e+01 3.670584946163771178e+01
-3.601122438905017376e+00 1.887756244925858695e+01 3.844552333368852715e+01
-4.230419348748050368e+00 1.934230451534112305e+01 3.742381882011591188e+01
-6.203084847287214210e+00 1.943832572134853720e+01 3.625182632835887375e+01
-6.592928698786554520e+00 1.911001883316941985e+01 3.639796363915380795e+01
-5.274927564866225715e+00 1.944583023354663354e+01 3.670923249388292220e+01
-6.745906950921269463e+00 1.933273353144050333e+01 3.609444211996221696e+01
-4.314150476867602002e+00 1.932538538959300212e+01 3.738203235619809561e+01
-3.576789129993130700e+00 1.902512756440118835e+01 3.827594697236113319e+01
-4.129023244646021773e+00 1.938542846174980738e+01 3.745588561526702875e+01
-2.987898193028592164e+00 1.909250544280414275e+01 3.863413957536794641e+01
-4.709024142889806974e+00 1.933861696387606699e+01 3.713428600307642569e+01
-4.411633522958815057e+00 1.932871509487882378e+01 3.731447788211857386e+01
-4.093122995674794318e+00 1.981350775254676222e+01 3.699309460209382650e+01
-4.260594422797515435e+00 1.977984150166259525e+01 3.690930338338701233e+01
-2.974168305522046918e+00 1.929473196021151082e+01 3.840005431099073974e+01
-2.885816758389932790e+00 1.953788389139398518e+01 3.820040420048149343e+01
-3.578614069849499479e+00 1.913318183325487709e+01 3.817978961893803103e+01
-4.964599465348891627e+00 1.937363324160367029e+01 3.695474998888746399e+01
-5.487537945712575471e+00 1.964371584802894333e+01 3.640133747520445695e+01
-3.835966894179752007e+00 1.947344984166526771e+01 3.758621430110925843e+01
-2.988878047830230145e+00 1.914651651707382385e+01 3.858603059458950923e+01
-3.566592541797978466e+00 1.959553568689583969e+01 3.764577108680203565e+01
-4.772370086127783573e+00 1.984903537195153334e+01 3.655078340213182031e+01
-2.369653967902369374e+00 1.945631951707941809e+01 3.862035708930543620e+01
-3.220301433966158200e+00 1.979795824177328711e+01 3.765596737040524999e+01
-2.501756783212302437e+00 2.001467375325290732e+01 3.782148851109354837e+01
-2.360859924583325054e+00 1.984104587709670398e+01 3.814133894476894682e+01
-6.839778060564146500e+00 1.959176980796485168e+01 3.577955423258188006e+01
-5.616788115561886841e+00 1.983609652433014858e+01 3.613904267411123783e+01
-4.040906235704006200e+00 2.043607736577496325e+01 3.632026517442243829e+01
-4.406588340165953355e+00 2.014256448119050447e+01 3.643550560641561731e+01
-2.325687393170843720e+00 1.957784044805284296e+01 3.852046650893507262e+01
-2.325045330054637205e+00 1.974517735833819998e+01 3.829882756110188069e+01
-5.030227301123343153e+00 2.023416057635231979e+01 3.602622548121603074e+01
-6.390522863544693344e+00 1.995656792658981260e+01 3.562211266493898876e+01
-5.709938866183583706e+00 2.009544388127512349e+01 3.582429239840470103e+01
-3.554575096312224236e+00 2.005789819352878567e+01 3.711187432339116299e+01
-3.797794445778610584e+00 2.024702229318194924e+01 3.671598128566795793e+01
-2.835888391151962118e+00 2.027485343118048888e+01 3.727721007814533039e+01
-1.835336449735154751e+00 2.014458975555662690e+01 3.808221852720340905e+01
-4.535540868027522876e+00 2.033511873170372297e+01 3.617325002506655096e+01
-6.884841656866061754e+00 1.985568936905167803e+01 3.547528711265408674e+01
-5.603651875455732068e+00 2.038471403021406658e+01 3.555170750694802706e+01
-3.291489649698376319e+00 2.046096839974125814e+01 3.674810578598744115e+01
-1.763762863663422609e+00 1.995268941655886863e+01 3.839734759166761080e+01
-5.459642941345609124e+00 2.062488513351276964e+01 3.534956897806307552e+01
-4.391735391297024726e+00 2.057540402101730237e+01 3.597087767232017796e+01
-4.742236689356435164e+00 2.071461111798405597e+01 3.562181729301096311e+01
-6.817329069215807280e+00 2.013636263011410321e+01 3.519678689105138147e+01
-6.176784036030765535e+00 2.053520270276592896e+01 3.507743293209338731e+01
-6.710349224775526977e+00 2.042571312948588513e+01 3.492446631070959029e+01
-2.117584557163760373e+00 2.049172953559147459e+01 3.744246770937053981e+01
-2.573003062873081337e+00 2.067803948894378152e+01 3.691324431588885346e+01
-3.534435099883740605e+00 2.065024595001890972e+01 3.635222878543038405e+01
-4.088401073053326229e+00 2.074053944495125990e+01 3.592558246501884867e+01
-4.135865559646083156e+00 2.104486785268898075e+01 3.553115228747703469e+01
-6.541932005140167483e+00 2.070187407584327843e+01 3.469313345855523067e+01
-1.876684827433332758e+00 2.097276612268655427e+01 3.695708757055940907e+01
-3.028289962320093842e+00 2.086430867680372714e+01 3.638417790297378218e+01
-1.451160853622769809e+00 2.062167154937640845e+01 3.770364310953453924e+01
-1.309786030949120272e+00 2.044820882618761004e+01 3.802446233100077677e+01
-3.747858927122923234e+00 2.078506340075127667e+01 3.605377222610550092e+01
-5.224076746019940209e+00 2.090602839917712430e+01 3.514194482096426242e+01
-6.307073818598886383e+00 2.098315852677119153e+01 3.448497022679662649e+01
-5.706448716373910379e+00 2.109767997450732580e+01 3.466154101712977820e+01
-1.605185859424236972e+00 2.077511544825778600e+01 3.739089790507372868e+01
-2.331674775106197028e+00 2.115905680613820294e+01 3.642820991854630108e+01
-4.803199070234919432e+00 2.105940219961303939e+01 3.517762764933809194e+01
-4.398864503321464170e+00 2.127954438989032937e+01 3.511731772421776299e+01
-4.201148399214806872e+00 2.146352481639114629e+01 3.498859068125251781e+01
-3.455317121656494184e+00 2.113352776267954169e+01 3.578774206346159303e+01
-3.783847398083078239e+00 2.156054076629772709e+01 3.509009876208651946e+01
-5.315757647955011045e+00 2.142344599493039325e+01 3.447536841983932732e+01
-4.864144423012607632e+00 2.140417643639440115e+01 3.473356338282646050e+01
-6.056974448804247402e+00 2.123695741967751616e+01 3.431246443799801682e+01
-1.092120771415976854e+00 2.105892391491845572e+01 3.734278593129986490e+01
-1.636024617733036202e+00 2.145346214611901914e+01 3.647219064574363045e+01
-2.673386116301859960e+00 2.121164047352605664e+01 3.615402429438150733e+01
-2.958492210165893255e+00 2.139088211806202011e+01 3.575649444885986838e+01
-4.662004544903538772e+00 2.151438306356248376e+01 3.470326032081121781e+01
-3.443471543152949899e+00 2.160506797157984948e+01 3.521822807657492405e+01
-3.052619064861016973e+00 2.161333830756695207e+01 3.542152861942573594e+01
-4.925126486357346955e+00 2.174924343425071882e+01 3.428922950299763528e+01
-5.750090997808719351e+00 2.145845502245731495e+01 3.420052199112190294e+01
-2.318743629145047169e+00 2.155879913897564393e+01 3.592404387690378798e+01
-4.266418636616449156e+00 2.188222289675701759e+01 3.444613530684842573e+01
-3.431627177898727954e+00 2.207669917533303305e+01 3.464879754285477276e+01
-5.359686596869298825e+00 2.178429470168853044e+01 3.401421504997603051e+01
-1.108260860447651153e+00 2.139810053911674714e+01 3.688310772547573890e+01
-1.799924576430582013e+00 2.167974520129538973e+01 3.608320142790574891e+01
-2.461628297065121540e+00 2.164830545762843172e+01 3.572524900614997279e+01
-2.650106219539908103e+00 2.209308699566347656e+01 3.505549655489890171e+01
-4.684555145083491468e+00 2.203726143504941959e+01 3.404177201590571400e+01
-4.313835009665608844e+00 2.218668044251983673e+01 3.405182003160307858e+01
-3.926890569081159299e+00 2.229270895604619085e+01 3.412561665701707625e+01
-2.307221932327104597e+00 2.199970180478664972e+01 3.537453613888340698e+01
-1.129757294098531872e+00 2.166770625117700533e+01 3.650797082065979993e+01
-1.963932007296870674e+00 2.190620994809327016e+01 3.569395628835935241e+01
-1.273960715867913818e+00 2.188881418454009165e+01 3.613115046108701023e+01
-3.119618566415699679e+00 2.244795075736686840e+01 3.436966267238630479e+01
-3.509251400366792950e+00 2.239284966830487278e+01 3.422681314994147783e+01
-2.729013176731512225e+00 2.245634807097021124e+01 3.457302142130834710e+01
-2.030938278605974645e+00 2.236499940537467168e+01 3.507573230966482214e+01
-1.438004605816223247e+00 2.211511231051206394e+01 3.574139378205337891e+01
-2.357463791052629709e+00 2.244685476797947388e+01 3.478939834683566090e+01
-1.687707132067635563e+00 2.226935451027759783e+01 3.539583600118602646e+01
2.077407747465633037e+01 -7.846098228152560417e+00 3.928562200843067842e+01
2.072002363858375062e+01 -8.127042969768488945e+00 4.031342564813689933e+01
2.045156539540617757e+01 -8.369088643881614331e+00 3.934817646807751856e+01
2.095900305829841059e+01 -7.653553180908710729e+00 3.981472221832626701e+01
2.041535836866095721e+01 -8.556826892197456402e+00 4.003347371757975282e+01
2.043389329940794852e+01 -8.218424679869126948e+00 3.894309560130054138e+01
2.046783746102310175e+01 -7.969414868293196008e+00 3.864901968359377094e+01
2.102472422792335038e+01 -7.697087542992218978e+00 4.059341117161220325e+01
2.012856174350120853e+01 -8.892890383244409946e+00 3.941082343291334666e+01
2.045101558587821700e+01 -8.528878090119732747e+00 4.056426413269144149e+01
2.009353341367389945e+01 -8.590792662811930214e+00 3.860039724215692303e+01
2.059517820979577252e+01 -7.429719652612993386e+00 3.855793958756478190e+01
2.011042302552471384e+01 -8.986858649017174017e+00 3.975327048728207302e+01
2.095426292581663574e+01 -7.815145394731587203e+00 4.094822365767817729e+01
2.007145643359689657e+01 -9.079720278993324456e+00 4.055674249245645768e+01
2.057951333881074163e+01 -8.362725857483212621e+00 4.102339232644821010e+01
1.984667575465696032e+01 -9.063262025105574438e+00 3.881262392636904224e+01
2.016122098430543019e+01 -8.092643620931402992e+00 3.801155988525253093e+01
1.980587147943836968e+01 -9.416204222853087558e+00 3.947341983185752667e+01
2.069912576729515763e+01 -7.916119819932350588e+00 4.146629308535289482e+01
2.020443257369364076e+01 -8.910833106575964280e+00 4.109863608603182428e+01
1.975279291252184422e+01 -8.963414748921000097e+00 3.825731263364765766e+01
1.993864338906199407e+01 -9.248161229097425107e+00 4.001515318067042415e+01
1.983426692354714405e+01 -9.267607841427894400e+00 4.080355324355313229e+01
2.045184031748592446e+01 -8.413388384640480666e+00 4.128249537647174350e+01
1.956102678817484630e+01 -9.513792285549010685e+00 3.883924159301557211e+01
1.985490193362252853e+01 -8.215444965761733442e+00 3.737465099505222099e+01
2.012927366158319842e+01 -7.738709431236938663e+00 3.767797848738933908e+01
1.959389113316393960e+01 -8.712763547428640010e+00 3.744025717373698114e+01
1.932167042903882503e+01 -9.842053334508745976e+00 3.952296542224306819e+01
1.939639186994751086e+01 -9.705395078614813542e+00 3.910175762637161512e+01
1.998189855090349099e+01 -7.620842039380827160e+00 3.726844409334541552e+01
1.946362446780657507e+01 -9.624726126393532866e+00 4.050810613398538607e+01
1.966844724324107929e+01 -9.360748952983751536e+00 4.117074228502426791e+01
2.022408333563958038e+01 -8.563237051208842487e+00 4.173885966714966855e+01
1.941239797096048747e+01 -9.335491962331051496e+00 3.791458097541103456e+01
1.931644011803965810e+01 -9.610930071670120256e+00 3.820563006856832544e+01
2.010895831993384064e+01 -7.025968400139444903e+00 3.716219493022465059e+01
1.909321547507533623e+01 -9.981492481012191220e+00 4.021286256682061833e+01
2.024411354564869825e+01 -8.218283815426996597e+00 4.237898932720704437e+01
1.933289283415924231e+01 -9.210058782527696053e+00 3.750587501006388180e+01
1.898699614096727828e+01 -9.994413352161174657e+00 3.873017943000046870e+01
1.953777965134192129e+01 -8.254731648976520120e+00 3.684787291518038188e+01
1.947099681914625791e+01 -8.524971639921858468e+00 3.698890067442511054e+01
1.911291457789404546e+01 -9.896143154465965708e+00 4.072785649667633834e+01
1.883686673980045612e+01 -1.026846339295548027e+01 3.957260035341354865e+01
1.983208826530278657e+01 -8.726895167176408563e+00 4.211278429093998454e+01
2.064314181963975514e+01 -7.621053036650747181e+00 4.225852170622004422e+01
1.955709627304132070e+01 -7.731140712270323512e+00 3.659434931951544456e+01
1.982814874035015151e+01 -7.309915480254081110e+00 3.683218867409030395e+01
1.906701702320865977e+01 -9.194233921467361625e+00 3.697573334246084897e+01
1.872260901233001462e+01 -1.033831118983965780e+01 3.991746960717367187e+01
1.942047843414754738e+01 -9.238004777559005731e+00 4.184684592750807042e+01
1.907171125359697683e+01 -9.707711295681063390e+00 3.757155884756195263e+01
1.990612891285428177e+01 -6.819512350198631445e+00 3.669827862557992404e+01
1.851555080096190409e+01 -1.040518572043955636e+01 4.075125389851550040e+01
1.857586055831148997e+01 -1.038485381947875652e+01 3.893993529874109782e+01
1.913267299857102444e+01 -9.810508210906263571e+00 4.124284752022813194e+01
1.900884103338569631e+01 -9.749068244309448517e+00 4.158089194513477338e+01
1.965278563845286897e+01 -8.650413603476954094e+00 4.244615591527533383e+01
2.048251636567569989e+01 -7.601753606985562683e+00 4.254565699672822632e+01
1.857741285751908222e+01 -1.028344744906712549e+01 3.835843155555047446e+01
1.922082504312858120e+01 -8.293837178181314940e+00 3.632135181539630508e+01
2.023602901683382171e+01 -6.431055373763260974e+00 3.705594618459060996e+01
1.957642910742022835e+01 -7.207550676068954942e+00 3.634082960758401981e+01
1.843388760068630816e+01 -1.055012465648675501e+01 4.018705552002430181e+01
1.859720934561606853e+01 -1.026002780476680876e+01 4.131494736950266855e+01
1.835219627030917877e+01 -1.069479053254437773e+01 3.962225102639278163e+01
1.906105076300500301e+01 -9.082871335467006091e+00 4.251340341939962997e+01
2.009507677592359087e+01 -7.816714084898317871e+00 4.282383223173147258e+01
2.072093339605644502e+01 -6.985114786670816756e+00 4.271243605670508714e+01
1.908679806578707883e+01 -8.834549656111136073e+00 3.660285497736633431e+01
1.924646385404914639e+01 -7.595709429745450159e+00 3.598309430080502125e+01
1.920804195317808194e+01 -8.465101012696797156e+00 4.292448815757252589e+01
1.878754596984072123e+01 -9.721517520443331506e+00 3.704011076557699766e+01
1.863385962967567266e+01 -1.009222503694938489e+01 3.758625638924381462e+01
1.988440811391221175e+01 -6.494093803033123002e+00 3.651917591679742969e+01
1.819149947205462325e+01 -1.055394904724492378e+01 4.100958645335730068e+01
1.815436199582125454e+01 -1.075045546532334484e+01 3.895314556884240886e+01
1.957702854024364569e+01 -7.940116707654460981e+00 4.309658223250340825e+01
2.036330709584092347e+01 -6.860538158000001552e+00 4.319454297654375807e+01
1.868166997083101322e+01 -9.964232816758627820e+00 3.716103436141482774e+01
1.874034525889104330e+01 -8.776343155910161897e+00 3.593051219283967868e+01
1.891663047543374532e+01 -7.983511518539505580e+00 3.562550362211982247e+01
2.022512787332700768e+01 -5.697465414217615987e+00 3.687296466221992830e+01
