1.705811677670722304e+01 -1.252007587404004063e+01 3.701663554785692867e+01
1.692803552827767888e+01 -1.256152897674029667e+01 3.744570691541878915e+01
1.781750038109622380e+01 -1.218015594938659163e+01 3.578457751482649485e+01
2.083594014652014437e+01 -6.035852010080576591e+00 3.343863829965714984e+01
1.601347022993045144e+01 -1.271566433908026106e+01 3.826570641177894316e+01
1.458947134724951589e+01 -1.248250819322865546e+01 4.134630234598289178e+01
1.514764539532110454e+01 -1.279283762848233330e+01 4.005034047998524471e+01
1.932026769410092726e+01 -1.037603198286241657e+01 3.353624337603112338e+01
1.478380802289888507e+01 -5.421613292844836174e+00 4.869228016032378292e+01
1.610105694320723302e+01 -3.312765165028262349e+00 4.847244715713260632e+01
1.398442181569183873e+01 -1.127775086688675010e+01 4.455228406422520493e+01
1.360200861730098332e+01 -1.166372742336516488e+01 4.372155011685188697e+01
1.374503794469999995e+01 -1.196799302735570336e+01 4.307339764410546223e+01
1.340584757442854347e+01 -1.073705257839142035e+01 4.563538106826980112e+01
1.392209734604350935e+01 -8.021304189624107295e+00 4.848362830897365683e+01
1.721754647629892432e+01 -1.242427785695385012e+01 3.620196979359322142e+01
1.807186480069196932e+01 -1.186906674308039555e+01 3.494797508374334427e+01
1.902292590163992969e+01 -1.082547768350556971e+01 3.388131112160476732e+01
1.835652061575561689e+01 -1.149300520561596350e+01 3.434736704766338278e+01
2.051310413156897994e+01 -6.672855779561086109e+00 3.315814274298319475e+01
2.019026877724593305e+01 -7.309858809687757919e+00 3.287758554298843450e+01
1.990691321713984863e+01 -8.982568895259490205e+00 3.317583175161998810e+01
2.109294992483906128e+01 -5.306991694343352606e+00 3.366905689591428086e+01
1.631705686714952819e+01 -1.268828410233329862e+01 3.742328683436361558e+01
1.512125259214403528e+01 -1.286743248819947283e+01 3.871467704522362396e+01
1.403146291049577243e+01 -1.242496672791025958e+01 4.163873251548009335e+01
1.423276476695599158e+01 -6.034742492504858724e+00 4.876800536644834949e+01
1.469709568968817948e+01 -4.927431447147763599e+00 4.880472700764576643e+01
1.507079452824594590e+01 -3.946932422310294175e+00 4.884860819048721936e+01
1.380194688272029069e+01 -7.334167040043658048e+00 4.866370353534695425e+01
1.648426659925880244e+01 -2.564603079413307452e+00 4.840031834716283043e+01
1.357130261390127401e+01 -9.575749972121123221e+00 4.742271277760234227e+01
1.335327812064147501e+01 -9.346655440369692869e+00 4.782706804850640481e+01
1.311796209919232048e+01 -1.039655188529461860e+01 4.641477873943006927e+01
1.657680063149667760e+01 -1.260546845596492105e+01 3.656551258755987988e+01
1.820367360282662261e+01 -1.166669884835269322e+01 3.455181806732476701e+01
1.735668456004332683e+01 -1.229691906784035993e+01 3.536086397184488561e+01
2.000542422678837795e+01 -8.106850909997731947e+00 3.291370426259387472e+01
2.075849167148839314e+01 -5.337633112884375919e+00 3.319149977239921867e+01
1.432218894866032244e+01 -1.264481325785671295e+01 4.073280028479227610e+01
1.513445323422848787e+01 -1.283016057313097313e+01 3.938262234729866407e+01
1.945637118667766075e+01 -9.771158105973398733e+00 3.315351470005134615e+01
1.368164852182395030e+01 -6.647905877326516055e+00 4.884376093539790276e+01
1.554186308061922617e+01 -3.485939245280802901e+00 4.869925638702302706e+01
1.592499969612956079e+01 -2.737886058533272049e+00 4.862710997478243513e+01
1.326598157039444281e+01 -1.132436499802170893e+01 4.459777935341658406e+01
1.305229620542183078e+01 -1.187981317622246813e+01 4.332903138867019521e+01
1.288099159714267294e+01 -1.096374417243954547e+01 4.532001700856026360e+01
1.347434316660264741e+01 -1.224589043576199821e+01 4.252288374484712108e+01
1.337285813018831071e+01 -8.394079500801765903e+00 4.837833332579059231e+01
1.705658604966424718e+01 -1.241904366113424985e+01 3.556959633435124601e+01
1.805261777130676037e+01 -1.138925798110786403e+01 3.373933686909256124e+01
2.031598079345948094e+01 -5.785602314335727137e+00 3.271729418822226165e+01
1.555423230329035178e+01 -1.282872688923090365e+01 3.782213552815042590e+01
1.470671407911299866e+01 -1.283982831060265184e+01 3.964554383959418971e+01
1.438474034750949038e+01 -1.282367342669781252e+01 4.001553386201799611e+01
1.405937291602626260e+01 -5.046197914169217924e+00 4.899282319677157460e+01
1.443852767464229281e+01 -4.413813045858228534e+00 4.897602005548132809e+01
1.297433757145749134e+01 -9.887294163038065520e+00 4.713606584812986000e+01
1.315516046471420353e+01 -8.080659502967968422e+00 4.860430600695571002e+01
1.590080936320349991e+01 -1.275298826194022617e+01 3.675768117362664356e+01
1.748372334421550534e+01 -1.214140168103695316e+01 3.494162564389370118e+01
1.849685437279046241e+01 -1.094416722473411596e+01 3.342844986094060289e+01
1.774716032854375669e+01 -1.173673899425660849e+01 3.414874544539332391e+01
2.003174325847261272e+01 -6.771844565230395574e+00 3.256023722358746397e+01
1.983616519566428593e+01 -7.726439785275158734e+00 3.257042898558634647e+01
2.032858393505759409e+01 -5.313845256952983931e+00 3.265225294870960226e+01
1.570605020276407515e+01 -1.281503605740822138e+01 3.740085702932984901e+01
1.510804579770047162e+01 -1.290465539759072655e+01 3.804653936928127678e+01
1.354741645362197211e+01 -1.254784589984423349e+01 4.120665703746821862e+01
1.946363030586735832e+01 -8.883374277382216633e+00 3.253586006697489807e+01
1.894246117618037317e+01 -1.027004171761964990e+01 3.291039355737431293e+01
1.355154715997136705e+01 -5.906869687346867792e+00 4.901249802069659012e+01
1.299434213051429232e+01 -7.163851228417922989e+00 4.884438553486545231e+01
1.480657227444585367e+01 -3.084423175490940583e+00 4.908054171222507023e+01
1.536576552895495773e+01 -2.911162740245629710e+00 4.885385048707762223e+01
1.623369590476328028e+01 -2.008415599364116400e+00 4.856060411840874025e+01
1.434444268954841561e+01 -3.778613040982615523e+00 4.911403943694893570e+01
1.279997890795603688e+01 -1.162550893054101486e+01 4.398615162014240099e+01
1.257655683211365627e+01 -1.067231621655745855e+01 4.600461118174326458e+01
1.322595636807576192e+01 -1.240564416317341312e+01 4.188462672348550342e+01
1.282224942233578524e+01 -8.766853037828786555e+00 4.827297344311256211e+01
1.689553407968175591e+01 -1.241375863289238168e+01 3.493684223026205871e+01
1.978959664284408149e+01 -7.249957953942097966e+00 3.234988475793105067e+01
1.446634192199179125e+01 -1.291922951322804458e+01 3.844115339223825600e+01
1.362182517185045505e+01 -1.285451039359185721e+01 3.998070800291520044e+01
1.426565506707817121e+01 -1.288681286974978590e+01 3.924063027686310079e+01
1.253820078058248910e+01 -9.429361349604262088e+00 4.794463945874158384e+01
1.901044786079197380e+01 -9.967737936335613114e+00 3.271905393648933824e+01
1.296236157109188802e+01 -6.675707111071986333e+00 4.896354463156494319e+01
1.567446248978638756e+01 -2.181724488006612894e+00 4.878731137100097470e+01
1.388285650907794277e+01 -4.471820961697846819e+00 4.914748951931408527e+01
1.254746518956612178e+01 -1.137096507748327845e+01 4.464326171336509930e+01
1.246143191296216024e+01 -1.179790824769418478e+01 4.365138127891519559e+01
1.250131564988204858e+01 -1.209632995841654690e+01 4.293562209826560405e+01
1.244853351181728307e+01 -1.045308957623703350e+01 4.648907245763778207e+01
1.237693904579764670e+01 -1.019872764032071721e+01 4.684948272587409690e+01
1.271219826048773527e+01 -1.227928724679405725e+01 4.253268491410433683e+01
1.609556834973789563e+01 -1.269083005106430129e+01 3.611446410675193164e+01
1.641846733317056817e+01 -1.256729629176695617e+01 3.547193528497093240e+01
1.951292687128684022e+01 -8.445497267259666430e+00 3.240483768671727915e+01
1.774864885614357135e+01 -1.128546680721816031e+01 3.313114206066496337e+01
1.720711175589064723e+01 -1.205528811454613525e+01 3.433510415013152084e+01
1.987321293917690568e+01 -6.233829204651083700e+00 3.224279433317691002e+01
1.989867848757539193e+01 -5.290055532563139096e+00 3.211300165910509463e+01
1.509483940468735952e+01 -1.294182151345759202e+01 3.737841361262143636e+01
1.227242878686034189e+01 -9.139553932896724575e+00 4.816758056572543012e+01
1.342117360144102278e+01 -5.165054024367159435e+00 4.918093993357535254e+01
1.230528521684547627e+01 -7.681908009193150200e+00 4.884500479974408904e+01
1.511522853130271749e+01 -2.355034660874708141e+00 4.901398849693440241e+01
1.238594536760289699e+01 -8.140007577708407993e+00 4.872495192384056395e+01
1.235532860666079458e+01 -1.119063128369097626e+01 4.500433610934310735e+01
1.180439806358436705e+01 -1.096410594959460738e+01 4.562667981563149766e+01
1.553988423203938929e+01 -1.281702947530258285e+01 3.641939065884326965e+01
1.797099588995675390e+01 -1.106280744332942589e+01 3.297577263951897919e+01
1.729080931352125461e+01 -1.180674263081231956e+01 3.374580976540791966e+01
1.939957263133820575e+01 -7.741649312391760240e+00 3.202272718584279687e+01
1.267565975478152929e+01 -1.250426563067658314e+01 4.157059775335503105e+01
1.306360227338437774e+01 -1.267064266724150734e+01 4.077479047316302285e+01
1.382463058615946672e+01 -1.293377531751288956e+01 3.883574824962691707e+01
1.223649936905110280e+01 -8.629798258322040283e+00 4.847098291087097977e+01
1.902037117638371200e+01 -8.784183616012711582e+00 3.189590344478015638e+01
1.879263323598306812e+01 -9.474262263665119477e+00 3.209055819733356429e+01
1.856495456972090707e+01 -1.016412951959148891e+01 3.228501377728617427e+01
1.224254973947966363e+01 -6.703493141259817101e+00 4.908300796488752127e+01
1.278866004218977892e+01 -5.687671382458045599e+00 4.918799340440216383e+01
1.423934346041191645e+01 -3.164098125383917548e+00 4.926096196712152420e+01
1.377745691360562574e+01 -3.857807108639096594e+00 4.929446628602978109e+01
1.598296816402839049e+01 -1.452085825402494201e+00 4.872080479056217683e+01
1.182887475512436737e+01 -1.141747857405591660e+01 4.468867016581999962e+01
1.178127320713318582e+01 -1.050961598805080754e+01 4.656336851103196040e+01
1.191053026890778810e+01 -1.201428251715580409e+01 4.325841400468416253e+01
1.614811704551183880e+01 -1.259134948365953122e+01 3.487849986763249888e+01
1.800471879436307532e+01 -1.067286937271783209e+01 3.240382454103744436e+01
1.665234361799243601e+01 -1.231461023817370837e+01 3.433581141639820089e+01
1.943050508566023282e+01 -6.681992991144104721e+00 3.176834046849981519e+01
1.938888208963966164e+01 -7.190047265372911056e+00 3.182211783999700572e+01
1.954664878614419976e+01 -5.950207529371838611e+00 3.178777219827646050e+01
2.014104375410499514e+01 -4.494191686798354901e+00 3.232617093599932900e+01
1.408044911495806240e+01 -1.296028929008580910e+01 3.808687208496155563e+01
1.195068584377517773e+01 -1.231265012667606307e+01 4.254247112768199912e+01
1.285889880724205447e+01 -1.288534527222374848e+01 3.994587682830403708e+01
1.172319154317845147e+01 -9.512051243286428814e+00 4.806220064840076134e+01
1.900954907219061241e+01 -8.233339185023570650e+00 3.169552970819884763e+01
1.462315088415834019e+01 -2.473190830843268628e+00 4.922407017034527854e+01
1.542388114072825012e+01 -1.625441089228618408e+00 4.894739139303159448e+01
1.187020217615093998e+01 -1.171593853274579899e+01 4.397373031263755649e+01
1.175240282080421217e+01 -1.001143644362479179e+01 4.731218999253479751e+01
1.561441513870191322e+01 -1.277616320444887243e+01 3.566349567289152844e+01
1.639397525328732996e+01 -1.244610298623009292e+01 3.449789089834936817e+01
1.744449242482264850e+01 -1.118159147176234214e+01 3.252253988500758908e+01
1.683444100692663525e+01 -1.187673990307145822e+01 3.334285824026618883e+01
1.433626167195514611e+01 -1.298672791948120420e+01 3.733797600488092172e+01
1.461947473063493952e+01 -1.298260820488278711e+01 3.697335338348990774e+01
1.498420064283541464e+01 -1.294317589726127160e+01 3.672428321034516330e+01
1.273985391572695214e+01 -1.294846777513187952e+01 3.917101295373176839e+01
1.167027324048847170e+01 -8.856056718760090263e+00 4.845409979307027015e+01
1.326307930155470949e+01 -4.244761353180248165e+00 4.940126524272105257e+01
1.277726359472365480e+01 -5.185367814429087119e+00 4.930907585990507869e+01
1.161767119487837974e+01 -8.199372792939508159e+00 4.884561772794115342e+01
1.215691183933268071e+01 -6.209606456217768411e+00 4.919503318634922095e+01
1.367193205239070153e+01 -3.243798712387416128e+00 4.944133419021913767e+01
1.493169054283635511e+01 -1.743526371511811668e+00 4.915749913732774701e+01
1.573229858189331409e+01 -8.961223049434187127e-01 4.888079568678610798e+01
1.640907074316351100e+01 -6.430656483456375083e-01 4.856066788938488088e+01
1.099766190272887378e+01 -1.110555389230188794e+01 4.534642114646206323e+01
1.122013764710727735e+01 -1.067863639267205933e+01 4.622351091681372992e+01
1.127541212564914908e+01 -1.187087871695913321e+01 4.355238904587469051e+01
1.640892799208956632e+01 -1.221534806452794975e+01 3.373620285829031928e+01
1.899870559012897786e+01 -7.681600197567319377e+00 3.149474219181500345e+01
1.946865249674839404e+01 -5.266256506813264515e+00 3.157359134866355532e+01
1.972415265277377472e+01 -4.527633714500363560e+00 3.180955692235856347e+01
1.204762162776878753e+01 -1.271524864894204043e+01 4.078768745751315095e+01
1.199921320763176347e+01 -1.251406395678486128e+01 4.166488600242482221e+01
1.257978676404406038e+01 -1.279341814978162617e+01 4.034292383846354113e+01
1.338370817421895964e+01 -1.298070953045474241e+01 3.843096104567492688e+01
1.847273312452995953e+01 -8.931950574110127050e+00 3.141046681798340501e+01
1.862698569781774083e+01 -8.646827079108895475e+00 3.141558989137330826e+01
1.813124093631843081e+01 -9.966902309952780925e+00 3.170241427816346302e+01
1.806595755469363240e+01 -1.022255082982022323e+01 3.186734866512596653e+01
1.156934039394417368e+01 -7.463722745507876510e+00 4.902188234319227433e+01
1.213323781757510211e+01 -5.205686230287351002e+00 4.943696628564345019e+01
1.499417019350010172e+01 -1.073532636335598589e+00 4.919580625820912445e+01
1.123411897986306052e+01 -1.157244602172323766e+01 4.426752023418902127e+01
1.088118666897707776e+01 -1.047765730816798424e+01 4.658120392932091391e+01
1.111465826614058550e+01 -1.140169248432851923e+01 4.473219571825203644e+01
1.064068767800541870e+01 -1.172737252602876801e+01 4.384636168539387313e+01
1.487357347171571043e+01 -1.294444479892746180e+01 3.607022128323496446e+01
1.589214852402571410e+01 -1.247845514036493242e+01 3.405869973630632330e+01
1.540047109887336241e+01 -1.276899010702976689e+01 3.482012368863601637e+01
1.616536043130475875e+01 -1.211600344547362340e+01 3.313656557566974215e+01
1.861606576798109458e+01 -8.095503688530445885e+00 3.121490839939287909e+01
1.898786293802171699e+01 -7.130088171220372750e+00 3.129393933408814377e+01
1.357782780876851270e+01 -1.303162526347503025e+01 3.729752959015822711e+01
1.414417899764317532e+01 -1.302337477422089407e+01 3.656835157346265675e+01
1.143013694940011504e+01 -1.241044897518417756e+01 4.209348124566996319e+01
1.209595596372111714e+01 -1.291617925033557412e+01 3.991103678658784304e+01
1.087310356064876338e+01 -9.476515079679197484e+00 4.812490794641926328e+01
1.258207322074973433e+01 -4.621377987444534874e+00 4.946412703157847801e+01
1.152169033651725449e+01 -6.731249525204091810e+00 4.920206343096014479e+01
1.310456322204680646e+01 -3.323493315500452905e+00 4.962159858480581676e+01
1.256562202888097879e+01 -3.958388864675673524e+00 4.960262337731081317e+01
1.405585545489325661e+01 -2.552865767750485126e+00 4.940441055484854616e+01
1.443950117026608204e+01 -1.861610846177926382e+00 4.936758144003153603e+01
1.612268755354341110e+01 1.527300151828409058e-02 4.912653124793691006e+01
1.106125762987574390e+01 -9.737525581347743042e+00 4.770074111149980922e+01
1.040120541286096945e+01 -1.138587544646361494e+01 4.477575750524022880e+01
1.090820455000445399e+01 -1.200505567770967907e+01 4.319947911730244527e+01
1.761478470515321249e+01 -1.064688715650068396e+01 3.198245194603207153e+01
1.668338303757873220e+01 -1.159903073922833094e+01 3.252984912182426314e+01
1.513352621481972271e+01 -1.286143527504755291e+01 3.521277073667758373e+01
1.637818114350043430e+01 -1.194671150990561870e+01 3.294000038863655533e+01
1.117829690824829925e+01 -1.228250230850480840e+01 4.255259735251136988e+01
1.294278829751401538e+01 -1.302762744285537266e+01 3.802617370123963525e+01
1.100670258255808953e+01 -8.501172921666176663e+00 4.869670589665664551e+01
1.082343330670375181e+01 -8.142390427685986865e+00 4.890988935922541714e+01
1.150497177711209673e+01 -5.979108856017341544e+00 4.938341424239109756e+01
1.348856006262741580e+01 -2.632540100161231855e+00 4.958465849004323900e+01
1.425598356250000087e+01 -1.250957911531690003e+00 4.951079398977417156e+01
1.550283893627939769e+01 -1.874941344257832487e-01 4.946568978009825202e+01
1.075871200654871096e+01 -7.160914212113549837e+00 4.915061847947770701e+01
1.065882951723352079e+01 -1.084768453495027529e+01 4.588353961549685778e+01
1.009681302325909336e+01 -1.101692442036208774e+01 4.554313033342767625e+01
1.710099810119717034e+01 -1.100031344062938921e+01 3.194133856012999928e+01
1.502129399558680767e+01 -1.272880783953299755e+01 3.419063551282521729e+01
1.850364879458150824e+01 -7.371925792331126992e+00 3.084333612647471057e+01
1.132134934526319192e+01 -1.269159252298869234e+01 4.086060241108899049e+01
1.090916900704405279e+01 -1.250829666888173541e+01 4.164417229453817981e+01
1.040255856174527871e+01 -1.225231202936941877e+01 4.256272299897931788e+01
1.208430504614787715e+01 -1.298466502582496318e+01 3.901289939562669673e+01
1.281938864271703871e+01 -1.307652223455123774e+01 3.725706942644955433e+01
1.039626891338661174e+01 -8.802664302460021517e+00 4.854785522279232879e+01
1.823342538526173229e+01 -8.509406316520760072e+00 3.093504679387346812e+01
1.756710255175069690e+01 -1.028095000905340761e+01 3.144979829806712246e+01
1.202753802988959997e+01 -4.592113080527091107e+00 4.958364279100421612e+01
1.387266030345075229e+01 -1.941189602168744699e+00 4.954769686346076440e+01
1.476471528991805471e+01 -3.649262465086574592e-01 4.978081756541794078e+01
1.077968497922620905e+01 -6.649073085975360620e+00 4.926581472986333665e+01
1.040006173634762021e+01 -9.962732542898979915e+00 4.733966898686462343e+01
9.760694563241147037e+00 -1.159382258861313453e+01 4.421066711549027417e+01
1.004737235866705269e+01 -1.188222803761044943e+01 4.342528575887731535e+01
1.409854297509475707e+01 -1.301341831027139939e+01 3.558475502043624061e+01
1.692120293591322167e+01 -1.120463608959841473e+01 3.209514380084321772e+01
1.539032695275337481e+01 -1.251079842612557336e+01 3.361967476061423810e+01
1.465226194347322775e+01 -1.294676045144981913e+01 3.476169114760622136e+01
1.592189245794501140e+01 -1.201667911303885106e+01 3.253711559828356314e+01
1.827250855696099663e+01 -7.937610766705620158e+00 3.078240282959614404e+01
1.366888337570888190e+01 -1.306412783512948472e+01 3.616335077190077385e+01
1.155501325309401395e+01 -1.295886268529478613e+01 3.943638485379177894e+01
1.769775261853543569e+01 -9.769773779716556916e+00 3.112008886410242070e+01
1.148921537622912226e+01 -5.226005093220972952e+00 4.956461082203497170e+01
1.299623156208372698e+01 -2.667917938678201484e+00 4.975324789575070383e+01
1.224780903165712687e+01 -3.303215066976641801e+00 4.981001434727105703e+01
1.199477768952585244e+01 -3.944866341477668570e+00 4.972812431548832279e+01
1.589298210221519092e+01 7.226443829401837382e-01 4.971117896679639614e+01
9.979457876778385028e+00 -1.044559598697602176e+01 4.659905931667986323e+01
1.002457031163350543e+01 -9.441014970637434445e+00 4.818746154068504239e+01
9.687142432616138166e+00 -1.137002825547350682e+01 4.481935518904104754e+01
9.919896031069241005e+00 -1.072714908329921002e+01 4.607350130394271304e+01
1.476294592078678924e+01 -1.294563691974606634e+01 3.541613572234247442e+01
1.557867899118584631e+01 -1.227316676738375278e+01 3.302572831492798855e+01
1.127840562115950185e+01 -1.291207196406774571e+01 3.989479188135964449e+01
1.038774386071541755e+01 -1.260619463213262037e+01 4.119454300714850348e+01
1.072897642633267523e+01 -1.276238277194055470e+01 4.052628896797918401e+01
1.207263194443011578e+01 -1.305307720352897682e+01 3.811475551616769764e+01
1.250186644821634907e+01 -1.307453028609546486e+01 3.762138504442085463e+01
1.075547226778159349e+01 -5.645545474209931136e+00 4.950711578127720003e+01
1.351752147322128828e+01 -1.303987885273972580e+00 4.976363755793569510e+01
1.410806988485462554e+01 -4.822790839445557642e-01 5.007357714494644796e+01
1.288763499228482345e+01 -2.011789358177156650e+00 4.988495223522710376e+01
1.527316526647306461e+01 5.198688694771035346e-01 5.005039491985596101e+01
9.996313340026167893e+00 -7.594677220589268529e+00 4.909912302113045968e+01
1.003816180767528365e+01 -6.566887227812134853e+00 4.932901103640418228e+01
9.785871316232935158e+00 -9.104049970485721843e+00 4.839898154192524515e+01
9.535536944389370717e+00 -1.118550792399861216e+01 4.520316003093242330e+01
1.624826306359122441e+01 -1.159630419959448311e+01 3.213862412598367513e+01
1.639756978432318846e+01 -1.122768920058516251e+01 3.166746055845869634e+01
1.675753807400474926e+01 -1.081904378214808560e+01 3.136015850038448605e+01
1.488867325993101076e+01 -1.254312172387432156e+01 3.318161442375492953e+01
1.446062419987000958e+01 -1.286202107053700061e+01 3.414682723214761495e+01
1.018820404982238692e+01 -1.240775034090089335e+01 4.193346122187325165e+01
9.453998055855457494e+00 -1.203706849042582938e+01 4.300415048959567343e+01
9.451482619165256338e+00 -1.178803021841054566e+01 4.368240106725471605e+01
1.101406658307574737e+01 -1.300153592529577651e+01 3.896172704646576790e+01
1.262727240444502463e+01 -1.311318213694262624e+01 3.648750751454985419e+01
1.706817516026028159e+01 -1.033935499030883243e+01 3.103218687890618455e+01
1.145663698633121363e+01 -4.578639322282923807e+00 4.970905266960109969e+01
1.245278113584773472e+01 -2.552996420930671473e+00 4.988955000191703704e+01
1.461665725331866383e+01 4.026902011035993212e-01 5.034339289097724901e+01
1.002877893201728909e+01 -8.085352286151415768e+00 4.897894573184085942e+01
9.738568019912994700e+00 -1.018802631191535291e+01 4.697842163084419553e+01
8.973814887006829721e+00 -1.135418020487655788e+01 4.486290935625213194e+01
9.076638731133789051e+00 -1.041345455061920866e+01 4.661692670734074539e+01
9.025304679537745400e+00 -1.088446204303093978e+01 4.574004426179997296e+01
1.319358493191492343e+01 -1.310486824570788755e+01 3.575834643329578455e+01
1.410739658875047020e+01 -1.295748545751913205e+01 3.428721652476971826e+01
1.524300254679802613e+01 -1.221376172045431829e+01 3.246006642945226872e+01
1.206094599943335233e+01 -1.312141866087780961e+01 3.721659723042763090e+01
9.631104615613871545e+00 -1.222209712630194112e+01 4.257284688302907227e+01
1.046068680877292856e+01 -1.290795886686840710e+01 3.987853092304325742e+01
9.866234724199854256e+00 -1.270406179131552626e+01 4.074497072944704712e+01
1.082476717326220950e+01 -5.143698220912033214e+00 4.963892257604064184e+01
1.002450920620693076e+01 -6.065389770474615361e+00 4.944945894925648133e+01
1.142393368838821033e+01 -3.931339538567568681e+00 4.985343821260412511e+01
1.336944216554592302e+01 -5.354007371020015338e-01 5.032661749112872940e+01
1.277905370642952754e+01 -1.357018145459073288e+00 5.001633836245378006e+01
1.231702968584673563e+01 -1.998364588576356571e+00 5.001028725051737212e+01
9.812477199198033517e+00 -8.569782381827481643e+00 4.870302586274485179e+01
9.125926341891229754e+00 -9.909637499148496786e+00 4.743354501836878256e+01
9.175273675609588508e+00 -9.405445804273949051e+00 4.825003967132151672e+01
8.936049824997189361e+00 -1.163376110881522862e+01 4.410271062396490294e+01
1.346307788958018747e+01 -1.307040681661754888e+01 3.521658700707907030e+01
1.564852250185798255e+01 -1.183662804591631001e+01 3.199922043392252391e+01
1.587470413312615669e+01 -1.125070203716070694e+01 3.124039762965057676e+01
1.426901718217996518e+01 -1.277725710753020749e+01 3.353202682890741215e+01
1.393074110358734075e+01 -1.301687189144497658e+01 3.470709101800179752e+01
1.535865571379823891e+01 -1.199962815113886094e+01 3.206874491097290303e+01
9.628450554602864031e+00 -1.242675317918601507e+01 4.178327509191599631e+01
1.126706704152713634e+01 -1.308284047693527441e+01 3.785185769942768275e+01
1.139102132733336425e+01 -3.282936240739119160e+00 4.999803694263453480e+01
1.079381546442495221e+01 -4.496057270166590847e+00 4.978329444269410686e+01
1.185395754343893771e+01 -2.640857536264657135e+00 5.000418281914115681e+01
1.395989626145214224e+01 2.854685618318398288e-01 5.063642639462134554e+01
9.233622238542242400e+00 -8.028249336369659872e+00 4.904757350199936639e+01
9.264633211376716915e+00 -7.254846228166297095e+00 4.922013916804265676e+01
9.204377547081826094e+00 -8.717538823042056961e+00 4.864287603172977725e+01
1.438740769159601918e+01 -1.257541299971414084e+01 3.274388739741177545e+01
8.860556496049110109e+00 -1.219189551249752235e+01 4.258295884968880785e+01
8.898291693969031968e+00 -1.191302845291409440e+01 4.334262163610765128e+01
9.642383662194758287e+00 -1.290383754653115744e+01 3.986225675301547966e+01
1.047311703425138596e+01 -1.304419868812066774e+01 3.848707195140264758e+01
1.271828785866197897e+01 -1.314559625541273036e+01 3.535334292484418484e+01
1.016210851791464798e+01 -5.061440887172213188e+00 4.971274684424050605e+01
9.295946947065264254e+00 -6.484599389255367718e+00 4.939174319622549092e+01
1.076339466639443110e+01 -3.848418086914631164e+00 4.992764306150151299e+01
1.203804182742239171e+01 -1.279409853496978666e+00 5.019789108070280292e+01
1.269531057631508020e+01 -5.481717044414154971e-01 5.056775404138317498e+01
8.348880999606050679e+00 -1.146328419345851657e+01 4.438581808327622724e+01
8.195248219972244286e+00 -1.097590300351132164e+01 4.541785377471767049e+01
8.488942777745689838e+00 -1.054991271607092074e+01 4.625700625036747482e+01
1.537505021256275661e+01 -1.165650030084682776e+01 3.146108225684988113e+01
1.320972824618441699e+01 -1.308692699128583925e+01 3.465251684604482563e+01
1.356230389607914510e+01 -1.296820165654163226e+01 3.381253731124401440e+01
1.456465361061700747e+01 -1.241068718525759174e+01 3.238306372711765846e+01
1.198763783936929350e+01 -1.314789259238852281e+01 3.654830999537208669e+01
9.397717981053228087e+00 -5.731806914448877244e+00 4.958904284823347552e+01
1.328552037835185118e+01 2.729093480707997510e-01 5.087808736545945720e+01
8.452848521409441318e+00 -9.939386412435551321e+00 4.726312142846990838e+01
8.489633151992700633e+00 -9.561377703787469429e+00 4.787532074881957556e+01
8.264547151288025972e+00 -1.128943479375726611e+01 4.485158247086594940e+01
8.353307860874066293e+00 -1.171552182197014069e+01 4.371111407322591447e+01
8.416090893829531794e+00 -1.031721597033485693e+01 4.665081097398969945e+01
1.407750576674870402e+01 -1.269250172842116520e+01 3.291768035744435394e+01
1.479481347764065191e+01 -1.198255014969705101e+01 3.159985367267099576e+01
1.148159586834313295e+01 -1.314982432230502951e+01 3.672231963614813566e+01
1.125831389361431079e+01 -1.313410114053840694e+01 3.717824707273970120e+01
8.847242696064389733e+00 -1.242800314920260440e+01 4.167084573532565628e+01
9.344285893071468507e+00 -1.280193823042761991e+01 4.029527552787620692e+01
8.027855506138996233e+00 -1.188707595075064205e+01 4.315471721921690573e+01
9.932167496373141446e+00 -1.308685166958375490e+01 3.801241474154175393e+01
9.649057031014873331e+00 -1.297200527907257595e+01 3.916653587954737503e+01
1.191432674820194926e+01 -1.317431556847030372e+01 3.588000971275915418e+01
1.013078856116253412e+01 -4.413354214028642808e+00 4.985709148057358675e+01
1.135991534306907624e+01 -2.588979038784770204e+00 5.012515459568874832e+01
1.081138798646970578e+01 -3.176114025979175359e+00 5.007398957038540743e+01
1.132857799658471976e+01 -1.894759535238251358e+00 5.025231248404141837e+01
1.195406954247675380e+01 -4.703206737263880832e-01 5.074975241252629132e+01
1.261126503238694951e+01 2.603526523074243815e-01 5.111958057790197074e+01
8.468687397184778476e+00 -7.841232230276440340e+00 4.908071279437864831e+01
8.509544472278705030e+00 -6.809327324708988272e+00 4.930923471734830343e+01
8.542194454617030530e+00 -9.258377226703153440e+00 4.826001036431075164e+01
7.723355562725075174e+00 -1.157244790026098613e+01 4.390825808836305555e+01
1.388598005473935793e+01 -1.260770670369802993e+01 3.230600912412701575e+01
1.345181191044943958e+01 -1.279332231354352523e+01 3.282059303887497492e+01
8.833922990462253821e+00 -1.266395554354256880e+01 4.075843408304833559e+01
8.107206351981091075e+00 -1.211888965231416648e+01 4.255608356483889310e+01
1.018009990892010741e+01 -3.741444518171872069e+00 5.000337980585408104e+01
9.500091885321035434e+00 -4.979169893022397986e+00 4.978616159605382308e+01
8.613658493500294000e+00 -6.312649461884118907e+00 4.943411444732942783e+01
8.585685000127854849e+00 -8.225535952468359113e+00 4.886024316332468231e+01
8.468646836529231336e+00 -8.745935429091151292e+00 4.854404340579986865e+01
7.804994294073311245e+00 -9.717055725041289449e+00 4.750112946592413721e+01
7.556008945164102819e+00 -1.122474771486280254e+01 4.484026629223824756e+01
7.900821972861820974e+00 -1.068640689529960142e+01 4.589680815369734290e+01
7.756043715130148009e+00 -1.022103342280922966e+01 4.668465485343438104e+01
1.275317823599285205e+01 -1.306797807550572266e+01 3.396811240077671101e+01
1.301764174232024374e+01 -1.297889700248244793e+01 3.333822780993288148e+01
1.248871264109157764e+01 -1.315697559474190648e+01 3.459793145200400488e+01
1.045566259869853099e+01 -1.314678036920138915e+01 3.713988017440355094e+01
8.323993440919887021e+00 -1.224512839948364018e+01 4.211565716366359879e+01
8.822112109375000344e+00 -1.289971068651018093e+01 3.984598333517232760e+01
1.078057508403291820e+01 -2.482051432349049236e+00 5.020105995327159576e+01
9.548835882036737388e+00 -4.306161848981022722e+00 4.993265552613583225e+01
8.749299315156122248e+00 -5.308943097491011009e+00 4.969669923710876702e+01
1.129702644026473379e+01 -1.201801154250252690e+00 5.037923325481038006e+01
7.909007297335153730e+00 -9.111243803902715044e+00 4.826993258391550512e+01
7.313362600031618754e+00 -1.082269120084541214e+01 4.553700005226952641e+01
6.873201069714190758e+00 -1.138204036657005958e+01 4.421203870951166692e+01
7.097725484690397657e+00 -1.168158999070333692e+01 4.343060049714836168e+01
1.224299181554302862e+01 -1.318631245415153330e+01 3.494833993385839221e+01
1.090224400259346638e+01 -1.317821475452187663e+01 3.622803926798459173e+01
7.787371220213422873e+00 -1.229835416672984927e+01 4.164829358376434953e+01
7.353708421351007551e+00 -1.204585089867943992e+01 4.252920138592226351e+01
8.833076170630999258e+00 -1.299061288622611876e+01 3.891836479982100627e+01
1.023097945115122442e+01 -3.069376524532449579e+00 5.014962939379576312e+01
8.859733867055711087e+00 -4.766805051448772090e+00 4.980915803304500855e+01
1.195083614691879070e+01 3.823062167883091167e-01 5.129266330652369277e+01
1.074940014930916909e+01 -1.788337006128589479e+00 5.032808031652479741e+01
7.938281743073756225e+00 -8.422564485828800684e+00 4.867303628072455268e+01
7.931816835937499199e+00 -6.140800248956068685e+00 4.947541027027094174e+01
6.847643120727156862e+00 -1.116000100744808954e+01 4.482894725778564293e+01
6.726317869489209400e+00 -1.095883012308948956e+01 4.517742948662658620e+01
1.247228431253870262e+01 -1.298959399867116637e+01 3.286330707278942498e+01
1.234451923441362986e+01 -1.307602185254142668e+01 3.361228634283064309e+01
1.184101195055666977e+01 -1.320069002982136119e+01 3.521168320807697683e+01
9.391212160223059158e+00 -1.312949546635385012e+01 3.753775301717122659e+01
1.176769488993201129e+01 -1.322701751709998241e+01 3.454333598892527846e+01
8.043559155653182913e+00 -1.259822006132221084e+01 4.062316458397312857e+01
9.597915429600238468e+00 -3.634470524962771343e+00 5.007886209130418109e+01
1.020123204325656374e+01 -2.375126559922418057e+00 5.027672936088173827e+01
7.723316218115832577e+00 -7.138678283616601838e+00 4.922654785565713809e+01
1.129356831786724236e+01 -3.480797822462070590e-01 5.092265515563621392e+01
7.703687590857090761e+00 -7.654175792619473562e+00 4.911278270513291488e+01
7.119874145375542085e+00 -9.872816744539100853e+00 4.712666257376222489e+01
7.198030631851148442e+00 -9.418645346935425877e+00 4.770335454218117377e+01
6.984396057495007248e+00 -1.050100984567134432e+01 4.603516779194587372e+01
8.841838406798144590e+00 -1.308142158047899883e+01 3.799069915372538020e+01
9.652985646339329762e+00 -1.315945676412657939e+01 3.710149264375248634e+01
7.250726733312434114e+00 -1.235156860417392188e+01 4.118090453758111380e+01
6.925524331814330026e+00 -1.216225743644807444e+01 4.184161684654860380e+01
1.104530419595950086e+01 -1.321683766422747119e+01 3.513858854764330175e+01
8.268128648040102391e+00 -1.290923633108725355e+01 3.937244339583978814e+01
8.025711365385053142e+00 -1.280268334713418454e+01 3.982896360813045078e+01
8.908011811411437719e+00 -4.094477677126882043e+00 4.995556405878787132e+01
7.999612401176354304e+00 -5.638594062627225512e+00 4.960666040761798001e+01
8.207191490633711339e+00 -5.088160108978025953e+00 4.972388971981348504e+01
1.055609139475068758e+01 -1.000253987316144677e+00 5.049434534720126067e+01
7.409395615632803356e+00 -8.096699951519887861e+00 4.881511788941374164e+01
7.095810483395508683e+00 -1.012480840390145964e+01 4.671849166067892156e+01
6.138932942921918823e+00 -1.109500609269815108e+01 4.481763066571316756e+01
6.523273373683409204e+00 -1.154884460056973872e+01 4.364752107292427752e+01
6.471835831750435197e+00 -1.179074091510747380e+01 4.295272588367470945e+01
1.167139593887233673e+01 -1.317310568519477165e+01 3.388629392329377765e+01
7.459643205412681333e+00 -1.257262240189117719e+01 4.043499413338675907e+01
9.586630878669925693e+00 -1.318940468630612095e+01 3.639845963103969950e+01
1.032289693382601392e+01 -1.320659037554820259e+01 3.573375863591736135e+01
9.647500021151268257e+00 -2.962503347116355989e+00 5.022512817558238396e+01
1.021120406363983157e+01 -1.749353716932877223e+00 5.039166672484013532e+01
8.219086420125078618e+00 -4.554263942753291161e+00 4.983148870712203404e+01
1.128992625155059670e+01 5.043478654914343995e-01 5.146571919649988303e+01
7.290834679368360938e+00 -8.619519590406985898e+00 4.848579283433817011e+01
7.093688966780389293e+00 -6.717505704252269005e+00 4.932997770253810899e+01
7.276202648781823434e+00 -8.964159673066308898e+00 4.828322758740709730e+01
6.041643782393306239e+00 -1.136358097420028557e+01 4.403733789308717661e+01
6.237669540848286509e+00 -1.073969756655835717e+01 4.546288494126562085e+01
6.600322541322055869e+00 -1.197280496702951069e+01 4.250232073028715973e+01
6.538573469380314584e+00 -9.423204377210870675e+00 4.752082275446635151e+01
1.157509131090776755e+01 -1.311912714217234921e+01 3.322918991874487205e+01
8.850256712147887228e+00 -1.317212993683873101e+01 3.706309200940705040e+01
1.097198941903925729e+01 -1.324317458953061966e+01 3.447026453503459464e+01
1.122830741524755105e+01 -1.322616501812310652e+01 3.410703737783055800e+01
6.713754548346801521e+00 -1.240480547216449381e+01 4.071321085301838849e+01
6.506428582430105578e+00 -1.219796673730022540e+01 4.150162149653226606e+01
7.715517390475063131e+00 -1.291875967198066455e+01 3.889877643045000610e+01
8.956593243384176617e+00 -3.422150598254255716e+00 5.010195982595724473e+01
9.704955993930559188e+00 -2.240914404675769855e+00 5.035326059828329903e+01
7.249251001782329062e+00 -5.968759869573384336e+00 4.951568647336723927e+01
6.938451704931686947e+00 -7.467039512134202361e+00 4.914377462519271944e+01
1.055252351828830015e+01 -1.461844465676812865e-01 5.103829138955406108e+01
9.760696759752487850e+00 -1.519531590734079396e+00 5.048133838905420845e+01
6.435060979897530231e+00 -1.002848921533910165e+01 4.675234523878435766e+01
6.336343525559133383e+00 -1.038433922813054622e+01 4.610755784927735590e+01
6.642212494076229490e+00 -8.816762588622589547e+00 4.829818223465107963e+01
8.007646247542416162e+00 -1.305027126352788613e+01 3.774396128183120425e+01
7.230667195995520657e+00 -1.270560224062348809e+01 3.981193044297042150e+01
5.846738694845633688e+00 -1.189972144785827091e+01 4.247543331889933427e+01
9.743542619002703020e+00 -1.323495155853801641e+01 3.523948790872928072e+01
9.097939763110680644e+00 -2.745612827147623669e+00 5.025384457550838846e+01
8.267375758496255500e+00 -3.881974720877177987e+00 4.997801526992477505e+01
7.414096425121107892e+00 -5.154881048842848479e+00 4.968450273370083892e+01
9.154756949166738877e+00 -2.024227546246671672e+00 5.038203767310114500e+01
6.790295089406447993e+00 -8.142273702742523156e+00 4.872243845811822638e+01
5.504080922026959755e+00 -1.115038723101069351e+01 4.434295784790567296e+01
5.944269131149391150e+00 -1.163180296238231293e+01 4.325626535044217746e+01
7.162543458129434271e+00 -1.292828340037344859e+01 3.842480094633306464e+01
8.783945869108981341e+00 -1.320209129309844620e+01 3.636007488542156807e+01
7.579071393375347299e+00 -4.341882701652447274e+00 4.985312753994715962e+01
1.065457535312247472e+01 7.321502708297012996e-01 5.158124925493221724e+01
9.814384607163916030e+00 -7.984967712352749603e-01 5.060934000611794659e+01
9.212075599872640908e+00 -1.302754313932051433e+00 5.051021488879383270e+01
6.586565902140336881e+00 -6.067352017194707514e+00 4.941272203545394603e+01
5.459398098664826726e+00 -1.093084895692101099e+01 4.481762478091744129e+01
5.733429958895271739e+00 -1.046623116158680489e+01 4.572064183474779497e+01
5.454994009788083353e+00 -1.139488801439645371e+01 4.365162448095690451e+01
5.832071399801380451e+00 -1.011061824281266297e+01 4.636532958744588484e+01
5.928954616873656214e+00 -9.355549548526999715e+00 4.737213443802959745e+01
6.077124461560226898e+00 -8.891651176087888686e+00 4.799242821551470684e+01
1.068889559197390504e+01 -1.322530008768947773e+01 3.367071569708652845e+01
1.017627938505661334e+01 -1.325932965188087564e+01 3.439717390702443112e+01
8.014474503356863622e+00 -1.311836232603053176e+01 3.704802777871869068e+01
5.777739323128349369e+00 -1.210382574499539388e+01 4.157581627884557918e+01
6.176948071755592018e+00 -1.245801343984339660e+01 4.024565406678646440e+01
8.717597809276853127e+00 -1.323199493308511165e+01 3.565703893359445686e+01
6.435196993899228168e+00 -1.260843307985656914e+01 3.979487836153550973e+01
6.401192218844022008e+00 -1.271988097858100275e+01 3.910131141178899128e+01
8.408479360514952816e+00 -3.205343761665699454e+00 5.013019606640844472e+01
8.549454151428500737e+00 -2.528872301776927678e+00 5.028222649725924498e+01
6.718831936007990890e+00 -5.699255909318573288e+00 4.950338366301854620e+01
6.354137895738006137e+00 -7.192780664472610219e+00 4.913481905560839635e+01
9.916828591067940124e+00 8.093064990915613266e-02 5.115297389544242890e+01
6.375500522104849743e+00 -7.523402431334051954e+00 4.897043938082814662e+01
5.780795968802484808e+00 -9.819123363548669658e+00 4.675768874676423081e+01
6.193822188213021995e+00 -8.036746887715697341e+00 4.863309816135686248e+01
6.012191767336068970e+00 -8.549644144655754729e+00 4.829417408248207977e+01
8.242402426949938743e+00 -1.317607449035082290e+01 3.656465733111877370e+01
6.609671286301339599e+00 -1.293780088068372258e+01 3.795090136580976292e+01
5.708810217180515068e+00 -1.230755141344015513e+01 4.067710032037143009e+01
5.302043410028166370e+00 -1.192344624853287094e+01 4.201354012934916682e+01
9.164192438929067208e+00 -1.326329943119842980e+01 3.474520740468900470e+01
8.605633878932581027e+00 -1.807539221283302355e+00 5.041052016273597758e+01
7.719811901382303887e+00 -3.664946678791691781e+00 5.000576694468667682e+01
6.966086942669164728e+00 -4.479335394961436734e+00 4.975670638230999998e+01
6.380502986654877695e+00 -6.617779079166600908e+00 4.926575546495537594e+01
9.143754497770178347e+00 -4.674556517948421641e-01 5.066151711211835362e+01
5.252150475859201251e+00 -1.054352191099641090e+01 4.539142176755716918e+01
4.779943628748843487e+00 -1.076670080527792628e+01 4.481760689322675972e+01
5.096120150026123063e+00 -1.153425384041288737e+01 4.308783827556649015e+01
5.126286394120682210e+00 -1.176723783735635287e+01 4.246769566274821983e+01
4.869407169416356318e+00 -1.120532790454707772e+01 4.386838319109091344e+01
5.512463147405297192e+00 -8.966456575383029204e+00 4.768681022184067331e+01
5.126450535283795240e+00 -9.609701412577862811e+00 4.676299460637940797e+01
1.014948261064279222e+01 -1.322442336891680803e+01 3.323439459391414630e+01
8.651226971128284760e+00 -1.326184213767636422e+01 3.495398875507609660e+01
8.706552283045825291e+00 -1.170895649671072958e+00 5.052790564380267568e+01
7.860638083488996841e+00 -2.988538071711477340e+00 5.015810949349340575e+01
6.752728410568325401e+00 -5.078867277067109498e+00 4.962145641140523367e+01
1.001923642962002781e+01 9.599424920844612519e-01 5.169662134904269379e+01
6.188820324145059004e+00 -5.430031681268167709e+00 4.949411982183910652e+01
5.229191873927254264e+00 -1.019265913862999184e+01 4.597835566562900311e+01
4.946924851282752833e+00 -9.041351426359870658e+00 4.738062499326638743e+01
5.383132309315413977e+00 -8.282877004714416458e+00 4.828931383938039801e+01
5.812516699193940539e+00 -7.579743084488800520e+00 4.879707725050802480e+01
7.177991128284236133e+00 -1.306457422637437560e+01 3.703294069980441350e+01
7.634535705786848148e+00 -1.318000988369398740e+01 3.606621788689390229e+01
5.639841672560311991e+00 -1.251124115503873213e+01 3.977781934341807357e+01
4.757744613243453102e+00 -1.194713074719151535e+01 4.155207067431617673e+01
9.380564033553561387e+00 -1.327548280472080933e+01 3.432405793516210935e+01
5.594379769843521366e+00 -1.265992752469129989e+01 3.885277415111629296e+01
8.001627706409129459e+00 -2.312227728250115355e+00 5.031029524871898673e+01
8.156581847830535636e+00 -1.586379411194339895e+00 5.044494791441033499e+01
6.955387554314975240e+00 -3.993305338282103545e+00 4.983864362964922634e+01
5.769027732469298009e+00 -6.918130927720823387e+00 4.912456621818580516e+01
5.923688255646400336e+00 -6.168041837264364169e+00 4.931052107688795871e+01
9.246268825294498228e+00 4.124302071694581073e-01 5.120575951002363269e+01
4.626623612067460201e+00 -1.027459016454295870e+01 4.559155680127182819e+01
5.084763843349052514e+00 -8.622531409749930376e+00 4.784083783591535166e+01
4.792867919397919785e+00 -9.910598966416534594e+00 4.618511126102151820e+01
6.056485879034902986e+00 -1.294731824253178587e+01 3.747672984195445878e+01
4.930852918176735322e+00 -1.221556841946625482e+01 4.054385377914821476e+01
8.584842262129688706e+00 -1.329163403696840007e+01 3.425092561773588073e+01
7.482961904900402139e+00 -1.977512099426008252e+00 5.030219612867394829e+01
8.311731660827987866e+00 -8.615068717207532423e-01 5.057924080375735088e+01
7.096071874462529294e+00 -3.316727007598907484e+00 4.999171273593388776e+01
6.353707901779361400e+00 -4.616686891981176544e+00 4.966181570082451202e+01
4.083866067199728889e+00 -1.087686288404958113e+01 4.418548492798189642e+01
4.100274306659682289e+00 -1.060248545907382578e+01 4.481758563481789537e+01
4.405274145533425667e+00 -1.163467631924856249e+01 4.245995329224786730e+01
4.234477757256278174e+00 -1.126025241957482059e+01 4.339358183884242237e+01
4.471984423434034461e+00 -9.400210033498732187e+00 4.676826302940695967e+01
5.249652215375667730e+00 -7.636046924364891630e+00 4.862373573716418917e+01
9.097466496886466913e+00 -1.325763217241811276e+01 3.352456887717800527e+01
5.548904608117738668e+00 -1.280848666571033334e+01 3.792751967582517381e+01
6.338860547180527050e+00 -1.301073239795614889e+01 3.701782237893627325e+01
7.805851189397667866e+00 -1.323784054597835791e+01 3.490939490056371142e+01
7.637940160793614375e+00 -1.252036243691452055e+00 5.043711761707196217e+01
7.236924534804747289e+00 -2.640150245289317965e+00 5.014451488701959647e+01
6.331992554586756583e+00 -3.644857001138340546e+00 4.982527696541971096e+01
8.467411670927583955e+00 -1.362618543386283354e-01 5.071346119320471502e+01
4.023984139283363959e+00 -1.035647312989845581e+01 4.520468304303902585e+01
4.484360377254363428e+00 -8.635618356194108003e+00 4.758002187040199971e+01
4.156094708141180760e+00 -9.940965241522784268e+00 4.585668922450407337e+01
4.753131051610460567e+00 -8.015646721352750248e+00 4.828357267954540077e+01
5.079402431832333420e+00 -1.251625768840752073e+01 3.927342125101873904e+01
4.213001154720979358e+00 -1.197081745122437368e+01 4.109022592547827202e+01
4.875221186725070766e+00 -1.239388545844953882e+01 3.975986998867088573e+01
7.026657491031929936e+00 -1.318393617252961292e+01 3.556777911038936679e+01
6.965285855573619678e+00 -1.643298484652782721e+00 5.029375996068824151e+01
6.036669461790211244e+00 -4.199450113271973706e+00 4.969726632286451462e+01
5.460263801911712456e+00 -5.715172943734229349e+00 4.934774508271520688e+01
5.183940031692588768e+00 -6.643474503491348493e+00 4.911662275171909897e+01
6.472606306185054059e+00 -2.968173790418398017e+00 4.997684944556573328e+01
9.439584423763045962e+00 1.294560011247885223e+00 5.175661366156095511e+01
7.792449256931450741e+00 -5.270523489691969488e-01 5.057165244663752901e+01
3.421006366710726443e+00 -1.043835281530574655e+01 4.481755943697649514e+01
4.046261717382985346e+00 -1.174989967124283829e+01 4.178910884594081665e+01
4.382310647030899453e+00 -9.116100672705746533e+00 4.707651354727806137e+01
4.686699564522395001e+00 -7.692342207185307146e+00 4.845034770749553843e+01
4.935302778675042745e+00 -7.168037384278969526e+00 4.878273487025349908e+01
4.518796236052793347e+00 -1.252126339208291483e+01 3.876885623265040692e+01
6.263885902005980277e+00 -1.307046370059066831e+01 3.628524433049720699e+01
5.503452722771508654e+00 -1.295683007779722473e+01 3.700266688272704130e+01
7.739454215577230123e+00 -1.326765742560696992e+01 3.420628391855851191e+01
6.718900756099372096e+00 -2.305653250964321277e+00 5.013563039961453427e+01
7.119620575592388256e+00 -9.176942925645517057e-01 5.042896373487688066e+01
5.658779672818231354e+00 -5.161804399348437933e+00 4.948538472955857515e+01
5.261848854249480567e+00 -6.268476773305895478e+00 4.921010490921252511e+01
8.666532063030160771e+00 7.470436895800978139e-01 5.126528686718384620e+01
3.698513608085085558e+00 -1.103316160854094541e+01 4.361752362345374934e+01
3.269192697891385890e+00 -1.074987537931884418e+01 4.402691352400063352e+01
3.599970326530103293e+00 -1.131510487940554022e+01 4.291905936067559679e+01
3.685258446409879429e+00 -1.150228696290654895e+01 4.245222079352052447e+01
3.685564701960550416e+00 -9.607187370022771233e+00 4.612167889146013522e+01
4.021798934150723426e+00 -8.229702205581757468e+00 4.777736293186268313e+01
4.361364452352471943e+00 -7.059223300912205623e+00 4.869092800880591909e+01
4.765478020600848907e+00 -1.268936995265019085e+01 3.797488172691608810e+01
4.371310617624791561e+00 -1.216730885693674225e+01 4.037305137388832321e+01
6.418725895166606854e+00 -1.318785377278729420e+01 3.506931128654399288e+01
5.741439744449481353e+00 -4.754046801086047935e+00 4.956925584832514886e+01
5.708478707304576183e+00 -3.296314192244450325e+00 4.981441811718749335e+01
7.860498982934841727e+00 3.385964770059299855e-01 5.071050080283948347e+01
3.553227287663994538e+00 -1.002315155753828435e+01 4.546947550508579639e+01
3.817880565620323630e+00 -9.190803403659923987e+00 4.677349003567629637e+01
3.919855340704740509e+00 -8.710346622684522089e+00 4.727479829735500516e+01
