-1.291296284239353831e+01 1.095699851464471486e+01 2.278247943621970251e+01
-1.698188789584126113e+01 6.696300401604212027e+00 2.590923273241619995e+01
-1.508771382589458732e+01 9.948102615309412755e+00 2.315841109572019008e+01
-1.629252860483731524e+01 8.478832689455208182e+00 2.409668156100941872e+01
-1.715515870966507350e+01 5.121848753520735542e+00 2.877607943136244373e+01
-1.680991222675362096e+01 3.826567099330308697e+00 2.988611109993181003e+01
-1.533696396608767643e+01 1.525644035884445859e+00 3.250408770295076266e+01
-1.504785555134763086e+01 8.118376343220292668e-01 3.269193597784682481e+01
-1.562600534976282596e+01 2.238818686633468502e+00 3.231702994566961706e+01
-1.583214033532839160e+01 2.887412325522412004e+00 3.213353143268179934e+01
-1.637947176994063980e+01 3.682952391996650476e+00 3.122640887166485513e+01
-1.044428924216215471e+01 1.158007831587488745e+01 2.280712636020589912e+01
-1.433526616649096574e+01 1.060266819609690359e+01 2.310208422166053310e+01
-1.675451067525720461e+01 7.051920673066815581e+00 2.501438413370569691e+01
-1.660879452445593074e+01 7.659688123222072598e+00 2.470978438697219204e+01
-1.664946640746370221e+01 3.785096887607970917e+00 3.055293891367286463e+01
-1.715152216818192699e+01 6.102621502422502786e+00 2.696044669818308037e+01
-1.566789998462679101e+01 9.847929011734695592e+00 2.368631579525930420e+01
-1.701216597138498443e+01 4.585216908847648654e+00 2.901913434102199929e+01
-1.721671239734396863e+01 5.627259553191160890e+00 2.832808194508281119e+01
-1.610982746478718752e+01 3.579295346428218227e+00 3.190121203133010042e+01
-1.469604647754533389e+01 6.437678091191711971e-01 3.337092634459824581e+01
-1.241306680919032956e+01 1.139846705368137236e+01 2.288119571396553908e+01
-1.348057872486216446e+01 1.100288237123266910e+01 2.300384788725356700e+01
-1.181993350412353827e+01 1.180534459307906126e+01 2.307971791748375878e+01
-1.646314201314024217e+01 8.267570530850628430e+00 2.440511954392921368e+01
-1.393296850522174957e+01 1.062706039444012696e+01 2.292852936106604744e+01
-1.616959738720393602e+01 9.211827484780464204e+00 2.415720909385476745e+01
-1.718416614113797536e+01 6.907908561190578389e+00 2.682888756279622555e+01
-1.696188825388763632e+01 7.322039273832968043e+00 2.558352384051010020e+01
-1.592462203033120183e+01 9.664152304929787718e+00 2.389441500936895935e+01
-1.697791694713960098e+01 4.456376093903466007e+00 2.966154602702331289e+01
-1.727055109285911527e+01 6.303502121320496698e+00 2.791079953634506339e+01
-1.681749896775314923e+01 4.414922492858675440e+00 3.032806069933054616e+01
-1.638764139708622736e+01 4.270803826928645464e+00 3.166894973399538316e+01
-1.584062103716178882e+01 3.476414579427612228e+00 3.257619460248174192e+01
-1.498540320848026752e+01 1.358566421998852025e+00 3.318253043328139995e+01
-1.527436160261020781e+01 2.072288485847136208e+00 3.299441187899204664e+01
-1.053921193409733625e+01 1.209978827130826673e+01 2.314140763967153092e+01
-1.338349978245400251e+01 1.146903837346966881e+01 2.325509717894509265e+01
-1.281358540624300346e+01 1.175840113350540861e+01 2.323725798759326722e+01
-1.683254261808813368e+01 7.862282113257446525e+00 2.531319347554831012e+01
-1.670326434446409181e+01 8.402538930525972560e+00 2.504284684513076797e+01
-1.665739155315068842e+01 4.373507104765996800e+00 3.099438349725844333e+01
-1.728116275004324365e+01 6.760460021710330558e+00 2.736019417986931401e+01
-1.715483226532399286e+01 7.573422801648305835e+00 2.644230844987476203e+01
-1.543556089918493157e+01 1.025184925925257673e+01 2.366334413631912170e+01
-1.714602765602899126e+01 5.087263695045492362e+00 2.943684813534237676e+01
-1.698557587399945845e+01 5.045736155216417274e+00 3.010334252123965015e+01
-1.731419623039807831e+01 5.718474061974209377e+00 2.921207854901856393e+01
-1.556309086516971085e+01 2.785356084103260521e+00 3.280635077466135385e+01
-1.611829174686358712e+01 4.168102266694132751e+00 3.234784499771338062e+01
-1.122700510097106452e+01 1.221237213883152961e+01 2.327786928417877022e+01
-1.000435795628195379e+01 1.234134878964482063e+01 2.326139537271442848e+01
-1.395342255794196440e+01 1.117979050998027901e+01 2.327271342622815098e+01
-1.241684719660086422e+01 1.190290063891784555e+01 2.324635488636097946e+01
-1.657389578728336943e+01 8.943480848530040106e+00 2.477214287230308543e+01
-1.511889708262320653e+01 1.051936042249640302e+01 2.348524645614438811e+01
-1.691016976329798638e+01 8.544394156111389194e+00 2.571774742497713362e+01
-1.522472797226546248e+01 2.617190265211365219e+00 3.350429182133810713e+01
-1.493591869208176881e+01 1.903780991081915452e+00 3.369261641080523617e+01
-1.666562260961067210e+01 4.962891850724355791e+00 3.143654532057170670e+01
-1.464696366344650968e+01 1.189977528334022816e+00 3.388111697566979075e+01
-1.598960830753787654e+01 1.036916639415783870e+01 2.427731779670311596e+01
-1.715378451874165933e+01 5.676897561296595285e+00 2.987827698119101072e+01
-1.639617553064408284e+01 4.859983370118475143e+00 3.211500887670928961e+01
-1.555320739873977232e+01 3.380435941787673038e+00 3.326530724198628519e+01
-1.475829751789428634e+01 1.113155161445741825e+01 2.362013558978356542e+01
-1.703939791169014129e+01 8.004141554734120589e+00 2.598804825301141008e+01
-1.618414001177967165e+01 9.894370808187776589e+00 2.444221267349857740e+01
-1.637897685193736308e+01 9.418962112183807633e+00 2.460721352321687050e+01
-1.682542626607198599e+01 5.004255792172759065e+00 3.076978420545284720e+01
-1.583076737506368836e+01 4.072169253010263112e+00 3.303323119453920498e+01
-1.610842239354069960e+01 4.763393795407999676e+00 3.280357999940816427e+01
-1.746535149236803619e+01 7.290358738852344977e+00 2.851034040145561477e+01
-1.459794104249630742e+01 1.735281889573549785e+00 3.439149777971670119e+01
-1.734789700757723097e+01 7.824854151720717077e+00 2.730100090197588258e+01
-1.741101187858566846e+01 7.418367316483320373e+00 2.775989742601196397e+01
-1.738973491756352630e+01 6.504475411186928291e+00 2.886115322547520634e+01
-1.063415911929583224e+01 1.261962259160611488e+01 2.347568880094285859e+01
-1.397391687973355268e+01 1.173305588901409280e+01 2.361715695280799210e+01
-1.321410834655456235e+01 1.211845428891569298e+01 2.359332100119470610e+01
-1.182638587520588302e+01 1.264576841888807301e+01 2.368790857778525094e+01
-1.443912506906507609e+01 1.148479746665937284e+01 2.368477269613842751e+01
-1.674877474187085014e+01 9.220476351351212685e+00 2.538014260694677304e+01
-1.661132418610566930e+01 9.630403789497076872e+00 2.520303687130612857e+01
-1.724385760002658685e+01 8.526509050116530375e+00 2.692312344267486779e+01
-1.521524546456666727e+01 3.212512019056877666e+00 3.396367921311302496e+01
-1.683366628831522860e+01 5.593742838647674631e+00 3.121119000405129995e+01
-1.699353295449736478e+01 5.635298580002679358e+00 3.054506619764765674e+01
-1.488680105812214549e+01 2.448912107304691332e+00 3.420275786732202761e+01
-1.430925310112464999e+01 1.021387458564546824e+00 3.457980061391982929e+01
-1.558543968720102413e+01 1.101484323888427141e+01 2.420799936884916193e+01
-1.738950439442213280e+01 6.339374799978115149e+00 2.963595542905581226e+01
-1.242063813859243915e+01 1.240742525443972077e+01 2.361150359983040659e+01
-1.711710829923372046e+01 8.686307569778648485e+00 2.639254035834043677e+01
-1.702031836932099651e+01 9.091804324785913494e+00 2.619005282659865586e+01
-1.639220694634519404e+01 1.016491849657323598e+01 2.501748408793536171e+01
-1.582135371251135503e+01 4.667122540166102063e+00 3.349216147011787825e+01
-1.554371978209946548e+01 3.976210833745534856e+00 3.372474548438079012e+01
-1.667417746509454091e+01 5.552232582047487597e+00 3.188235925708863050e+01
-1.638610900535740456e+01 5.455434453985515297e+00 3.257638508259675802e+01
-1.745741225808630048e+01 7.043895828086118804e+00 2.932182613864600995e+01
-1.454933419148008689e+01 2.280462918341684908e+00 3.490189112248516778e+01
-1.426102259931186822e+01 1.566910605998184325e+00 3.508992050325401379e+01
-1.515007089465707857e+01 1.108982593690278229e+01 2.381158726897451317e+01
-1.617315499858356986e+01 1.069944881867801811e+01 2.483179676945261960e+01
-1.722947460710626899e+01 6.298258873849283290e+00 3.030264407354513878e+01
-1.706967978408632902e+01 6.256685277424788971e+00 3.096880415892681526e+01
-1.399440716764920012e+01 1.228568076477843896e+01 2.396111835674596335e+01
-1.518130089715933906e+01 1.166067312149129975e+01 2.413810274786477805e+01
-1.692357356599412554e+01 9.497300658738456747e+00 2.598755919934907510e+01
-1.609896520799093977e+01 5.358783958898147404e+00 3.325962015706202379e+01
-1.520626929629636592e+01 3.807214750821430904e+00 3.442251484048313159e+01
-1.691018904989275384e+01 6.215003401328837995e+00 3.163954889531684245e+01
-1.668962612083780428e+01 6.180812005302242618e+00 3.230088536109766295e+01
-1.754107819175367311e+01 8.076316052091087272e+00 2.815953552988149156e+01
-1.751565060896864878e+01 7.623974871178063495e+00 2.916205341666404749e+01
-1.756018134226628646e+01 8.108441403890454424e+00 2.884669650313964340e+01
-1.598253484514366107e+01 1.104654614452950945e+01 2.474174890499953250e+01
-1.746544083725961372e+01 6.961297139345007601e+00 3.006022664397620758e+01
-1.752244741195785238e+01 7.550931527098144080e+00 2.979696128068255945e+01
-1.479230463585701294e+01 1.205343449199219563e+01 2.419419311264003625e+01
-1.361464951511418064e+01 1.247864270070800430e+01 2.394939776668796583e+01
-1.294744654786763149e+01 1.285718516731546579e+01 2.406266145881823704e+01
-1.242443433959453358e+01 1.291154572570126469e+01 2.397627903047852982e+01
-1.719502789464483072e+01 9.368512388187815176e+00 2.679699039375171665e+01
-1.664891423872474974e+01 1.031746807695424728e+01 2.563399158327829497e+01
-1.689252977630314234e+01 1.038911371578021914e+01 2.632983546088988902e+01
-1.709834214556170195e+01 9.774016779068070093e+00 2.659454889487489027e+01
-1.635681955131212462e+01 1.102996803253359204e+01 2.538635506930802066e+01
-1.745169961726037755e+01 8.734451595738159213e+00 2.784014781292231078e+01
-1.553468863743717243e+01 4.570833227936415000e+00 3.418335316616016684e+01
-1.581238173497107979e+01 5.262156024496075446e+00 3.395089465805952500e+01
-1.552612953463621892e+01 5.165464307681980394e+00 3.464194543109253033e+01
-1.487784172347370237e+01 3.043705862938127726e+00 3.466182954352061074e+01
-1.757952921106669208e+01 8.140589259401586730e+00 2.953370229611451947e+01
-1.754320079989107484e+01 8.673646469087588073e+00 2.858019732380218514e+01
-1.730572333197345714e+01 6.919688322090956412e+00 3.072641035381615993e+01
-1.421327389272069297e+01 2.112230170398268214e+00 3.560001572727707497e+01
-1.388761952077927653e+01 8.156148402372309647e-01 3.529375504705338074e+01
-1.440376365100752842e+01 1.244586753082171171e+01 2.424987072972020741e+01
-1.709037042703833009e+01 1.059742539732684641e+01 2.696642557944370111e+01
-1.736239273713262676e+01 9.392594145206990319e+00 2.752076167767178561e+01
-1.640228293919003733e+01 6.084150993572539967e+00 3.298719138426831421e+01
-1.582949281309516465e+01 5.890951464885028521e+00 3.436385301696450512e+01
-1.519778713650271840e+01 4.402091752229516430e+00 3.488135533728099347e+01
-1.486940089417648991e+01 3.638549341806824433e+00 3.512092334313211239e+01
-1.714633611468980234e+01 6.878099979960738075e+00 3.139665887470637884e+01
-1.756088897470667831e+01 8.660033492420284418e+00 2.918287462722427250e+01
-1.754192259995537029e+01 7.583223557178038199e+00 3.048407457095157014e+01
-1.738254009570301406e+01 7.541275060253949114e+00 3.115375990064249834e+01
-1.454119041956215597e+01 2.876013775757685131e+00 3.536050413091457756e+01
-1.567945292156682591e+01 1.153095465497463223e+01 2.468996272309744100e+01
-1.513679938271562442e+01 1.231978465633771158e+01 2.461185161602135807e+01
-1.668666037366894628e+01 1.100440801394836043e+01 2.606484472036919087e+01
-1.727316399688736581e+01 1.005074209036989075e+01 2.720137668316708357e+01
-1.611567616057461905e+01 5.987747118102513255e+00 3.367224004442621066e+01
-1.511778625168300572e+01 4.998560035053213113e+00 3.534932447590801274e+01
-1.692582479414870988e+01 6.843602594813757101e+00 3.205757741734318245e+01
-1.670560812051711608e+01 6.809111954630769681e+00 3.271716115974837891e+01
-1.759912250547205304e+01 8.172761681974552772e+00 3.022054338537351725e+01
-1.754569297684842510e+01 9.271028007103765844e+00 2.900048091025411878e+01
-1.744883817452370778e+01 9.445152124027467622e+00 2.829276000484660969e+01
-1.761896334148031329e+01 8.204966135286639428e+00 3.091068158805246568e+01
-1.384029412199195441e+01 1.361144178049723763e+00 3.580382376890656104e+01
-1.597556041137699800e+01 1.172436735066865587e+01 2.520645899825267477e+01
-1.537640671690073368e+01 1.201542181082728256e+01 2.463785024727670248e+01
-1.401493412539691796e+01 1.283872217770800717e+01 2.430524476496609765e+01
-1.348669719419810953e+01 1.319950199630899235e+01 2.443911618157822829e+01
-1.690762172849114364e+01 1.114410979925537148e+01 2.673141382380305231e+01
-1.734258073487406904e+01 1.015458372124431285e+01 2.786167209628825603e+01
-1.545336000356092043e+01 5.781488167236169318e+00 3.505443175531765831e+01
-1.478967495419067113e+01 4.235084470730016371e+00 3.558871368768568999e+01
-1.716214096686911006e+01 7.507014007372997177e+00 3.181468678167356856e+01
-1.446182962465768362e+01 3.473486918280821456e+00 3.582810884689088482e+01
-1.413403293864661059e+01 2.709737423773179721e+00 3.606729869998390114e+01
-1.641903137998285089e+01 6.712941409114377755e+00 3.339851707967392258e+01
-1.757204965690205611e+01 8.994212673111796619e+00 2.974607291572297285e+01
-1.384626082269365277e+01 1.950677793387437298e+00 3.617820984456331956e+01
-1.434469150748755339e+01 1.332500411904115900e+01 2.488197136456019720e+01
-1.509230132794652413e+01 1.297980131681952898e+01 2.508619478048204954e+01
-1.557160062972931414e+01 1.237046860251459535e+01 2.513759985970959221e+01
-1.654068646861520619e+01 1.136083389770735863e+01 2.594122634534317484e+01
-1.625468004845332715e+01 1.188175709784107070e+01 2.580651841414204739e+01
-1.725192192959268667e+01 1.064472119372801906e+01 2.764579946726154347e+01
-1.704634887215590311e+01 1.126015820319378768e+01 2.738174679853497651e+01
-1.672460375134842536e+01 1.169174505319280044e+01 2.649592926248423552e+01
-1.613299580498011920e+01 6.616774810812199981e+00 3.408505941003980411e+01
-1.577604110195438381e+01 6.617896671466841241e+00 3.478717358113480884e+01
-1.694201185755044392e+01 7.472516423960081866e+00 3.247656696381128683e+01
-1.438269921583106381e+01 4.068489087435101403e+00 3.629576093952956484e+01
-1.405512943390846914e+01 3.308830758200849598e+00 3.653534081573698700e+01
-1.748435854344960916e+01 9.814025943300062949e+00 2.884000125819758154e+01
-1.741216575145634238e+01 1.025845396706315782e+01 2.852158105982145031e+01
-1.759655785856001842e+01 8.958837469734362458e+00 3.055565661983432335e+01
-1.739850357992509089e+01 8.170435869082279368e+00 3.157186978848978143e+01
-1.295921862413744385e+01 1.355986241841954154e+01 2.457258506791836439e+01
-1.596869158978525860e+01 1.240272006971165197e+01 2.567152371340594286e+01
-1.504575856478590801e+01 5.614143685162837905e+00 3.576126589770200326e+01
-1.471036517330098192e+01 4.831707834279241887e+00 3.605650909268158699e+01
-1.672219930153429601e+01 7.438511752077361372e+00 3.312795126386854605e+01
-1.376741528671881554e+01 2.549193850429825936e+00 3.664609238411591718e+01
-1.754857278144348243e+01 9.868450142654861423e+00 2.942017791842810936e+01
-1.757419335546193651e+01 9.712491984161575331e+00 3.020074344309070113e+01
-1.756266494916443932e+01 8.810256813152467004e+00 3.129176126663935875e+01
-1.347813148855678023e+01 1.362784841002965130e+01 2.480893721810878105e+01
-1.395384360237787114e+01 1.332294226625287159e+01 2.470571745752500092e+01
-1.647043982350822944e+01 1.215453884903006987e+01 2.637631424089983057e+01
-1.731777291760650783e+01 1.070022528548310525e+01 2.822619513660944079e+01
-1.723094463607723625e+01 1.123870970101260802e+01 2.809003857265506809e+01
-1.643638103955517948e+01 7.342314250913493545e+00 3.381040489624347600e+01
-1.538114219864743504e+01 6.396888198240906043e+00 3.546650167641234219e+01
-1.613564703111260812e+01 7.254155149663840341e+00 3.435891349195014044e+01
-1.717846663990351175e+01 8.135928583569013384e+00 3.223334600164527330e+01
-1.397684093412632400e+01 3.901975262847253489e+00 3.700266125008747764e+01
-1.430403609443759905e+01 4.664915920777938041e+00 3.676341562080539660e+01
-1.695882846906119923e+01 8.101442020370019037e+00 3.289250015318391007e+01
-1.753194620394716097e+01 9.687916395062611485e+00 3.096243545135148523e+01
-1.734266090469098742e+01 8.775647353075036960e+00 3.195292566214282104e+01
-1.389286446782651829e+01 1.380648130078086666e+01 2.510556586280301872e+01
-1.621632418794639818e+01 1.261731009431937878e+01 2.625647781210134113e+01
-1.734083392759114162e+01 1.106747540505803329e+01 2.878539321611065915e+01
-1.748191652565845189e+01 1.036234781913546676e+01 2.918084101958658394e+01
-1.755186143978172808e+01 1.046630452418179402e+01 2.984575757104832405e+01
-1.560961087297961036e+01 7.100302992124154500e+00 3.532638365214629061e+01
-1.589109552876096743e+01 7.284767730466707114e+00 3.485362619425105635e+01
-1.359804467150231311e+01 3.106279313395869046e+00 3.725800720626691742e+01
-1.463905301398175141e+01 5.447157650155840081e+00 3.646826279130891635e+01
-1.750687782439164408e+01 9.415365440936222186e+00 3.167280530851402531e+01
-1.721023030315240732e+01 1.183314323028526971e+01 2.853434944913000137e+01
-1.731046093950794429e+01 1.177430307629081163e+01 2.926688047009098881e+01
-1.751262292658492825e+01 1.050616209657162692e+01 3.049310447588922202e+01
-1.743117514067550999e+01 1.112015052748627753e+01 2.955638581775693652e+01
-1.673938779700575452e+01 8.066942106099421750e+00 3.353908952243557451e+01
-1.613861759408946028e+01 7.891551070086221031e+00 3.463278026710854363e+01
-1.643886367237049129e+01 7.979240594051336011e+00 3.408441394711996253e+01
-1.583812023935022673e+01 7.803716579335898906e+00 3.518614706438523143e+01
-1.352103446041577683e+01 3.698927525421164653e+00 3.772498460676450804e+01
-1.712307108678525580e+01 8.741169478448302499e+00 3.261468353844639267e+01
-1.748325296107766036e+01 1.002769936244301441e+01 3.148460101038571324e+01
-1.747372752272226393e+01 1.054601340762586936e+01 3.114039681990721320e+01
-1.748916520077385783e+01 1.106621208267319467e+01 3.024164425009912449e+01
-1.735342095874211310e+01 1.183463056056914198e+01 2.998321618216733242e+01
-1.690368104586617903e+01 8.706431523525608895e+00 3.327033543637964641e+01
-1.497426167702287714e+01 6.229779756722795270e+00 3.617325263745279074e+01
-1.530944350271571963e+01 7.012218727663737994e+00 3.587852983324059863e+01
-1.389911635360868303e+01 4.498239900687022619e+00 3.746975581394359978e+01
-1.423337691326019794e+01 5.279708144581706009e+00 3.717507532789568359e+01
-1.728734654471345777e+01 9.380895552454378006e+00 3.233409418411707748e+01
-1.745163344816075224e+01 1.002060839707218598e+01 3.205401785371196866e+01
-1.661389745685644570e+01 8.671229224244170197e+00 3.390423899392973794e+01
-1.553810342128621613e+01 7.715947441653940864e+00 3.573850594641247369e+01
-1.631367548018532077e+01 8.583813409615450141e+00 3.444958843218926603e+01
-1.604089165526535155e+01 8.400339639874600195e+00 3.492523565694818188e+01
-1.490331738320433530e+01 6.845553383151849580e+00 3.658535815295441296e+01
-1.456833411308844717e+01 6.062663828789424336e+00 3.688008221325847558e+01
-1.344104591148100347e+01 4.344352656186273975e+00 3.797119976132247388e+01
-1.743516620975818299e+01 1.058588662550339876e+01 3.178814420953073494e+01
-1.745776070933544233e+01 1.105984983565806345e+01 3.081042459430884861e+01
-1.706814493467193472e+01 9.346428926280280436e+00 3.299647538860040896e+01
-1.677834549945588449e+01 9.311242783175275761e+00 3.363516515031686538e+01
-1.578862845256151104e+01 8.430129570226068125e+00 3.541228302465974309e+01
-1.523822463828680007e+01 7.628142466479195249e+00 3.629096063291054719e+01
-1.740587237748758653e+01 1.139745336876464066e+01 3.134018030280133260e+01
-1.742686607077580518e+01 1.166614023908076625e+01 3.063758846114086509e+01
-1.648876605535385664e+01 9.276081496992594211e+00 3.426971129062165033e+01
-1.610350859845847182e+01 9.056715505886046458e+00 3.494739887148578106e+01
-1.548890021224077351e+01 8.342465942181634730e+00 3.596487382983811187e+01
-1.723260370442573475e+01 9.986233467431819832e+00 3.271546557416471757e+01
-1.694298108178264428e+01 9.950757221157363830e+00 3.336625583671396811e+01
-1.739702893096629310e+01 1.062570777743608197e+01 3.243522663534660921e+01
-1.366503934172486545e+01 5.106544250430279597e+00 3.777533102302325574e+01
-1.400747641332631588e+01 6.003800985613302110e+00 3.748156858547680059e+01
-1.296686150972416662e+01 4.190369684355473190e+00 3.847332235171678150e+01
-1.478210608536511472e+01 7.488769748547621674e+00 3.677142810994354960e+01
-1.444749723868554092e+01 6.706069944646096737e+00 3.706584637188209541e+01
-1.665351310064978918e+01 9.915451789782546044e+00 3.400002641695591876e+01
-1.573950408427876191e+01 9.056561660154336835e+00 3.563831607823892256e+01
-1.710767820196743827e+01 1.059026866986194904e+01 3.308452196131910483e+01
-1.721935912254133783e+01 1.121285886997871017e+01 3.278358595157434507e+01
-1.319538334547709724e+01 4.952887924210237713e+00 3.827715328076582324e+01
-1.736589897477498923e+01 1.137233343331334012e+01 3.209992983709244641e+01
-1.498769213632466801e+01 8.209358813215622774e+00 3.655905679117795160e+01
-1.636435924455906843e+01 9.879926517487049864e+00 3.463456152868980098e+01
-1.598994898854952496e+01 9.770192368097669444e+00 3.531636600986831098e+01
-1.523853669267524857e+01 9.030829351623287593e+00 3.622784600725462667e+01
-1.681832958633617991e+01 1.055482399443929786e+01 3.373358252432617377e+01
-1.405717980451567506e+01 6.693047690851083864e+00 3.748709889705296661e+01
-1.342390088051541142e+01 5.715703660435097255e+00 3.808131369768970131e+01
-1.432694970591445660e+01 7.349499871048087662e+00 3.725162523165921868e+01
-1.652932134139699372e+01 1.051941118271057185e+01 3.436470892674064004e+01
-1.558937643715056076e+01 9.663871310124273251e+00 3.578694950999406643e+01
-1.693002254539535301e+01 1.117798427315944032e+01 3.343392336310008517e+01
-1.266232290532861526e+01 4.779853312508797636e+00 3.884109199034978843e+01
-1.364584750475933639e+01 6.462924352878940404e+00 3.790665872189472196e+01
-1.473790093444139515e+01 8.790361197608117294e+00 3.682693794260410414e+01
-1.453242670211009546e+01 8.069889541465139260e+00 3.703924821396463329e+01
-1.386778812283269069e+01 7.210154945406387128e+00 3.773216088891621212e+01
-1.624046593155611262e+01 1.048401275442500058e+01 3.499954678170461619e+01
-1.667584239396376944e+01 1.122910569154999116e+01 3.399590107224307189e+01
-1.283150405608212452e+01 5.523284075655185532e+00 3.870774316955556316e+01
-1.317830936220453353e+01 6.323977933496149006e+00 3.838683770731953615e+01
-1.583978428140108186e+01 1.037756671223505833e+01 3.546948778221780429e+01
-1.488873103318815261e+01 9.477608430236884374e+00 3.661920348013629933e+01
-1.412734710351611689e+01 7.840752659469039543e+00 3.746462648662391359e+01
-1.415754703904251599e+01 8.505102409501683169e+00 3.743240056365347357e+01
-1.638967713610164267e+01 1.131528685764128284e+01 3.461294592015133276e+01
-1.523901946615261771e+01 9.675775257329345180e+00 3.619801467585968169e+01
-1.258614645139785537e+01 6.131631927761181267e+00 3.901292982094033590e+01
-1.448544798777180631e+01 9.370785418042107295e+00 3.709441078000211434e+01
-1.372280973895785827e+01 7.825812727486537668e+00 3.787966754029768168e+01
-1.357783262015497705e+01 8.441562494914540693e+00 3.802717647098807419e+01
-1.390038725729655411e+01 9.196713533169036836e+00 3.769481869673144558e+01
-1.543966971200202920e+01 1.027122552523063170e+01 3.593967702043025980e+01
-1.682133090612423132e+01 1.172375609102696714e+01 3.363298540434934125e+01
-1.503962661274393398e+01 1.016485241994385191e+01 3.641060238700364238e+01
-1.569317872623937760e+01 1.095332452378283250e+01 3.581426650777515874e+01
-1.340023032714517370e+01 7.070967453847822881e+00 3.821222746323946495e+01
-1.223909167252591246e+01 5.330941369669811358e+00 3.933443789854845818e+01
-1.293289014723012720e+01 6.931844912713477136e+00 3.869214631223193379e+01
-1.609330933409528797e+01 1.105988277867317393e+01 3.534443402828160430e+01
-1.463257264999332463e+01 1.005860515044871484e+01 3.688612272829227123e+01
-1.653888193493469672e+01 1.214625088488345028e+01 3.423073894922220717e+01
-1.532628005890896894e+01 1.075523037705745644e+01 3.621763047223569743e+01
-1.245932336349629743e+01 6.787027164265208690e+00 3.921856105900864264e+01
-1.616524099821975824e+01 1.165907329031031381e+01 3.515254030001285201e+01
-1.325536838687439278e+01 7.686685379021790609e+00 3.835954582870633800e+01
-1.315442032249866600e+01 8.980532176466043737e+00 3.849107397416116072e+01
-1.422308875936258232e+01 9.952250799876612319e+00 3.736218006531142066e+01
-1.629563234956454920e+01 1.218502838109818853e+01 3.482081412391715247e+01
-1.498695234462031145e+01 1.076744104196573026e+01 3.663794236741833998e+01
-1.542728765039366223e+01 1.139586283106387121e+01 3.626840948518641028e+01
-1.189144112686335042e+01 4.529216186728314497e+00 3.965699064961525977e+01
-1.300409114454736148e+01 8.275106514762606835e+00 3.863960089179243340e+01
-1.376425790232040747e+01 9.819222239446464329e+00 3.785213191645271280e+01
-1.594669422594874142e+01 1.163543115858059096e+01 3.568912539028674047e+01
-1.268163375685941752e+01 7.520152889910638017e+00 3.897204348733630752e+01
-1.181580798569987323e+01 5.895829038171936709e+00 3.986958599327226693e+01
-1.159669091160019860e+01 5.134263401987466224e+00 4.004909114205790388e+01
-1.198554214892021719e+01 6.642177070273578288e+00 3.974530885871090646e+01
-1.330475026666552196e+01 9.686000388965718244e+00 3.834263862276473134e+01
-1.605884168331396822e+01 1.225860389198625988e+01 3.539822803875016177e+01
-1.457792515525322052e+01 1.066144340146248481e+01 3.711190472665104778e+01
-1.493248292319361425e+01 1.137007806485439509e+01 3.686528362803838377e+01
-1.220794784654076537e+01 7.375271894161286923e+00 3.949850395347004905e+01
-1.390306565323277255e+01 1.067641203671472638e+01 3.772149262984989804e+01
-1.263810547256382932e+01 8.830790440255249507e+00 3.904215098043246712e+01
-1.642956969526702693e+01 1.292922800171948161e+01 3.447840050025066461e+01
-1.528692190911937487e+01 1.207847764188299600e+01 3.662190747868616114e+01
-1.579822936287768798e+01 1.221122498345777885e+01 3.603395926859455045e+01
-1.451493097570965496e+01 1.155809767801903654e+01 3.725849457801812292e+01
-1.243034743674115283e+01 8.108656246664839529e+00 3.925204264972224877e+01
-1.284586282368099752e+01 9.552962581282184118e+00 3.883240799825046707e+01
-1.617103305312657469e+01 1.288177493918092864e+01 3.510878624093565037e+01
-1.564147392000373493e+01 1.278711116390794977e+01 3.637884342195973630e+01
-1.504646325750835878e+01 1.262084689856067321e+01 3.689364156831958752e+01
-1.128215802420021063e+01 5.732718257695376352e+00 4.046320549422198809e+01
-1.151127484846804094e+01 6.497208960307903070e+00 4.027269442060632798e+01
-1.154507529232865792e+01 7.092131050481495613e+00 4.023533496465547898e+01
-1.311744421307837349e+01 1.054962114979394094e+01 3.856267837879174465e+01
-1.405780120261219146e+01 1.161023607552844439e+01 3.767306523520934292e+01
-1.445193467579514923e+01 1.245483088760372503e+01 3.740818082252217636e+01
-1.183763904940219014e+01 7.927596047796966694e+00 3.991069980607257150e+01
-1.358323031045119222e+01 1.139728012789340994e+01 3.808050468564959345e+01
-1.217899438765753395e+01 8.697405977384406128e+00 3.953217732662425732e+01
-1.590727039419515521e+01 1.283443187755216286e+01 3.574246877194688921e+01
-1.103660236133008254e+01 6.352150206677402267e+00 4.080062907067522104e+01
-1.238631835902292799e+01 9.419739041184973516e+00 3.932285347599263758e+01
-1.385745180808664045e+01 1.228588133857431686e+01 3.792281399797227692e+01
-6.549816632595030219e-01 7.540349316049842265e+00 2.085724327150977686e+01
-2.163046730470492562e-01 7.982368791445981770e+00 2.107438311713130830e+01
2.243188764159510518e-01 7.483813592750532706e+00 2.088952411746151228e+01
-6.180598231185947533e-01 7.011535913901552064e+00 2.071962628368791570e+01
3.617772681734606754e-01 8.080837471057343180e+00 2.114636119119468205e+01
-1.096231284245248405e+00 8.039252995144972047e+00 2.104223740076607996e+01
-1.534789019714152047e+00 7.596885567425620600e+00 2.082496218540329735e+01
-6.577446186910186343e-01 8.481623707634190268e+00 2.125944380959971625e+01
-1.285490930634567430e+00 6.756536283601489501e+00 2.061648407108848247e+01
4.999524263187342110e-01 8.678691218292515330e+00 2.140350260511214486e+01
-1.986952286382517308e+00 8.262771685587587456e+00 2.108065403712094721e+01
-1.387988549186990328e+00 8.515946811415235018e+00 2.122727634703486643e+01
-2.308137938663682442e-01 9.128556595273431995e+00 2.155245464279703071e+01
-1.099384168445478815e+00 8.980959369673598758e+00 2.144447897418512383e+01
6.389560690035946955e-01 9.276172775710401552e+00 2.166043062877153247e+01
-1.869101892895697725e+00 8.912629763061291399e+00 2.136593942822635483e+01
-7.561704551969193888e-01 9.505337612307123152e+00 2.168178787513779682e+01
-2.638960039363692722e+00 8.844298904320003984e+00 2.128738952664660289e+01
-1.541268529079819816e+00 9.480468385460708802e+00 2.162952499868176659e+01
-1.439811806730604826e-01 9.908693397599844133e+00 2.188288912602711989e+01
-2.310754963556630237e+00 9.411782921440167371e+00 2.155087826891847058e+01
-1.063052700009165630e+00 9.943963298569244103e+00 2.184857261758290292e+01
7.779222575752811064e-01 9.873429554095517702e+00 2.191720833834651216e+01
-1.982571709761677514e+00 9.979249685659961955e+00 2.181425068450917593e+01
1.313680910485723441e+00 9.437909968544666128e+00 2.178762884742806349e+01
-2.875765645079380040e+00 9.632634753504145664e+00 2.164550762781525250e+01
-6.308830958392720456e-01 1.044747964625623915e+01 2.215404306825686120e+01
-1.674856833394314348e+00 1.042928240181355193e+01 2.208263856027580019e+01
3.936260578980046998e-01 1.035005218175805375e+01 2.216001257729560692e+01
-3.338081385473382845e+00 8.770504817317839041e+00 2.124560834360965345e+01
-3.443520061283170453e+00 9.372510109622025354e+00 2.151998413172097813e+01
1.518313812508579552e+00 1.001612043764833793e+01 2.211199619988341780e+01
1.204717653542390632e-02 1.082690882057705117e+01 2.240282696019738751e+01
-2.331026223742608927e+00 1.055562341524695036e+01 2.214256947965796840e+01
9.645676507211961015e-01 1.041395252017808026e+01 2.224697541238577259e+01
2.146990153596334050e+00 9.597656398744188522e+00 2.200673045521465454e+01
-4.014982607294149908e+00 8.860514649874716042e+00 2.127906231483895283e+01
-3.344773170803177376e+00 9.855243129615422149e+00 2.174202681644226587e+01
-2.760600678120245899e+00 1.013113373223906599e+01 2.187489828451738916e+01
-1.366542878010514661e+00 1.088022389307898763e+01 2.235150599287406337e+01
-4.375212886600090556e+00 9.436196855864537270e+00 2.153847549426521368e+01
-3.956948872336123468e+00 9.859611287670473345e+00 2.173704328002821740e+01
-6.808774822172026786e-01 1.092443817187353616e+01 2.241635371104718288e+01
2.259116649036378988e+00 1.015781722054142833e+01 2.230681192233234711e+01
1.151392794209760595e+00 1.095489116136171326e+01 2.257683861520520452e+01
-1.869325070323001547e+00 1.123175097594590710e+01 2.254563609869749996e+01
1.705239339091476403e+00 1.055668936842881855e+01 2.244181491799038497e+01
2.981466859874011277e+00 9.755039057784953727e+00 2.222588715605446197e+01
-3.538693420224703345e+00 1.028303900688940509e+01 2.193554502729366362e+01
-3.109390740467345982e+00 1.070799732892755607e+01 2.220350562294626329e+01
-3.697255310150780461e-01 1.130407226832937084e+01 2.264569645134779918e+01
-1.058704458598998421e+00 1.133051282685223704e+01 2.261992175510378544e+01
-2.680099989381690140e+00 1.113299003761580153e+01 2.247134776255884248e+01
3.001274697212065856e+00 1.029784157110091769e+01 2.250165618987416849e+01
-4.735313225032461659e+00 1.001167016647646868e+01 2.179772768308337660e+01
2.890147535510793619e-01 1.163804315149027424e+01 2.289723688393408452e+01
2.446390395083155589e+00 1.069953290924717670e+01 2.263665007540572560e+01
-4.316837368129519348e+00 1.043497788858363684e+01 2.199619156710575041e+01
-5.222025727673388573e+00 9.559901549775652541e+00 2.155769281753212852e+01
1.892399390191176645e+00 1.109727318211528591e+01 2.277149659886475064e+01
1.338165938961142887e+00 1.149552950589282752e+01 2.290635514968001019e+01
-2.291629557192854438e+00 1.164265869253214625e+01 2.277594457820930174e+01
3.651049654200571926e+00 9.851376407935143575e+00 2.241777069753016249e+01
-3.887384246260714882e+00 1.085986355609340315e+01 2.226414451844397391e+01
-3.457947228893148317e+00 1.128454102274431747e+01 2.253182881268792670e+01
-7.510824830040107036e-01 1.178054367047236184e+01 2.288812172516523802e+01
-1.625063254047789840e+00 1.194881941399665237e+01 2.296786905259888911e+01
-3.028520915537503910e+00 1.170925144427482856e+01 2.279939760542776028e+01
2.951363334899704594e+00 1.079370783375731868e+01 2.280111734197085838e+01
3.600230174464426725e+00 1.056330801653990470e+01 2.281940653922420381e+01
-5.095342697616521477e+00 1.058703267918088642e+01 2.205686335309765411e+01
-5.582075248428242098e+00 1.013458926724012699e+01 2.181697059664481486e+01
1.114494849465652804e+00 1.204553909561833791e+01 2.324460296642340040e+01
-2.786061819100071890e-01 1.223559390342212794e+01 2.323246515589024597e+01
-2.500390525022291310e+00 1.211731164036244479e+01 2.304771245077765940e+01
2.901505651442571221e+00 1.128910902797676385e+01 2.310046599515838750e+01
-4.665226949061160866e+00 1.101230073352046013e+01 2.232511061518465567e+01
1.826310441215544866e+00 1.175633990455808053e+01 2.317098656351556230e+01
4.334005778807631382e-01 1.221329437401118412e+01 2.328792269882898225e+01
-5.338051259568388218e+00 1.119150693355099335e+01 2.244717267803837402e+01
-4.236083829535338907e+00 1.143668827910837393e+01 2.259264186290445409e+01
2.356970186258844802e+00 1.158849573030206237e+01 2.317564993540337781e+01
-9.949561541665062903e-01 1.228800485291052524e+01 2.321439852826926753e+01
-3.807034700848962228e+00 1.186103176514756008e+01 2.286000360460721836e+01
-3.377301759851916163e+00 1.228608610404813462e+01 2.312768383269772343e+01
3.462042659754476226e+00 1.121900004959843322e+01 2.319663042302850542e+01
-5.850634292546682325e+00 1.081796898679909269e+01 2.219730596713910131e+01
8.907410228943921648e-01 1.259584755417128754e+01 2.358296795454319295e+01
-1.953992176532628244e+00 1.252955749659554741e+01 2.333945343832879971e+01
1.939007309567994386e-01 1.269084941059372618e+01 2.357691380465326603e+01
-2.964121771763363444e+00 1.266736116587141936e+01 2.339419127155518652e+01
4.200539870698545286e+00 1.082901700273782808e+01 2.313731100588197620e+01
-6.440251865412998988e+00 1.034602779110750603e+01 2.194893297355842066e+01
2.313890836662226391e+00 1.201676574011074905e+01 2.343521703646551302e+01
1.602058025702004063e+00 1.230606373516464913e+01 2.350896430498424294e+01
2.851638457084632705e+00 1.178314993390186061e+01 2.339999861055778041e+01
-6.864753563206404952e-01 1.291095633405144305e+01 2.366037717196843104e+01
-6.092713228759305544e+00 1.142203141022213053e+01 2.258719394183237483e+01
-1.238843618450203188e+00 1.279542442349979581e+01 2.354060065105503696e+01
-4.693656321813648447e+00 1.182788686044673732e+01 2.284831975959414052e+01
-4.274415850204967171e+00 1.252512724895283114e+01 2.329057074121133297e+01
-3.582718432132628639e+00 1.283421188614934749e+01 2.350486798860733728e+01
4.136316520976083488e+00 1.149046004785752118e+01 2.353696382221971817e+01
-5.580304228182098925e+00 1.179484952688106958e+01 2.283661640977117102e+01
-6.605124467276827893e+00 1.104801738629023689e+01 2.233759486777293546e+01
2.089736891020569143e+00 1.256659847418435838e+01 2.377332680726513914e+01
2.801799415713027930e+00 1.227719544764514303e+01 2.369943961426473678e+01
6.672209244756360791e-01 1.314564763069509290e+01 2.392097412459130368e+01
1.378757146354536278e+00 1.285592906571198490e+01 2.384712479933460116e+01
-1.880424416124717002e+00 1.298829228977861305e+01 2.364489252024156585e+01
-2.551648954187732077e+00 1.304799832572389562e+01 2.366022941420894199e+01
4.806865793731406988e+00 1.109507560469484133e+01 2.345551608933052634e+01
-7.145474478945376795e+00 1.073118162304649381e+01 2.217347291752456684e+01
3.472369192271036020e+00 1.188598768339377187e+01 2.361823646862324111e+01
-1.310125738351058944e-01 1.336693896140506688e+01 2.401146975693081842e+01
-4.385720413106586335e+00 1.304791296625250041e+01 2.365047811718553916e+01
-6.335171102526345521e+00 1.202602265241894663e+01 2.297689737750519257e+01
-6.847589422604698939e+00 1.165187342136298554e+01 2.272737087930403632e+01
-1.482480843943088100e+00 1.330226720565845078e+01 2.386639788537701179e+01
-2.139241334809111272e+00 1.342859214404674972e+01 2.392622047922531081e+01
-5.048637347905452266e+00 1.227347355070649826e+01 2.313770588098391912e+01
-2.963543773638209977e+00 1.340514788517865696e+01 2.390390141099948096e+01
4.096025465849435498e+00 1.210872770669915433e+01 2.395161899940240247e+01
4.765068917663394465e+00 1.171352221666452387e+01 2.387038013210057130e+01
-7.360192493870691521e+00 1.127834134632666085e+01 2.247798705616333592e+01
3.418673724235434364e+00 1.271049241663732232e+01 2.417094233382320212e+01
2.708764962042758295e+00 1.284018599963953022e+01 2.409910256518942262e+01
1.907970062700078184e+00 1.316581768719530210e+01 2.418224512759427469e+01
1.107768226174528303e+00 1.349159804375043770e+01 2.426535501717437171e+01
-9.282597709804047970e-01 1.358820132774381584e+01 2.410195541354412541e+01
-3.787906404118108306e+00 1.338172454015384361e+01 2.388158242913579343e+01
-5.170111646147427464e+00 1.276382602046163761e+01 2.345319396413122703e+01
5.302904963768797941e+00 1.141784539172390289e+01 2.383830514505297771e+01
-5.822754053991946677e+00 1.239868565185952676e+01 2.322624874957339003e+01
-7.899833487668535881e+00 1.096123535283789074e+01 2.231364247023598324e+01
5.203911901240634297e-01 1.367841209936887203e+01 2.432287803807935589e+01
-1.726385373179506688e+00 1.380962044054396642e+01 2.419250756368156274e+01
-4.460223001929769282e+00 1.356077074122665493e+01 2.400357589805289038e+01
-4.974325144659565545e+00 1.327592782458682663e+01 2.380635669990255820e+01
-3.277929273391252174e+00 1.381100086407541028e+01 2.418193165973395153e+01
-7.090050816507528886e+00 1.225573066147907575e+01 2.311701540302612301e+01
-7.602097125917913090e+00 1.188191736456211878e+01 2.286761423357084766e+01
4.127215096581169362e+00 1.258272288276918793e+01 2.428725231600099832e+01
1.548194530029056271e+00 1.383746591293375161e+01 2.460956870001886543e+01
-3.437871175923362110e-01 1.397917413359119720e+01 2.446863586989641703e+01
-2.550607318370693211e+00 1.403250862930382681e+01 2.434036560358854828e+01
-3.993336332755978546e+00 1.392987887193240581e+01 2.425872205247867086e+01
4.723105562941547042e+00 1.233186871467089141e+01 2.428499307359765425e+01
5.798970658648294751e+00 1.174106674843423370e+01 2.422124894561655140e+01
-6.577599324949881421e+00 1.262996769770981942e+01 2.336644171983609652e+01
-8.113956622403522445e+00 1.150836225413590874e+01 2.261813263018598619e+01
-7.685829303879593510e+00 1.041441521928428848e+01 2.200924243755063969e+01
2.615706259495004460e+00 1.340349402738331541e+01 2.449889662923463263e+01
-1.273779639940638919e+00 1.417689628459315365e+01 2.452695341334392864e+01
-5.598970799718255620e+00 1.337102692257343683e+01 2.387058951883517821e+01
-3.375481246157078896e+00 1.425556831712519568e+01 2.448833207896725739e+01
-6.065163050059040550e+00 1.300242081327585275e+01 2.361569499027439178e+01
-8.625246876930665607e+00 1.113569404943180707e+01 2.241496862650744859e+01
-8.411203309908177772e+00 1.058868482742053097e+01 2.211042979302951395e+01
9.608069931580506262e-01 1.402440930528089957e+01 2.466725115406884683e+01
-1.869641328965703009e+00 1.433171443428365066e+01 2.462855901210240006e+01
-4.665622818145511275e+00 1.410908578825283044e+01 2.438082077760748945e+01
-5.132556100325673221e+00 1.373984105038734604e+01 2.412556872685249942e+01
5.509525672876768532e+00 1.219784732131114602e+01 2.444455627674525999e+01
-6.688727815136098265e+00 1.321936764036973955e+01 2.378989290733155215e+01
-7.201181922849772654e+00 1.284556307925752883e+01 2.354063326543148449e+01
-7.713434811749056763e+00 1.247142587120876200e+01 2.329121785288652902e+01
-8.225310029261782674e+00 1.209733489905583248e+01 2.304155978526517501e+01
4.028479097338019344e+00 1.313913439324400656e+01 2.464219949880984473e+01
3.283207888597872159e+00 1.355359723812443562e+01 2.477040500712498527e+01
2.522650739372541917e+00 1.396690586540219314e+01 2.489871054610964052e+01
3.744085602842155969e-01 1.421137442818272767e+01 2.472495242486199274e+01
-8.213222418946453107e-01 1.454411376290998703e+01 2.486138273876159133e+01
-4.198840252931599792e+00 1.447822760215800919e+01 2.463603116665589710e+01
5.321563630569332126e+00 1.268653137855371682e+01 2.472238833176618655e+01
1.988873655614682212e+00 1.418354616923492806e+01 2.495388055458114707e+01
-8.743943486004063459e+00 1.178502438436326649e+01 2.283251084248051654e+01
4.680937564853892674e+00 1.294979859821326684e+01 2.469915047021354937e+01
-1.994683381400470246e-01 1.444205457154255257e+01 2.484598857373262959e+01
-2.762611627301345241e+00 1.463300773578091274e+01 2.483955699850638155e+01
-6.164437155111994748e+00 1.354724134250169243e+01 2.403028710910315269e+01
-1.417078873216593760e+00 1.469902013765863025e+01 2.496307314399417621e+01
-9.340385569598174342e+00 1.142523346319145716e+01 2.264204672957581721e+01
-9.136583493215779228e+00 1.076380042228024969e+01 2.221159163399366321e+01
1.009929173263246494e+00 1.449508344568334373e+01 2.505015151690889041e+01
2.286246845625689861e-01 1.474464955661466092e+01 2.512740933192553072e+01
-5.698173944165013438e+00 1.391618590429775004e+01 2.428536887156379365e+01
-3.723599741648115913e+00 1.483292769419963975e+01 2.496107964716161831e+01
-4.953425961839876379e+00 1.471353075786259268e+01 2.484931814079303436e+01
2.429703956905334916e+00 1.452975705341003909e+01 2.529815892567477675e+01
-7.312312061458468904e+00 1.343542810775169372e+01 2.396409624519221282e+01
-7.824765669528421341e+00 1.306133234589406555e+01 2.371492531335328380e+01
-8.336818076791370657e+00 1.268715321773428073e+01 2.346541913971058335e+01
-9.034536475040512826e+00 1.236670544723001619e+01 2.325560772663936504e+01
-9.374562834915842302e+00 1.206295392904443631e+01 2.304709741474396623e+01
4.640295183187408412e+00 1.356830117578512329e+01 2.511354228594651516e+01
3.907809503867574197e+00 1.388847081374566095e+01 2.517500391157564721e+01
1.646509629662276097e+00 1.477896901609115865e+01 2.537538940024106182e+01
-3.689072550549077900e-01 1.491138495376004336e+01 2.519598864593863041e+01
-2.012936122448244713e+00 1.485394309968204851e+01 2.506476457077712894e+01
-5.608609226757836907e+00 1.440302008566896497e+01 2.464720141077900806e+01
5.357705897907976578e+00 1.317425253134140917e+01 2.507135802066759211e+01
3.177375213494343598e+00 1.420941981491962913e+01 2.523659255427171288e+01
-6.788299413642864266e+00 1.376437952541386522e+01 2.420464825036342305e+01
-4.287225562765643261e+00 1.496121502218851163e+01 2.508540186388706772e+01
6.074553889937279294e+00 1.278077713769404156e+01 2.502909633356544106e+01
-1.362009414373130500e+00 1.516909291352978784e+01 2.536503042944725550e+01
-9.909425065767059948e+00 1.182158599947066691e+01 2.292717992037815833e+01
8.626554520167623030e-01 1.502862137748931026e+01 2.545286145094037877e+01
8.274114725909517687e-02 1.527816789099526140e+01 2.552985363082094494e+01
-2.605277932468454072e+00 1.508288199767764226e+01 2.522945272173257436e+01
-6.263795380485276176e+00 1.409254243258639505e+01 2.444516261730198892e+01
-3.248606577323014388e+00 1.518746418074956495e+01 2.528599454416273318e+01
-5.708193772550442802e+00 1.494889838590709985e+01 2.506270665671572218e+01
5.926918158378352786e+00 1.326304777714003968e+01 2.537233741412476817e+01
2.779877719060057650e+00 1.493229549776713050e+01 2.575207204623536938e+01
3.839779738316511093e+00 1.431387352395527657e+01 2.552511433806484575e+01
3.558203704953144975e+00 1.476441577755069545e+01 2.583299980734102519e+01
2.238058563071525064e+00 1.498936176486176386e+01 2.568272423436304308e+01
-7.111978576518971362e-01 1.548427154078438406e+01 2.566558000697796516e+01
-7.936224301896021238e+00 1.365114377129864387e+01 2.413839136443023037e+01
-8.448350238955400826e+00 1.327713551495689792e+01 2.388921747066109447e+01
-9.263702100921097582e+00 1.291619456710790637e+01 2.365398727888565134e+01
-1.000435795628195379e+01 1.234134878964482063e+01 2.326139537271442848e+01
5.475954933688695014e+00 1.349517700869006021e+01 2.538613254928789686e+01
4.479355171254573165e+00 1.408268695907406354e+01 2.551386508418627130e+01
1.550526628819923314e+00 1.516322922605415968e+01 2.570931470058015123e+01
-2.155968469782637786e+00 1.537520157854380720e+01 2.550023703975909228e+01
-3.840452164476468866e+00 1.525774951369984400e+01 2.535673018094142961e+01
-5.098429138423142604e+00 1.526937042676533274e+01 2.536625849797091448e+01
-6.887902432790315999e+00 1.430963631456492813e+01 2.461949686754401156e+01
-7.412162917223022340e+00 1.398123259590410683e+01 2.437901239001315545e+01
5.019649241913158200e+00 1.397708280215685051e+01 2.560590733800119523e+01
-6.363219260446083325e+00 1.463822194101557450e+01 2.486035825854252579e+01
-4.375576398170356818e+00 1.544404671462829270e+01 2.553474828380905137e+01
4.319030622530772412e+00 1.459679133643935423e+01 2.591397004677642357e+01
2.046580481798198292e+00 1.544897349951029675e+01 2.606732319071407034e+01
-1.505003238539361243e+00 1.569028958861781575e+01 2.580064112960119260e+01
-9.078130942599127451e+00 1.355377223286081545e+01 2.410382501731959337e+01
1.237078092503007820e+00 1.555752366718466639e+01 2.601046667492347098e+01
4.297610836480695307e-01 1.566611591796605296e+01 2.595266525646429656e+01
-1.549618107854997817e-01 1.579075095557548636e+01 2.600244129817710004e+01
-2.773776620279365002e+00 1.554189638801204509e+01 2.561084200583605508e+01
-3.654562422364814545e+00 1.568460944879714880e+01 2.575158756261355464e+01
-5.985157465998299564e+00 1.549053725215376964e+01 2.556557095390026291e+01
5.779019605977739893e+00 1.374533460556967945e+01 2.571552714350706381e+01
3.130024951061341820e+00 1.533430478645112771e+01 2.620595958233056422e+01
-2.298967504401534967e+00 1.589633192302011189e+01 2.593573383083162653e+01
-8.559813935954700526e+00 1.386678180258424220e+01 2.431259660839375769e+01
-1.011554475823533039e+01 1.293019191985875871e+01 2.368527644303138757e+01
4.843882759403436822e+00 1.442810813646262424e+01 2.594507774233078479e+01
-6.462694957519319772e+00 1.518419447782904896e+01 2.527611444032422838e+01
-4.911512837342662863e+00 1.567720707551699810e+01 2.574799526294202678e+01
4.159800202896581922e+00 1.511078874162863173e+01 2.631401950368615417e+01
