1.590901605501708360e+01 -1.162242575937534994e+01 3.783156094355257437e+01
1.786186894511858370e+01 -7.233392178676691486e+00 3.392355023517424684e+01
1.748064160509682452e+01 -8.690063167744801476e+00 3.412833473681467922e+01
1.774049934057045519e+01 -7.878718912011156483e+00 3.396486969323918714e+01
1.653949010646626405e+01 -6.469099222377977298e+00 4.479401342146373111e+01
1.684452664724892657e+01 -5.753500578434311841e+00 4.492183337099051244e+01
1.524600112534083074e+01 -1.025180318562551740e+01 4.220436536186994658e+01
1.518326304655179904e+01 -9.845135912738241402e+00 4.283611151904931802e+01
1.556203811288278160e+01 -9.077492720370118562e+00 4.371751102008047951e+01
1.692454566014259498e+01 -1.017840252712700178e+01 3.481921589057252930e+01
1.673348353214769091e+01 -1.068780613671778745e+01 3.506950256958587886e+01
1.695481481208429742e+01 -1.087352406667457849e+01 3.576018386256626513e+01
1.722003608408493491e+01 -9.482256776300959089e+00 3.440538401029223081e+01
1.860008963038763596e+01 -4.686500566883637475e+00 3.441219453989735655e+01
1.602474173788235845e+01 -1.153365954778178448e+01 3.712949003568120077e+01
1.537441371953150870e+01 -1.173623511919418760e+01 3.925220142434993420e+01
1.727712014155939357e+01 -9.199592621624312017e+00 3.425243434579212476e+01
1.699930329642184290e+01 -4.945297713651267912e+00 4.501459759399928373e+01
1.620290469854565174e+01 -7.327423274074971182e+00 4.459530371531829473e+01
1.588108816312393046e+01 -6.663857771172064126e+00 4.480531888526132178e+01
1.503511500787125676e+01 -1.130448731343990865e+01 4.066232437016810763e+01
1.504908296510322252e+01 -9.377175737501593389e+00 4.337754465639689272e+01
1.499178473837007353e+01 -7.962358481673031285e+00 4.447827962309366967e+01
1.611718090595370612e+01 -1.134310505738869068e+01 3.647023151621949921e+01
1.785436363581446884e+01 -6.642749274800266335e+00 3.373058173801774728e+01
1.821749908235614868e+01 -4.727088655939309270e+00 3.394792317397945425e+01
1.804428274781324859e+01 -5.854450634068937731e+00 3.384863853887540586e+01
1.550132871421055469e+01 -1.171918408964180536e+01 3.870863187947064432e+01
1.519168556695495020e+01 -1.178442180005742834e+01 3.817135870717948620e+01
1.885216103052988856e+01 -4.057034903027567196e+00 3.468052378151771364e+01
1.738371283426269898e+01 -8.199660154237246701e+00 3.359749527390546575e+01
1.750758939345301002e+01 -4.658147322587277372e+00 4.496818489040214217e+01
1.606826449830396086e+01 -5.774416286409070231e+00 4.497950076308105594e+01
1.469905949310155968e+01 -1.052046601282034466e+01 4.181987014869172015e+01
1.483835132797210576e+01 -1.103888512992305238e+01 4.118258270567638846e+01
1.479413135889526743e+01 -1.145976730348510131e+01 4.000438844071683064e+01
1.465120988408432900e+01 -1.021561131235390540e+01 4.229343359266552937e+01
1.546419586111601596e+01 -7.356645953135993565e+00 4.465908457624894368e+01
1.476456442430459148e+01 -8.490157371587322643e+00 4.414640355053943921e+01
1.624002246238342906e+01 -1.128507492008662538e+01 3.606929396593083226e+01
1.644772444125618804e+01 -1.092194690337735885e+01 3.537360290636776483e+01
1.740047713838136545e+01 -7.429036614706603814e+00 3.338043093869714539e+01
1.799575248608463340e+01 -5.280838595938583957e+00 3.373185555141932923e+01
1.476185493215186284e+01 -1.162231381485395865e+01 3.949170368367667550e+01
1.712088788651035287e+01 -8.817397709749414503e+00 3.372528961002716841e+01
1.649096380357295999e+01 -5.232480580034247986e+00 4.506096490686240230e+01
1.564528127983424888e+01 -6.316650689956475162e+00 4.489804094710149940e+01
1.482464753372902067e+01 -1.084002856849029861e+01 4.163524455583683448e+01
1.456191152671893363e+01 -1.118288469303111299e+01 4.071989364363882657e+01
1.458294498634683301e+01 -1.138258259201574241e+01 4.026911326023089543e+01
1.494819142687657987e+01 -8.952912836602669344e+00 4.392383168872989785e+01
1.453616221802673358e+01 -9.676873820627513112e+00 4.303766390469978376e+01
1.460341104665275935e+01 -9.910790068815277465e+00 4.276702610741570254e+01
1.646467588728830123e+01 -1.036345195302147815e+01 3.440563437822548565e+01
1.636925703243962005e+01 -1.061916253734311510e+01 3.453094599696996170e+01
1.685808485776060195e+01 -9.434964248450620872e+00 3.385304681331454901e+01
1.773150511780842820e+01 -6.257221155050965322e+00 3.350604443977007918e+01
1.845648378041404314e+01 -4.038639052183485845e+00 3.419661556399487523e+01
1.582719800774142627e+01 -1.152439763494654557e+01 3.657957522398560002e+01
1.540008264643408076e+01 -1.169232125861794280e+01 3.743478278111392399e+01
1.535980097847194514e+01 -1.164331746656730715e+01 3.680879448640897778e+01
1.490482113535138176e+01 -1.182954407139219377e+01 3.887293109645586497e+01
1.716762149956866423e+01 -4.260669177372154337e+00 4.509721777954106869e+01
1.522237813377759252e+01 -6.858727286656658428e+00 4.481668644532876300e+01
1.446084966537600636e+01 -9.358537880112610452e+00 4.344750825421063212e+01
1.466899989048066999e+01 -7.299574232758613945e+00 4.468807102625527961e+01
1.427798566000832103e+01 -8.070978958931894098e+00 4.445502944816362856e+01
1.562805035852956692e+01 -1.151532489407447279e+01 3.603044474249225004e+01
1.600908748279427130e+01 -1.117146794252037090e+01 3.555607302800795111e+01
1.594063277265584944e+01 -1.097027374572504144e+01 3.498702408168642108e+01
1.643159887123877638e+01 -9.991589950193347391e+00 3.392253504668359199e+01
1.741871409936478798e+01 -6.658685106382979058e+00 3.316343509284309476e+01
1.763383694938678659e+01 -5.545218347199655007e+00 3.331525233191435831e+01
1.482092183686619258e+01 -1.181660077004398168e+01 3.761808696071347669e+01
1.698501537580719400e+01 -8.364532855276863188e+00 3.320523217883309997e+01
1.665935010828835416e+01 -4.547797340552799383e+00 4.514359551659174485e+01
1.588770097579353546e+01 -5.411944020068632177e+00 4.508181885686329338e+01
1.495199749160076230e+01 -6.314789128846185484e+00 4.497015297029154368e+01
1.528466802499332466e+01 -5.591345242544734973e+00 4.510268430883245117e+01
1.415225195431400884e+01 -1.078912442693002660e+01 4.143551363699508983e+01
1.414494158265889290e+01 -1.101276980831031516e+01 4.091593491927309856e+01
1.413765220947782453e+01 -1.123683967858905319e+01 4.039562558848211893e+01
1.408784511995139077e+01 -1.038286525933133397e+01 4.206657318756099784e+01
1.413041907960100652e+01 -1.146092140876806909e+01 3.987559186729881588e+01
1.402349081262426722e+01 -9.976468069485678214e+00 4.269802378323849013e+01
1.429323314900047492e+01 -8.808956449944590261e+00 4.396858988025000059e+01
1.696492808680149267e+01 -8.135059465758125441e+00 3.303005428608167193e+01
1.489123988222036310e+01 -1.176227522920013513e+01 3.703801233016385908e+01
1.445790770584838825e+01 -1.175853416374091154e+01 3.900993245536964338e+01
1.407534444758162628e+01 -1.164612184187605237e+01 3.928806194928498741e+01
1.457863588585425241e+01 -1.190033965733494092e+01 3.814287264658575793e+01
1.443523027906034173e+01 -1.192288366391303356e+01 3.849366297538288961e+01
1.673814047158379736e+01 -8.848342771664791329e+00 3.325210338434589374e+01
1.620044578988223805e+01 -4.797313150921590719e+00 4.519329796208220529e+01
1.438556497172830539e+01 -9.040229629283764723e+00 4.385737956094401824e+01
1.392276512608076189e+01 -9.552138523591652941e+00 4.324436321573075048e+01
1.600477199122907024e+01 -1.054830208228306354e+01 3.399203631926184954e+01
1.578231266767163454e+01 -1.078012834912801310e+01 3.435313953967908418e+01
1.639359495842641223e+01 -9.521223879991570271e+00 3.343795108153650375e+01
1.730219834172879700e+01 -6.056613560656288975e+00 3.296049219547973763e+01
1.699027152327512269e+01 -6.979362539542697697e+00 3.270477671405364362e+01
1.497821962615792302e+01 -1.169592709663448638e+01 3.651132907793587634e+01
1.431082135135390487e+01 -1.189853672841182863e+01 3.738891827685713309e+01
1.649123060806916286e+01 -9.332149277993314840e+00 3.329896982313034925e+01
1.455884270458392926e+01 -6.954170403889865071e+00 4.480737434803694441e+01
1.468162472896060144e+01 -5.770755644046314359e+00 4.512362101247436641e+01
1.559727557171752998e+01 -4.976810434976982833e+00 4.521411036039112474e+01
1.370377847512279246e+01 -1.118071903097327713e+01 4.039367287576190080e+01
1.365712830050249771e+01 -1.150652038301131697e+01 3.947623626791242657e+01
1.382204888084882199e+01 -9.127692297489151230e+00 4.379098890490259777e+01
1.356701265816557544e+01 -1.013241393039280602e+01 4.236576962875876262e+01
1.411655982868486880e+01 -7.739627120612547984e+00 4.455990719290132063e+01
1.369307294056316415e+01 -8.653510356761184852e+00 4.411161016282806457e+01
1.532558684374168223e+01 -1.141516200259825453e+01 3.547914202698280661e+01
1.601580987590421401e+01 -9.949573197545275249e+00 3.343847307197489016e+01
1.702281083660958316e+01 -6.611482318858581841e+00 3.269800752730154869e+01
1.691324166259613548e+01 -7.576675951723343516e+00 3.278930359548531470e+01
1.402042719129259396e+01 -1.183116267889115392e+01 3.870121219198424001e+01
1.658638960347409608e+01 -8.529368738721471388e+00 3.281305955459689727e+01
1.591006582301253935e+01 -4.362173969047710820e+00 4.532559385431828503e+01
1.389508297748393417e+01 -7.049652449795768661e+00 4.479827040913864522e+01
1.499427682227479863e+01 -5.156200457103867762e+00 4.523496485524422894e+01
1.364357135659566644e+01 -1.089809735567905769e+01 4.102889034733145479e+01
1.342178741753587801e+01 -1.051627958122468165e+01 4.173086489603239357e+01
1.349939962339044719e+01 -1.142942036084559732e+01 3.975703410024964768e+01
1.345793049043727052e+01 -9.997339971046457663e+00 4.263074418470957738e+01
1.338248542647717088e+01 -9.679111968928568288e+00 4.304052524200828600e+01
1.508326143887012094e+01 -1.152584496574064765e+01 3.562274522355325956e+01
1.506187766182158505e+01 -1.162975353995499361e+01 3.598464852812213621e+01
1.543343664029661255e+01 -1.101648363300603961e+01 3.460036982974633446e+01
1.718550767262658852e+01 -5.453890645140954341e+00 3.275732857324658198e+01
1.438249781970948682e+01 -1.183229562737925100e+01 3.664124515933296777e+01
1.363494688424234802e+01 -1.167363838708020651e+01 3.896145269684519974e+01
1.396563640997450584e+01 -1.201625715834337704e+01 3.811439349148245270e+01
1.612435916636858479e+01 -9.229329076319578107e+00 3.274487042101035428e+01
1.419835977497657709e+01 -6.228758085786631149e+00 4.501202656515784639e+01
1.530693554848568283e+01 -4.541653143654110991e+00 4.534638771005985092e+01
1.354967743369714306e+01 -1.078100740749727393e+01 4.133571034771210151e+01
1.313518069161156987e+01 -1.100709601777244728e+01 4.062253278087971609e+01
1.316674066757319750e+01 -1.122623718901885503e+01 4.012558372636193127e+01
1.311071468167696530e+01 -1.028830980160678443e+01 4.203372562757751751e+01
1.356414949824947591e+01 -8.179620141226882524e+00 4.443209018855647940e+01
1.502326708621684936e+01 -1.131537096257814135e+01 3.492819117987020405e+01
1.547603482209875736e+01 -1.073520838055840265e+01 3.393698208309474040e+01
1.592900984654960794e+01 -9.607494857270667765e+00 3.302279494152423922e+01
1.563785816984673893e+01 -1.037791897444828493e+01 3.343899613425818984e+01
1.690617586852748744e+01 -6.009084512941742062e+00 3.249488290296005033e+01
1.662679414322311189e+01 -6.564263017554281099e+00 3.223243808112727038e+01
1.654600634489587563e+01 -8.070438631443408894e+00 3.246242679388394947e+01
1.745200506787550054e+01 -4.808423057348727880e+00 3.301906197211515348e+01
1.449646482471308140e+01 -1.174402618425726885e+01 3.593890810805415725e+01
1.366432558827470700e+01 -1.199415479884999769e+01 3.698114268455609022e+01
1.318459770233239325e+01 -1.155211895370353758e+01 3.907752922130383411e+01
1.371486968226847125e+01 -6.686930003435011649e+00 4.490060588445054890e+01
1.407519150586245082e+01 -5.851589995531516486e+00 4.512913291395455673e+01
1.434954524446314750e+01 -5.089606200524355195e+00 4.533855237549865080e+01
1.339779152651038885e+01 -7.662534555257765057e+00 4.461073140038848095e+01
1.561976591517407797e+01 -3.926911778962180133e+00 4.545790098339929131e+01
1.330706476214975709e+01 -9.360917472736721479e+00 4.345035304186374958e+01
1.311221076051976198e+01 -9.169952697915388029e+00 4.371034767316428571e+01
1.289315061860016165e+01 -1.001818866743768943e+01 4.256374917884690490e+01
1.453892172736779109e+01 -1.153657183719855617e+01 3.521538957162545813e+01
1.553974491986906692e+01 -1.054231525361236343e+01 3.361375071395380587e+01
1.492632110879830165e+01 -1.106268051069157288e+01 3.421378014966757775e+01
1.656333086515917685e+01 -7.300044212037092528e+00 3.224611084884461576e+01
1.706859624807129805e+01 -4.849247681895572981e+00 3.255385514276208880e+01
1.332910142087936656e+01 -1.178146038920825411e+01 3.846808784757511290e+01
1.381487023242056011e+01 -1.200514909928300966e+01 3.754786057061167526e+01
1.618759531811906882e+01 -8.694263457621179469e+00 3.242073786243850009e+01
1.323127620742641497e+01 -7.145147607601866291e+00 4.478948152650485781e+01
1.477285329381631662e+01 -4.701870335681696211e+00 4.537831931472496905e+01
1.508569935853376620e+01 -4.087206048857469298e+00 4.548976109845980886e+01
1.294613257695534791e+01 -1.077289714385139163e+01 4.123584889223241845e+01
1.262677672235198223e+01 -1.111619428009399257e+01 4.021620021502641862e+01
1.265415965259101938e+01 -1.044430786521720123e+01 4.170157795722642646e+01
1.286846958962291332e+01 -1.139795158839344147e+01 3.963853960511248431e+01
1.309642464361433944e+01 -8.448147653248160083e+00 4.421145628570400987e+01
1.472115747878840075e+01 -1.121217265193182122e+01 3.437770720565023197e+01
1.527065449388523533e+01 -1.020739796821261081e+01 3.288552592773765326e+01
1.666084819615788959e+01 -5.243187762787912654e+00 3.212391805890052865e+01
1.387377825841575785e+01 -1.190240388388855308e+01 3.624439854434022124e+01
1.350213847161895409e+01 -1.199614533772088976e+01 3.772669638511146672e+01
1.329780415714955311e+01 -1.194594672156460824e+01 3.795645160271143226e+01
1.346849330130983979e+01 -5.932459640729944361e+00 4.513486014130572954e+01
1.377914424068311661e+01 -5.443670897930095620e+00 4.526254126232576169e+01
1.279224865863890948e+01 -9.594033224800840642e+00 4.311004003050508970e+01
1.288342926677327682e+01 -8.204911568194127369e+00 4.436930463924750256e+01
1.396287805642311497e+01 -1.170265927339517376e+01 3.535063567182098865e+01
1.494745677175078491e+01 -1.092205236414791436e+01 3.388194782195034094e+01
1.546471448922860858e+01 -9.693705370691303003e+00 3.260792147657513596e+01
1.507471750085745299e+01 -1.053632250468591103e+01 3.323546809583111639e+01
1.643983357519492472e+01 -6.100285760812095504e+00 3.196308876462138215e+01
1.634374362367564970e+01 -6.953832896190530910e+00 3.195070197106347365e+01
1.664982101980379170e+01 -4.837383249631307613e+00 3.207658620684727424e+01
1.393102278218489687e+01 -1.185830314370053351e+01 3.589316787425249089e+01
1.351422460833123829e+01 -1.198329946203708118e+01 3.641427000378911316e+01
1.271188069022222855e+01 -1.159781561366573399e+01 3.867866933228025061e+01
1.612768406297469781e+01 -8.005907355346623788e+00 3.189560839222559352e+01
1.575741107184314771e+01 -9.126486010275733918e+00 3.219065777680821583e+01
1.304633066041455791e+01 -6.579588911228964498e+00 4.496510067347351480e+01
1.266121914858266173e+01 -7.515457685052290060e+00 4.460743858566065256e+01
1.401751907389659024e+01 -4.407785146064094661e+00 4.555364977472090970e+01
1.455161285227627310e+01 -4.247500103961533213e+00 4.552166116924717443e+01
1.530240042641472442e+01 -3.459257876143465360e+00 4.559150693133380372e+01
1.363167089031951207e+01 -4.943513514912615037e+00 4.541571502848393749e+01
1.248470606236184643e+01 -1.094046149916793453e+01 4.067611251137157780e+01
1.241952660050736768e+01 -1.021073113789650044e+01 4.215781725573933869e+01
1.255713519115850652e+01 -1.148368830217865089e+01 3.912628120414554900e+01
1.262824311846748060e+01 -8.716866161799305956e+00 4.399098209125792636e+01
1.441883285882583898e+01 -1.110890603266090437e+01 3.382690972488729386e+01
1.623029382987814984e+01 -6.516984066355904659e+00 3.176629114860954672e+01
1.304426651907314749e+01 -1.196972377633516516e+01 3.668268477185095833e+01
1.262999450957211600e+01 -1.187570198704903923e+01 3.779850778203482520e+01
1.303851437464033047e+01 -1.197610793044571764e+01 3.733888749072302460e+01
1.240180737609311024e+01 -9.212242761706770366e+00 4.363032636523997354e+01
1.578899066542406615e+01 -8.859071736469761760e+00 3.202862122058514416e+01
1.258726713568249522e+01 -7.146120487339108429e+00 4.474494058629666426e+01
1.476834356086837907e+01 -3.619570639969870829e+00 4.562334133162664074e+01
1.324647376331407855e+01 -5.478451579533389904e+00 4.527817699505575888e+01
1.234259568230311466e+01 -1.076480701375550986e+01 4.113612534687791111e+01
1.216144363418119134e+01 -1.103274076327887343e+01 4.035407372878981391e+01
1.211719372410005313e+01 -1.122565307712336846e+01 3.980896167506311656e+01
1.232830501096071707e+01 -1.003904211946215597e+01 4.249700600770775338e+01
1.227740605016368924e+01 -9.827135972872838465e+00 4.276994607872756404e+01
1.223795670267249136e+01 -1.136653119957333580e+01 3.952018833658793540e+01
1.399466427775785604e+01 -1.154669338919818955e+01 3.480810200471787397e+01
1.412421201072057109e+01 -1.133319008304162523e+01 3.426818716478236126e+01
1.613639934776438167e+01 -7.620692300808255659e+00 3.178749140375991544e+01
1.490336770378444875e+01 -1.003683438362724978e+01 3.233193553944965970e+01
1.461589068989612095e+01 -1.078105356605808929e+01 3.334751742589770629e+01
1.625284013707727127e+01 -5.636303469256745302e+00 3.169372845247575299e+01
1.623105043534364356e+01 -4.824512613825520546e+00 3.159930868080182620e+01
1.336504451944916738e+01 -1.197261823015250037e+01 3.584741668277769122e+01
1.215973438892740965e+01 -8.985701651310151306e+00 4.377084506768534311e+01
1.286129442791822441e+01 -6.013396354358686580e+00 4.514089902929613629e+01
1.209141188849704740e+01 -7.885410723938979238e+00 4.442631706225473209e+01
1.423424602565308028e+01 -3.779890154788610346e+00 4.565523561172850009e+01
1.220248109986130736e+01 -8.230211510987171408e+00 4.430725819471387439e+01
1.219707900025742831e+01 -1.060050673444296088e+01 4.136913022621596525e+01
1.175159905687701034e+01 -1.040802878776855955e+01 4.173396949095650399e+01
1.355469606155648421e+01 -1.171076300962530681e+01 3.504516344013998719e+01
1.500058067850100230e+01 -9.779880460112929441e+00 3.219321689200948811e+01
1.460985487253682713e+01 -1.053032344729259329e+01 3.285731656903308107e+01
1.592350333748375668e+01 -6.976254796219016008e+00 3.146508822934486460e+01
1.204890790994623195e+01 -1.150912092783590346e+01 3.880368034087722862e+01
1.223938677355825000e+01 -1.164357732957574676e+01 3.828000373902570885e+01
1.257493490287973614e+01 -1.195616032485185443e+01 3.695110909835517532e+01
1.209801216184806982e+01 -8.597744575405949163e+00 4.404092920441986081e+01
1.570938296223874531e+01 -7.941378513220970881e+00 3.132881647731998953e+01
1.555006677713456220e+01 -8.482633566359581323e+00 3.148288300946848040e+01
1.539075227136099322e+01 -9.023722409240470199e+00 3.163688433781260656e+01
1.194348241342414418e+01 -7.147095919573835054e+00 4.470109721218089760e+01
1.234059628774430983e+01 -6.392019129755951212e+00 4.497908451342211578e+01
1.348200485817548966e+01 -4.470229082318485148e+00 4.557639744912310675e+01
1.309625921453878128e+01 -5.005595867356447570e+00 4.543877135562976832e+01
1.498550202327252201e+01 -2.991443258545011918e+00 4.572512610788477616e+01
1.173995275437097696e+01 -1.075674679527580579e+01 4.103673596615867325e+01
1.176326428804653723e+01 -1.005990257515003883e+01 4.243059023451457534e+01
1.165198344930098706e+01 -1.114206371688670139e+01 3.994725331550681346e+01
1.373362590801656857e+01 -1.126297648526291617e+01 3.374683530017350819e+01
1.496333827666479799e+01 -9.444947347995043430e+00 3.170745173127061989e+01
1.411825131194879823e+01 -1.095989393428692438e+01 3.330140189900205883e+01
1.584486127309822479e+01 -6.029365527220723386e+00 3.126359432145688899e+01
1.583375343393979229e+01 -6.469696290636359315e+00 3.130008739348986069e+01
1.592165354457942961e+01 -5.398223005856435996e+00 3.129670889067995176e+01
1.643715082086789536e+01 -4.118656136032037729e+00 3.180693081688358959e+01
1.263870567608642581e+01 -1.195238210751199226e+01 3.634336873145633717e+01
1.160793420949691779e+01 -1.133516356066177977e+01 3.940201148100523909e+01
1.196218876652424434e+01 -1.180551877510063719e+01 3.764057640840966457e+01
1.169108665523987867e+01 -9.254544969190249049e+00 4.355130745729835695e+01
1.561819233191780398e+01 -7.435523423740620252e+00 3.116388551318351574e+01
1.377676154975099365e+01 -3.919293746916217458e+00 4.569798429727391209e+01
1.445144917549425401e+01 -3.151792286979764768e+00 4.575692593303708833e+01
1.169599149790167480e+01 -1.094928890649916475e+01 4.049209445670616958e+01
1.172718933391841389e+01 -9.657535599601986931e+00 4.299028487206918925e+01
1.345048621538083111e+01 -1.155491135125108393e+01 3.440088715555491916e+01
1.391846476774052910e+01 -1.108696160649102680e+01 3.343097795372680991e+01
1.453585110110556400e+01 -9.866160134436402274e+00 3.177800365166782370e+01
1.414497492147300051e+01 -1.052431825528635656e+01 3.247915217512589692e+01
1.270335727787600355e+01 -1.194878463807815905e+01 3.573563313092276417e+01
1.286897327050151674e+01 -1.195525307135384629e+01 3.548264492175332663e+01
1.311469751589858035e+01 -1.187413332366383756e+01 3.528222428127465093e+01
1.170281573232198902e+01 -1.183584877563697368e+01 3.702302589808853384e+01
1.160602599540205304e+01 -8.754859198942176235e+00 4.389888205153933143e+01
1.263580810526018361e+01 -5.304698678519555344e+00 4.538162736871093017e+01
1.227821054192876282e+01 -6.007408311482294039e+00 4.512400828017913312e+01
1.152098362992749259e+01 -8.255529918828619529e+00 4.424629083858305734e+01
1.182041317863030550e+01 -6.770145684446560175e+00 4.481814009234223306e+01
1.294625418100310732e+01 -4.532695650054966663e+00 4.559935666522228104e+01
1.399383692669366397e+01 -3.291130005466802011e+00 4.579961380238548685e+01
1.466964704666799868e+01 -2.523891755461321385e+00 4.585864014991856408e+01
1.527239231634494310e+01 -2.212359783882917430e+00 4.578034216967549952e+01
1.109259384496061429e+01 -1.047763301792089230e+01 4.138646450944415278e+01
1.130014948527900920e+01 -1.016197428372530887e+01 4.208060855162108282e+01
1.118844790041449677e+01 -1.102350272118426489e+01 4.007785850954154228e+01
1.381738932933452979e+01 -1.081073944769996942e+01 3.277540782276678044e+01
1.552679430082340062e+01 -6.928843998451617026e+00 3.099867567942111179e+01
1.581216477896352224e+01 -4.811608498428872061e+00 3.112188508305087353e+01
1.603315349600303108e+01 -4.156947291307003134e+00 3.134838353933760402e+01
1.139884435023092557e+01 -1.160189004487889619e+01 3.812202593699799991e+01
1.150338774072437609e+01 -1.146848192230832453e+01 3.876184139314749899e+01
1.176688797617084603e+01 -1.168943392408192317e+01 3.788133965949529625e+01
1.211147167326271834e+01 -1.193631437431655584e+01 3.656342159726455066e+01
1.523172476110210383e+01 -8.029135350029251939e+00 3.088014731457005269e+01
1.534528115124131098e+01 -7.812268161134129585e+00 3.089506230679327459e+01
1.499277362770908617e+01 -8.840891987296485510e+00 3.111126356495228507e+01
1.495212087533046130e+01 -9.038030665580485845e+00 3.124930605877606382e+01
1.141060293807322878e+01 -7.701443351028695261e+00 4.445239217102786711e+01
1.169490518876368057e+01 -6.001421261732202694e+00 4.510771702188978338e+01
1.398291215148034539e+01 -2.733092042686785739e+00 4.592251137905781633e+01
1.123232711462577704e+01 -1.083081778077722390e+01 4.062267653961569636e+01
1.102854973769772862e+01 -1.000173242813833596e+01 4.232146812561943960e+01
1.116709510548828099e+01 -1.071034220119961766e+01 4.094713289445581950e+01
1.072461958444690922e+01 -1.090495437253512634e+01 4.020863562460244367e+01
1.286398184989002225e+01 -1.177543456881321404e+01 3.471710751942758577e+01
1.341782915069712878e+01 -1.106499793213182059e+01 3.303483307702979488e+01
1.304820580058085255e+01 -1.141709120887413853e+01 3.366673623231187662e+01
1.351633769858012890e+01 -1.066148791951435904e+01 3.224908695414991655e+01
1.525394639913913153e+01 -7.305970799488789247e+00 3.072989519840259831e+01
1.543691353318414627e+01 -6.422369068793131852e+00 3.083352128890854971e+01
1.204234586263240026e+01 -1.192498417273642275e+01 3.562387187054905269e+01
1.237262919801635874e+01 -1.193803022113964829e+01 3.511792598913554997e+01
1.114229634947684744e+01 -1.136686983599380518e+01 3.900563489327960554e+01
1.129436959536147000e+01 -1.173539642301525454e+01 3.748265982167630739e+01
1.096811900632776648e+01 -9.192949314806824646e+00 4.343783187407390045e+01
1.205067545378567218e+01 -5.569807376353587358e+00 4.526983682074889259e+01
1.130025066200139605e+01 -7.148073647687459342e+00 4.465825843855967037e+01
1.241048672139953446e+01 -4.595159961984136565e+00 4.562259651656809467e+01
1.197694641582085318e+01 -5.062481388783167446e+00 4.544496081601902659e+01
1.324116804931288272e+01 -3.981733601195220462e+00 4.572075252378333943e+01
1.353619115902683312e+01 -3.430465521185464883e+00 4.584239234142715702e+01
1.487025510147409868e+01 -1.756162790628103876e+00 4.593800270883264858e+01
1.115700784924528755e+01 -9.412198387219865126e+00 4.318944727288408814e+01
1.059347772186382031e+01 -1.066390912593685059e+01 4.085777942729093581e+01
1.086580893748639021e+01 -1.109408444573862162e+01 3.975075781484392223e+01
1.461003606654128006e+01 -9.390632420517306400e+00 3.132283289805693727e+01
1.387579987291690742e+01 -1.018914977569606961e+01 3.175049817142923914e+01
1.290659453377164390e+01 -1.156311645527823018e+01 3.399389308451856095e+01
1.368020551636615423e+01 -1.051830834016740823e+01 3.210107781464989785e+01
1.100686544125752775e+01 -1.128333395065684286e+01 3.929303413202408279e+01
1.164801973084328957e+01 -1.191657575992074847e+01 3.617573472348225749e+01
1.102192529290243428e+01 -8.459102253070481581e+00 4.398786607631942047e+01
1.083360688300599151e+01 -8.178533055283880415e+00 4.415370916814782021e+01
1.120588421891948094e+01 -6.572138066212926510e+00 4.487511681195015001e+01
1.270551893830294787e+01 -4.044175400477620919e+00 4.574374179570103394e+01
1.329635263390403210e+01 -2.942308050551089682e+00 4.598657505531521394e+01
1.433601701899919689e+01 -2.027294198647871415e+00 4.602446529261285235e+01
1.068702999947796428e+01 -7.439852101903257520e+00 4.443005520551639620e+01
1.083673839367586744e+01 -1.026411807680960031e+01 4.173059824136001339e+01
1.037259409601920446e+01 -1.036643580747344728e+01 4.138024244778280547e+01
1.420137426634103761e+01 -9.673496985539467019e+00 3.125843786413926750e+01
1.263973442220471100e+01 -1.130717551237031238e+01 3.311263440692022186e+01
1.504829986550987186e+01 -6.640734031400618242e+00 3.041453680098867096e+01
1.086173296230191632e+01 -1.154250786063008505e+01 3.808395270919309894e+01
1.067630245803185396e+01 -1.139865995071723503e+01 3.860898058589086190e+01
1.040508089714533746e+01 -1.123146981148657275e+01 3.918408132897482687e+01
1.110313136906133380e+01 -1.178256632105459190e+01 3.678854875180112316e+01
1.138164899853050471e+01 -1.190121156280518377e+01 3.551211358737960921e+01
1.052253899581932473e+01 -8.662622740358738582e+00 4.372461609968183183e+01
1.498101753187733998e+01 -7.683096528612727738e+00 3.046111252410019432e+01
1.451359835609337345e+01 -9.052329290878518009e+00 3.086183624733244812e+01
1.154428969668036231e+01 -5.528905115062323183e+00 4.526823182904599463e+01
1.300095389935049184e+01 -3.492828622559845719e+00 4.586517029660305411e+01
1.365101711312630250e+01 -2.236477854296173629e+00 4.608835779343664996e+01
1.065240537691897771e+01 -7.047916239455946474e+00 4.459114969784320692e+01
1.062306963042267149e+01 -9.569717404698879548e+00 4.282767196612380900e+01
1.003781634405240375e+01 -1.077115997361814870e+01 4.032896869000513362e+01
1.021693394095980523e+01 -1.097914597667287318e+01 3.979470344114426439e+01
1.209687240310292999e+01 -1.177448373575171914e+01 3.427246585710238946e+01
1.406726653591698550e+01 -9.843749108043340357e+00 3.137789409756086201e+01
1.291719871292541377e+01 -1.104302792200049943e+01 3.263869314501515362e+01
1.236226632352088650e+01 -1.157132012736584059e+01 3.358657966170687104e+01
1.321540692438329501e+01 -1.051229239190931253e+01 3.172298024264789973e+01
1.493034581554627849e+01 -7.158380396228817055e+00 3.034046721368671840e+01
1.187628526310558463e+01 -1.192096800193958828e+01 3.475320814495513844e+01
1.078535799142792406e+01 -1.172963747061919548e+01 3.706309806394665429e+01
1.459500116916423096e+01 -8.658153141720395851e+00 3.058591540228974992e+01
1.111149062219025119e+01 -5.995436030445592479e+00 4.509225847033862067e+01
1.224785608964413264e+01 -4.086173626695664751e+00 4.578498474784502292e+01
1.162666455233429730e+01 -4.545910893195173053e+00 4.563510833845730019e+01
1.145459070971549309e+01 -5.029664735750157156e+00 4.545372220515842088e+01
1.453662647085449500e+01 -1.259530342991485918e+00 4.610381221339005720e+01
1.029166939184441532e+01 -9.943466352011801845e+00 4.221311316130815072e+01
1.024559989631204182e+01 -9.131478863639163279e+00 4.331791418746059463e+01
1.001901437247907367e+01 -1.061744549817041872e+01 4.076879798069167293e+01
1.023553409535696446e+01 -1.014727925606477577e+01 4.178236886839975739e+01
1.261321309631876453e+01 -1.167341010998693385e+01 3.415198859514881491e+01
1.299129753827652323e+01 -1.077960547990920936e+01 3.213257271300298612e+01
1.067397078091225993e+01 -1.168319178168430206e+01 3.736735817850970420e+01
1.020995009169996948e+01 -1.143053874810807002e+01 3.821204711693258105e+01
1.036025737609697295e+01 -1.155258483160882399e+01 3.776295192952910185e+01
1.091200380001499326e+01 -1.182990570430489186e+01 3.609445212496586919e+01
1.118457534989874880e+01 -1.189695540042370325e+01 3.578804681714536429e+01
1.052644592892841402e+01 -6.279447745460291053e+00 4.488161901409863219e+01
1.260994149461244085e+01 -3.005234449378834327e+00 4.604788191591201496e+01
1.305754237422138608e+01 -2.413489467659446497e+00 4.616562893120371314e+01
1.208535241987726216e+01 -3.576685742014325431e+00 4.594750227717514690e+01
1.400230280464216648e+01 -1.530611694102769427e+00 4.619026415047106582e+01
1.007219730250621659e+01 -7.731947971824575383e+00 4.419427582542355282e+01
1.000409704540957812e+01 -6.947745156498940311e+00 4.451668244182607737e+01
1.002239984769251890e+01 -8.866217103455838355e+00 4.346126218095168525e+01
9.908918622882179505e+00 -1.046866872404440407e+01 4.103046560635686291e+01
1.348493425900763043e+01 -1.015023500529949452e+01 3.138619327375618795e+01
1.359836548939422052e+01 -9.821315432588221483e+00 3.097752218173411975e+01
1.386693316552327992e+01 -9.480847177300052664e+00 3.073892475204365127e+01
1.241673532344835529e+01 -1.102105758366090171e+01 3.224268368629219594e+01
1.212572359112036935e+01 -1.142273236446096085e+01 3.305253800203720260e+01
1.015354307729895389e+01 -1.130946264273093682e+01 3.870579527403750575e+01
9.709123661693769947e+00 -1.105342578145351418e+01 3.938074773450836830e+01
9.752470738649181570e+00 -1.088597579430173390e+01 3.988392889685003695e+01
1.027632888917969289e+01 -1.172394607416269352e+01 3.664353239820208330e+01
1.105061924223671532e+01 -1.189065859123994429e+01 3.489441978757778173e+01
1.407499643326457850e+01 -9.066627012494400617e+00 3.047431150247706810e+01
1.102172705058065105e+01 -5.496130863799907118e+00 4.527771914797010311e+01
1.174077902030992604e+01 -3.976347733509391524e+00 4.581795162049483139e+01
1.341154176618645089e+01 -1.707436319640395661e+00 4.626738170402054351e+01
1.014505959477611796e+01 -8.101491157270610088e+00 4.405601913267532410e+01
1.008842169742896466e+01 -9.727354251487007275e+00 4.246262450224898544e+01
9.444737226168347988e+00 -1.057103831154706697e+01 4.068055631498053515e+01
9.552929561482386589e+00 -9.885147993843064640e+00 4.209732167031113192e+01
9.498982767320955034e+00 -1.022799539083226961e+01 4.139010866436564839e+01
1.137993791290966961e+01 -1.190238622200635454e+01 3.438848739817888145e+01
1.182676010301405611e+01 -1.152666125005222497e+01 3.316416570140497555e+01
1.261552940211758411e+01 -1.066730035787950115e+01 3.163233706883055518e+01
1.072114232327198913e+01 -1.187746623815053759e+01 3.540036009864073208e+01
9.802941797493225806e+00 -1.117960336108762931e+01 3.907526426031110844e+01
1.005332186427638774e+01 -1.163099287850171137e+01 3.725206850844237749e+01
9.743632243258097958e+00 -1.146248484838999460e+01 3.781516776197756968e+01
1.052534605662018308e+01 -5.889486141914615835e+00 4.505933962588017749e+01
9.940496278427854548e+00 -6.563659045799625780e+00 4.466168994113343871e+01
1.093215488213773057e+01 -4.996845309916301048e+00 4.546316008412181020e+01
1.237065681259892003e+01 -2.476466079623358407e+00 4.622704233749873026e+01
1.192345502746442243e+01 -3.068159438314143284e+00 4.610967685916168080e+01
1.156327508466079657e+01 -3.543939090286432503e+00 4.595574458734358103e+01
9.999974983610719903e+00 -8.460617801817129191e+00 4.375701456882976004e+01
9.537076404401442886e+00 -9.477532031629966269e+00 4.264756300434170555e+01
9.521172776804769811e+00 -9.069959193771756745e+00 4.319771742574464923e+01
9.363636234637803923e+00 -1.075657551600243877e+01 4.010868087172568153e+01
1.147511621132744075e+01 -1.177890315598292403e+01 3.393352393034204795e+01
1.295984870239577269e+01 -1.032266209558426695e+01 3.123655451194621335e+01
1.313014266122215901e+01 -9.798906712455787371e+00 3.057773751796930028e+01
1.188921750538843014e+01 -1.127415873614261344e+01 3.251857770085721455e+01
1.174415647976758770e+01 -1.163965764314991169e+01 3.351347764178290589e+01
1.272414434653689597e+01 -1.045168217761172613e+01 3.129614836729911076e+01
9.697265967255287222e+00 -1.129501493581017968e+01 3.851537943480407478e+01
1.024412402225444829e+01 -1.179785965245566537e+01 3.581215438689991259e+01
1.084263133180182592e+01 -4.496661338566331878e+00 4.564891653895804779e+01
1.043567910832166135e+01 -5.389967585910097725e+00 4.524548434723489265e+01
1.120275581864861714e+01 -4.020483858992584203e+00 4.580198981534807245e+01
1.281896007958284756e+01 -1.884306577752135281e+00 4.634476380915538130e+01
9.455067915132135070e+00 -8.024396625163781493e+00 4.395810249798471148e+01
9.405162873014834446e+00 -7.435983214995149027e+00 4.420000347993511980e+01
9.488169349367010952e+00 -8.547247292722454759e+00 4.357781003927854613e+01
1.191665964228538144e+01 -1.099909886948795013e+01 3.184698397169953665e+01
9.201186724033846076e+00 -1.112780004518068999e+01 3.896677334822940253e+01
9.282427942292283518e+00 -1.094218368529277541e+01 3.953737190813274793e+01
9.432245568887758225e+00 -1.157878641025408406e+01 3.713677545108240707e+01
9.767285522894210814e+00 -1.171832867766153896e+01 3.622396962865828129e+01
1.088359172161016275e+01 -1.188310377113319660e+01 3.402376766412775311e+01
9.939369118598634145e+00 -5.783598648794992414e+00 4.501729127508250627e+01
9.354549073965879202e+00 -6.847448491530311543e+00 4.444198382555196503e+01
1.034615621886634251e+01 -4.890419718822208495e+00 4.543114587194811094e+01
1.123861236467587510e+01 -2.973736032977287280e+00 4.615983428871617633e+01
1.174749068597974677e+01 -2.519612700835978103e+00 4.629796378790484823e+01
8.930552171526692007e+00 -1.060336922986365593e+01 4.024487507685709886e+01
8.822612127573824736e+00 -1.022734720128883090e+01 4.101226510097822597e+01
9.071989010313243895e+00 -9.937362733812976856e+00 4.172458901419877719e+01
1.270419072690323858e+01 -1.013295757381359330e+01 3.074994862207068280e+01
1.112644525764596182e+01 -1.170794584627012291e+01 3.344042692319566612e+01
1.129102918164786118e+01 -1.148197390352874869e+01 3.274157378924227402e+01
1.201612296386915268e+01 -1.082217907503114418e+01 3.154176756247742475e+01
1.051375659416915020e+01 -1.187125519565430132e+01 3.487384827066269111e+01
9.354010229779643026e+00 -6.262524577846100726e+00 4.470857515962990902e+01
1.219516111434313288e+01 -1.927280804765624023e+00 4.641538505950299509e+01
8.968347266900558168e+00 -9.460829205960193278e+00 4.241668698586845920e+01
8.956621504468365913e+00 -9.155169927628314497e+00 4.282909478319508167e+01
8.870896117365694167e+00 -1.046487990754465436e+01 4.057057124886431154e+01
8.887955456433664025e+00 -1.077341202863110503e+01 3.974208726553251836e+01
8.980650340016637756e+00 -9.766540821740919753e+00 4.200420601375351026e+01
1.165282918470227003e+01 -1.112565261227023683e+01 3.198488812922065350e+01
1.223233467055024093e+01 -1.039099715822032266e+01 3.086885850711403378e+01
1.017106647473926273e+01 -1.185077551251378658e+01 3.497410982274283953e+01
1.010086702196531938e+01 -1.183358933577011740e+01 3.529158004388008152e+01
9.071315954188726494e+00 -1.126048904577693399e+01 3.831821898235323687e+01
9.277161859552787604e+00 -1.149451672159144877e+01 3.741818345573038584e+01
8.599206062000511963e+00 -1.086768482920023082e+01 3.928558350397459975e+01
9.258229803346292641e+00 -1.171279344175437309e+01 3.580440639675044423e+01
9.289490138644572070e+00 -1.162243997545439989e+01 3.662270461682835077e+01
1.030685693137290926e+01 -1.186289059749925379e+01 3.434734244851372864e+01
9.850141452670641229e+00 -5.283760620333082692e+00 4.520359198353592234e+01
1.074601756744775649e+01 -3.957436858773175636e+00 4.583633739978889565e+01
1.031956740789709670e+01 -4.365442601140181900e+00 4.564650844033201338e+01
1.064962243225475191e+01 -3.417933808919821903e+00 4.602382382864013977e+01
1.106223222243790083e+01 -2.425007673751791604e+00 4.634837649147257821e+01
1.157160058659742496e+01 -1.970237541461226316e+00 4.648649430207127864e+01
8.757042003285862464e+00 -7.825905643822544278e+00 4.388674166501353824e+01
8.691344035770937282e+00 -7.041263210474703271e+00 4.420925522861546852e+01
8.951302875278891236e+00 -8.918647398451499342e+00 4.312335645131022943e+01
8.415787645023488750e+00 -1.063579964673135336e+01 3.980879752990244924e+01
1.141642213950642315e+01 -1.097712620624408686e+01 3.145115599723070687e+01
1.108607732001606827e+01 -1.120721962241053404e+01 3.188523385715221181e+01
8.941257453455076387e+00 -1.139342298838846901e+01 3.766978670756462577e+01
8.619390839992822961e+00 -1.102924384579737804e+01 3.884971049221143602e+01
9.823012054649982616e+00 -4.759096439844588744e+00 4.542065141108334103e+01
9.353141567199484641e+00 -5.677694487080835906e+00 4.497511761727719914e+01
8.731689792791197391e+00 -6.652257190095035355e+00 4.440010271942669107e+01
8.900525052168196893e+00 -8.134356126987491109e+00 4.369361131632420125e+01
8.842775282577774121e+00 -8.523390339264601323e+00 4.338327523647466677e+01
8.395805372804666433e+00 -9.240314390533686861e+00 4.246098689139969906e+01
8.296984797826389979e+00 -1.035885524935919477e+01 4.045843026545173160e+01
8.590492077741961552e+00 -9.989685423741390125e+00 4.135157452613515972e+01
8.410456731691530408e+00 -9.648035384831423755e+00 4.191106402957829857e+01
1.063223604537988720e+01 -1.160677881751357710e+01 3.284334420552043099e+01
1.075572028552946513e+01 -1.143731260829743945e+01 3.231931555595986083e+01
1.050869343552116142e+01 -1.177623362954940411e+01 3.336737706587773999e+01
9.480667815036674995e+00 -1.178972027831083658e+01 3.518280601989798129e+01
8.740461302509251240e+00 -1.113255442253069738e+01 3.856681017260644495e+01
8.811091945223038735e+00 -1.152660373277759298e+01 3.702155979171119071e+01
1.022321451748981147e+01 -3.826155263089079384e+00 4.583391105604707150e+01
9.326378735299007516e+00 -5.152235148530055042e+00 4.519255976981199296e+01
8.731853855336863646e+00 -5.872371103056701180e+00 4.475557955735516913e+01
1.055366512866331874e+01 -2.879312321703202837e+00 4.621096464662475967e+01
8.384270942805693849e+00 -8.767312618301728477e+00 4.304891029515178502e+01
8.109334869800708390e+00 -1.004202745981428180e+01 4.097896792765669716e+01
7.732790828243225612e+00 -1.042311237413786351e+01 3.990419067368103612e+01
7.900851931240665316e+00 -1.066831104143646769e+01 3.937235927020631010e+01
1.038724633295279176e+01 -1.186381539493153703e+01 3.365904868000119876e+01
9.620979306605340398e+00 -1.182332541827943473e+01 3.454785629569474281e+01
8.279654201094166055e+00 -1.113734715706407208e+01 3.816680688307467051e+01
8.037060089147230357e+00 -1.093067771673337063e+01 3.873290946921194688e+01
8.620898586450028489e+00 -1.158485955474743534e+01 3.633608350276113441e+01
9.796820634754563883e+00 -4.234326934986547109e+00 4.563782625014200534e+01
8.775433930590063270e+00 -5.444365687681814947e+00 4.494589487224669710e+01
1.095180428509401871e+01 -1.850959317984280261e+00 4.655486502688358996e+01
1.012698203718091960e+01 -3.287049465450213592e+00 4.602120708242092917e+01
8.350611060133950048e+00 -8.244280399299473316e+00 4.342924867014208701e+01
8.108533522881382183e+00 -6.457177043700904839e+00 4.435813919017105178e+01
7.722476373414233208e+00 -1.025289867003536948e+01 4.034626556042520917e+01
7.629241613315801196e+00 -1.009442130652551306e+01 4.060661032334454745e+01
1.021972690212926516e+01 -1.139258499143242886e+01 3.189651819232614827e+01
1.023059351893272684e+01 -1.157327945503430477e+01 3.252655554985872044e+01
1.010088383483552832e+01 -1.185371009020427913e+01 3.382083386816447756e+01
8.749157524468909486e+00 -1.170734895145378474e+01 3.538484036945606448e+01
9.890899814353351971e+00 -1.184452112423640813e+01 3.329432912695938995e+01
8.335641869133425530e+00 -1.131905542571328027e+01 3.747271931179340498e+01
9.299780444273679336e+00 -4.627772650837427726e+00 4.540957689277371401e+01
9.700331710179087352e+00 -3.694875474712266517e+00 4.582563736303266211e+01
8.027189031664546448e+00 -7.235153501779828744e+00 4.397634071518555032e+01
1.044245883222232152e+01 -2.305564205147962564e+00 4.641751946707699972e+01
8.063395975253262904e+00 -7.627395395667658562e+00 4.381525061220838779e+01
7.834588738709117983e+00 -9.325586158381526047e+00 4.209260006886834304e+01
7.826078250745927001e+00 -8.970788941957877682e+00 4.253353648465279235e+01
7.792715816760250824e+00 -9.788282851823714381e+00 4.129009962814253498e+01
8.430530045139958517e+00 -1.164331079118183432e+01 3.565063681149060670e+01
8.860426135428618011e+00 -1.174585922349939260e+01 3.507403600385055853e+01
7.818799736167303394e+00 -1.114217970688670611e+01 3.776679435763546877e+01
7.636838892186042393e+00 -1.098714689498927655e+01 3.819119065771572963e+01
9.481613799842689261e+00 -1.181944464450335097e+01 3.370796072006101696e+01
8.315408083775368553e+00 -1.150754179702743052e+01 3.661139697677248250e+01
8.217867875929020016e+00 -1.143422502394525253e+01 3.690761328658715001e+01
8.748882774689498376e+00 -4.919431940465804232e+00 4.516311376326078175e+01
8.109656231773870516e+00 -6.066967828478963654e+00 4.453602600541512402e+01
8.238125549434521133e+00 -5.641639932419461267e+00 4.474384080438366595e+01
9.871368415872321833e+00 -2.639766683945278025e+00 4.625183297695731000e+01
7.850441675061441416e+00 -7.953227094682732812e+00 4.349263790345348468e+01
7.842256017456174177e+00 -9.529510604753829384e+00 4.181779439018916378e+01
7.149964933687387614e+00 -1.014694719236204534e+01 4.023401894258663702e+01
7.439478490556395762e+00 -1.052148150882226219e+01 3.944486864146389138e+01
7.385624419470588009e+00 -1.070091900420943354e+01 3.893518789986440254e+01
9.705393863205163285e+00 -1.170924363537739588e+01 3.273379388853484784e+01
7.876441438233621639e+00 -1.127713540243015089e+01 3.726461978074300418e+01
8.655451923028167016e+00 -1.174917087043644948e+01 3.454342822359164700e+01
9.070885954824246866e+00 -1.179436449283130806e+01 3.412160184982199240e+01
9.273344466311844059e+00 -4.103046017646916788e+00 4.562668368862730262e+01
9.642693194024705150e+00 -3.198448543207800032e+00 4.601407415806765755e+01
8.197058347148866275e+00 -5.210841796561902939e+00 4.491656942743213676e+01
1.033155178796173423e+01 -1.731592383963219683e+00 4.662407649589007264e+01
7.800742777226759017e+00 -8.354275571573198889e+00 4.316478260583760118e+01
7.425384560051734084e+00 -6.845533676608944518e+00 4.402971302032485568e+01
7.817591116499934323e+00 -8.616072549642277423e+00 4.297443529881115865e+01
7.055572779741905443e+00 -1.034233687327836293e+01 3.965588898728319833e+01
7.191150341605376362e+00 -9.901415522436657568e+00 4.073100053431549128e+01
7.454351596974269967e+00 -1.083213595850022060e+01 3.861651773468130955e+01
7.261725341719944105e+00 -8.937887132237785082e+00 4.231178346413677360e+01
9.519858973921007106e+00 -1.157394707442715109e+01 3.217324037956099403e+01
8.240074837896635529e+00 -1.170200527517470235e+01 3.496527624687263369e+01
9.275379393429311392e+00 -1.181025278671952528e+01 3.318145372744788801e+01
9.409275785465611719e+00 -1.179597907669235646e+01 3.292240640206557600e+01
7.357636241216827244e+00 -1.114705975232730140e+01 3.736653601163990146e+01
7.279384979652391507e+00 -1.098673891974248740e+01 3.789643534928896429e+01
7.819580855892719562e+00 -1.148850890464190044e+01 3.620113040882696964e+01
8.722376778518709628e+00 -4.394465806603503388e+00 4.538033283534939244e+01
9.244746617604402417e+00 -3.535230309569461493e+00 4.584570877138590106e+01
7.483809829079036469e+00 -6.261877629366058962e+00 4.431602323064979743e+01
7.369532316710347253e+00 -7.428822850406501921e+00 4.374361317026114193e+01
9.759936121567163170e+00 -2.065775713038503270e+00 4.645834351601541812e+01
9.216380000494018176e+00 -2.967509279951531909e+00 4.606467054938723038e+01
7.273620063173033223e+00 -9.410905848092413706e+00 4.172435213912997654e+01
7.232352148038796891e+00 -9.656159345806456074e+00 4.122759929438359450e+01
7.249858814655432582e+00 -8.464554609467924706e+00 4.289974336219843565e+01
7.782117810459142859e+00 -1.158566051251913365e+01 3.537789473053077671e+01
7.624200915260670008e+00 -1.134183047076106021e+01 3.679370747778695971e+01
6.870977442029797544e+00 -1.073357770383443643e+01 3.849856717072648848e+01
8.520779351111993805e+00 -1.176539689482930306e+01 3.369535336360326028e+01
8.780850032595990839e+00 -3.856256785227531569e+00 4.562633192835421170e+01
8.170986478166419431e+00 -4.685962717853497495e+00 4.513381962350722176e+01
7.552475750325657877e+00 -5.619349704096920028e+00 4.460176078094855256e+01
8.752674826613400683e+00 -3.288649154048427281e+00 4.584533579585963281e+01
7.309693645245618931e+00 -7.946603139827273843e+00 4.332168089424454394e+01
6.618588783275032306e+00 -1.013293688524671055e+01 3.980129539682575768e+01
6.963486067262138590e+00 -1.053796416413479520e+01 3.907715390434538705e+01
7.323410651990030829e+00 -1.146949912326611098e+01 3.579060147727495433e+01
8.035138405040676446e+00 -1.170485346566120732e+01 3.443466125321906901e+01
7.618920462459718657e+00 -4.977492059347348174e+00 4.488718816607651974e+01
9.740328339978749028e+00 -1.467640584398358650e+00 4.669607977670868593e+01
9.188271686731589227e+00 -2.399971724184083666e+00 4.628352585607396463e+01
8.724591143241676505e+00 -2.720888058814289856e+00 4.606435297275499607e+01
6.854446895852055910e+00 -6.282070407126107092e+00 4.414464733935029273e+01
6.545659920914336460e+00 -9.960525637092995765e+00 4.013354502972528337e+01
6.724145009135922280e+00 -9.654107686737189553e+00 4.084912224467827002e+01
6.564698870597665881e+00 -1.031466023905334239e+01 3.929433753827127873e+01
6.765351642764304785e+00 -9.408801416943486373e+00 4.134572264369018768e+01
6.660650569857899939e+00 -8.835905106685597588e+00 4.212151570139220524e+01
