9.121865173753974432e+00 1.893003304562612499e+01 3.158610173576810354e+01
5.877406454827225346e+00 2.160797362299106439e+01 3.363511420778477401e+01
5.931091378924226554e+00 2.138518578875910237e+01 3.313681237817853997e+01
7.352504094800764278e+00 2.073941843444255895e+01 3.300513480073323791e+01
8.037695079720540647e+00 2.052804798456165969e+01 3.318839525572018090e+01
8.676414677594152636e+00 2.004875052431318494e+01 3.291691437326822722e+01
6.808094211669114770e+00 2.115480197832006581e+01 3.347463398409747271e+01
6.722309213263930161e+00 2.175211037183201768e+01 3.672405465599756269e+01
6.688455965736274322e+00 2.180907321701365120e+01 3.623474053766783243e+01
6.566869795066142323e+00 2.180457259407042514e+01 3.555172033763431472e+01
6.756158633150460169e+00 2.169511020903184217e+01 3.721337394799031273e+01
5.823757904461944079e+00 2.183057592502922617e+01 3.413308942377984323e+01
9.137610532643176242e+00 1.989105290481590416e+01 3.308265129507014990e+01
9.660473391965661349e+00 1.883971706988388561e+01 3.192482419636809965e+01
7.542224985631747813e+00 2.083283335320250274e+01 3.343510975267778207e+01
6.368572242312132481e+00 2.152651508488434828e+01 3.394268622089385445e+01
6.445280728831965789e+00 2.179996300454206803e+01 3.486869905519169777e+01
6.359304375801137610e+00 2.170586199548994344e+01 3.437924929126093332e+01
7.202682913518239971e+00 2.155163404772465086e+01 3.646960339965789899e+01
7.121101874133664467e+00 2.154648757140893522e+01 3.510647889530565635e+01
7.297832610712108092e+00 2.151114277335621594e+01 3.556348397699254349e+01
7.283955339870905377e+00 2.155225837280866941e+01 3.601733872299210049e+01
7.034686205135810333e+00 2.145260235388895609e+01 3.461696840395540420e+01
8.722979904969388798e+00 2.031655409317007965e+01 3.337174107659457434e+01
6.948267744722278039e+00 2.135868980837057052e+01 3.412746179830139681e+01
7.537505765393976098e+00 2.101135722211782308e+01 3.387557341023811119e+01
7.500323004274644489e+00 2.115451951964202948e+01 3.433209764001988873e+01
8.130283919005186988e+00 2.066393717617827619e+01 3.362363487074177471e+01
8.660460079689467960e+00 2.049709495787411484e+01 3.392428208786137844e+01
8.067462723381215284e+00 2.084452179691153262e+01 3.417628908315430891e+01
7.764064291289004771e+00 2.130286505308215794e+01 3.634371519399586958e+01
7.879078565729756178e+00 2.129560106388715468e+01 3.580008177652327106e+01
7.807199203190841708e+00 2.111814599269800752e+01 3.472621308072453417e+01
8.597751093108216836e+00 2.067766394017458254e+01 3.447700475235172490e+01
8.244171674958582940e+00 2.105345261302271354e+01 3.667009038515974595e+01
8.359430638428044347e+00 2.104613275497732516e+01 3.612612732732385012e+01
7.797452385746012737e+00 2.129278973954967569e+01 3.534444738299416855e+01
8.534953198547929887e+00 2.085836670770186174e+01 3.503024278932224433e+01
9.577444574798619215e+00 2.012453140735159351e+01 3.429549733382031462e+01
9.109562908287029970e+00 2.050541381915759231e+01 3.481697344862345744e+01
8.474576604828506277e+00 2.103877783748306740e+01 3.558269224295116118e+01
9.094134086514120696e+00 2.064314101019428094e+01 3.530102018087385574e+01
-7.459323255906102901e+00 2.473927953981625905e+01 4.181343847351034526e+01
-6.906331858334624485e+00 2.471126962652989079e+01 4.194403373575357108e+01
-6.827399404418484252e+00 2.471621301963709882e+01 4.192438987945376994e+01
-6.917558269646183255e+00 2.479853928727768420e+01 4.161742036097488295e+01
-8.336824800199144292e+00 2.483639752886918828e+01 4.143390772603604688e+01
-8.028885011869952848e+00 2.479496237912442069e+01 4.160066104472844728e+01
-7.744413146685289462e+00 2.476405360177956183e+01 4.171903469214809235e+01
-7.108665491957640192e+00 2.481902195278838263e+01 4.154347028764315297e+01
-6.531609428592060063e+00 2.470664129463601455e+01 4.200660720573927875e+01
-6.434062651657471044e+00 2.471121420836267646e+01 4.200581783010589731e+01
-6.722344221924940300e+00 2.480766130968909167e+01 4.161594199551458217e+01
-8.616207066341994292e+00 2.487953554654568933e+01 4.126075753056468898e+01
-7.678705089130914985e+00 2.486846951376040948e+01 4.135500704412574891e+01
-8.294313342222418228e+00 2.495136831498346197e+01 4.102140207611962097e+01
-8.865736094009257329e+00 2.493597468731173450e+01 4.102314139565928031e+01
-6.143889322125583696e+00 2.473459163981008047e+01 4.199297984427991537e+01
-6.832590618076008759e+00 2.494343038346985608e+01 4.111572169830741785e+01
-8.774623437499998957e+00 2.508029379296874950e+01 4.045844754185435477e+01
-9.105541850098877177e+00 2.500043129084859928e+01 4.074172767657442762e+01
-7.851620143401293106e+00 2.505016922078855757e+01 4.069223327840359161e+01
-9.292640830364620186e+00 2.506794760837507141e+01 4.044344514812289759e+01
-6.913929800707103723e+00 2.494576902703370536e+01 4.110059636425064156e+01
-6.139359695722612642e+00 2.478907731254976810e+01 4.182024351219165226e+01
-6.734962254046795493e+00 2.494795474523719037e+01 4.111511749314635722e+01
-5.555590145264524438e+00 2.477046720400111113e+01 4.202484013791086426e+01
-7.294703359427725076e+00 2.498073509526093616e+01 4.096937375273213178e+01
-7.009518313393563460e+00 2.495602118607997966e+01 4.106358171159777726e+01
-6.747590234375000051e+00 2.508837812499999842e+01 4.061383041404100425e+01
-6.910298079975588870e+00 2.509311894695115441e+01 4.058335191702141032e+01
-5.567496322514488227e+00 2.484168361651834545e+01 4.178255598529601400e+01
-5.503745804883680925e+00 2.491202000102407155e+01 4.153468343556407660e+01
-6.149923320459457443e+00 2.481782571802643389e+01 4.170594680314383851e+01
-7.544056717876096663e+00 2.500871009977817039e+01 4.085906372990698543e+01
-8.091888927736514248e+00 2.511457495809112572e+01 4.041096036759719823e+01
-6.448871083404049465e+00 2.495315378010420915e+01 4.115967851921654841e+01
-5.560937828326750321e+00 2.478484049519803278e+01 4.196768136423219175e+01
-6.192240170268362043e+00 2.497507897512540964e+01 4.114271368793887262e+01
-7.409516450974333424e+00 2.514883870082200090e+01 4.036352199570120547e+01
-4.985002860669722757e+00 2.486554304870988474e+01 4.185919223499945474e+01
-5.869262435375595999e+00 2.502219265077055255e+01 4.105699523473641221e+01
-5.189180349940942349e+00 2.507344900779599328e+01 4.106760742452193114e+01
-5.025398365567486536e+00 2.500362484215083114e+01 4.136343046824613623e+01
-9.428217124072787669e+00 2.514303195027532922e+01 4.010821136431696488e+01
-8.250340541151693685e+00 2.517330905631703430e+01 4.015135270111284882e+01
-6.765978469004030771e+00 2.529254510349580087e+01 3.988510551999448239e+01
-7.087703572028827281e+00 2.522070157545408620e+01 4.012427639331614415e+01
-4.953328338491822969e+00 2.490070029708297383e+01 4.173524219192712081e+01
-4.975900283073405816e+00 2.496459241614063274e+01 4.151346932126727296e+01
-7.725821306773385189e+00 2.526636591075940075e+01 3.984414684912689353e+01
-9.045490275224151944e+00 2.523047711566679041e+01 3.978795930433096828e+01
-8.385232575142353539e+00 2.524843297419646504e+01 3.981606086060139660e+01
-6.234548640154761401e+00 2.513229627792879839e+01 4.057960972008412170e+01
-6.500322364024692767e+00 2.521243853465999862e+01 4.023227954702325349e+01
-5.554354456725093314e+00 2.518362400251017164e+01 4.059000102444797164e+01
-4.546534277054930406e+00 2.509532772086557628e+01 4.119200424944154548e+01
-7.245874680522111255e+00 2.527945605095089121e+01 3.986462246329659820e+01
-9.525082095306279584e+00 2.521739846371205118e+01 3.976754177403064006e+01
-8.332024781289247173e+00 2.532627674222259984e+01 3.945018834292422127e+01
-6.028900067054250300e+00 2.527150211666193158e+01 4.015486213691051631e+01
-4.447573672432307390e+00 2.501721257826952893e+01 4.149224621912966882e+01
-8.229086939695681835e+00 2.539033511998055559e+01 3.915924383754886406e+01
-7.143161765481204739e+00 2.534352886592649767e+01 3.957346219951122634e+01
-7.519992578125000549e+00 2.539469087781484546e+01 3.926211100950140320e+01
-9.515605811606052455e+00 2.529331310898357899e+01 3.941274302241122029e+01
-8.937919334874614208e+00 2.538615734596968920e+01 3.905643364121291938e+01
-9.461713376870187986e+00 2.537115842895351037e+01 3.904696567144148389e+01
-4.874522711324201119e+00 2.523540271566717053e+01 4.060040244926607755e+01
-5.348911158031812718e+00 2.532390161321966815e+01 4.016509997128853371e+01
-6.294418750698870468e+00 2.535234961213325988e+01 3.980748804867506152e+01
-6.840359275148949258e+00 2.538810875779786969e+01 3.944980076135677649e+01
-6.914692578124999933e+00 2.548407721259710002e+01 3.901477486420352392e+01
-9.342382761351908371e+00 2.544444806270588444e+01 3.871000179824512344e+01
-4.700480952324197936e+00 2.540683384041428639e+01 4.005822084899324409e+01
-5.823162499999999575e+00 2.541255305763742811e+01 3.972992954034442192e+01
-4.231870617466470641e+00 2.525796871861350823e+01 4.072483467756956799e+01
-4.067645747287574665e+00 2.518753928973863765e+01 4.102057657590887629e+01
-6.511744879409908648e+00 2.540074271601802280e+01 3.953813293006086838e+01
-8.038048433892644340e+00 2.546521147043922895e+01 3.883410958945734137e+01
-9.152086730545889282e+00 2.551940057514685734e+01 3.838443716112184489e+01
-8.556676562500001637e+00 2.553567642189872444e+01 3.840563423037811930e+01
-4.406465952729848645e+00 2.532306110907750707e+01 4.044077279108983447e+01
-5.174438043588617475e+00 2.549531686072102232e+01 3.962317307284997270e+01
-7.616000528509839995e+00 2.550304815887426457e+01 3.877229668793647477e+01
-7.212368918465814183e+00 2.556250052060966382e+01 3.860753698606661999e+01
-7.016942184795134096e+00 2.561582442859057096e+01 3.841639414033238609e+01
-6.257949817848114549e+00 2.550918833775699923e+01 3.919176349650119562e+01
-6.614395185049778192e+00 2.564446097843797645e+01 3.846339337309940731e+01
-8.182319923983426335e+00 2.562754802091550843e+01 3.809911351151354353e+01
-7.711981626990967342e+00 2.561119499524937382e+01 3.828262101063899792e+01
-8.933483715718201879e+00 2.558689005329659949e+01 3.809426567324034352e+01
-3.937800456405132099e+00 2.541071846133610634e+01 4.028094339989383599e+01
-4.526612284570052935e+00 2.557791548330190423e+01 3.951657963241177640e+01
-5.510125924065527592e+00 2.552114356571001252e+01 3.941238353790874527e+01
-5.800367570823139474e+00 2.558545717094092709e+01 3.905379351774913488e+01
-7.510205018142396938e+00 2.564093797869310265e+01 3.820007970247731066e+01
-6.285939832642715608e+00 2.565706071237882213e+01 3.855168629651368661e+01
-5.908535722091589726e+00 2.565819893540056640e+01 3.871496358617903866e+01
-7.808020690766531047e+00 2.571934088421083331e+01 3.779264817714323499e+01
-8.637168173487836498e+00 2.564593420388894529e+01 3.787257781258752942e+01
-5.197319846387708608e+00 2.562958840885284317e+01 3.909507692078763341e+01
-7.119172029132186275e+00 2.574744718419762535e+01 3.781813120849823662e+01
-6.313925398760263263e+00 2.580478116104133335e+01 3.791170377967533511e+01
-8.263108264641768841e+00 2.573773717250576354e+01 3.756596436444044684e+01
-3.998581479954768536e+00 2.553814092643984424e+01 3.981856882418622234e+01
-4.705429800701377729e+00 2.565795244398486830e+01 3.914722293531951891e+01
-5.342749423986375312e+00 2.566169278700088796e+01 3.891582006316164666e+01
-5.559281807762389782e+00 2.580700135550808128e+01 3.823839977064817219e+01
-7.569187140639658473e+00 2.580201359425309704e+01 3.743890176246137713e+01
-7.193485444743985546e+00 2.584310101006447979e+01 3.738322617640611867e+01
-6.811080743876205545e+00 2.587308144648694253e+01 3.740860833497829674e+01
-5.222022791405862563e+00 2.577253087064993053e+01 3.850785021247548912e+01
-4.055240169799239069e+00 2.563793655180252529e+01 3.943903201504394218e+01
-4.884364646323478887e+00 2.573801430576298799e+01 3.877762324119516535e+01
-4.221327917314516398e+00 2.571860767687531180e+01 3.908106333125142839e+01
-6.034351348028478057e+00 2.591756530557785254e+01 3.755570955438378178e+01
-6.408231950556868561e+00 2.590179039594580601e+01 3.745520733885189912e+01
-5.657174940924917017e+00 2.591864958898629112e+01 3.771909224280654627e+01
-4.991293099612309270e+00 2.588764969273251637e+01 3.813435188327087388e+01
-4.400278504309262928e+00 2.579857304051688160e+01 3.871171521301304352e+01
-5.305364331980508830e+00 2.591512395629436938e+01 3.789194304343185138e+01
-4.653705737060995773e+00 2.585320472811502057e+01 3.840389450691129269e+01
2.277571427940172200e+01 -7.755577257806175240e+00 4.105972918195631394e+01
2.240702025240670281e+01 -7.893206545125845075e+00 4.216500089866918444e+01
2.240694808971891661e+01 -8.297944935172679948e+00 4.117631881318391152e+01
2.281678947078901842e+01 -7.470448706462738286e+00 4.159581164116321617e+01
2.216092818896813910e+01 -8.390001403517951317e+00 4.191328540554225413e+01
2.248914786142196220e+01 -8.173681102203094184e+00 4.075338393561487038e+01
2.260930314712433997e+01 -7.939161127833446407e+00 4.038194289936781445e+01
2.265313585856594969e+01 -7.396362592169227312e+00 4.241676164912865943e+01
2.203760714594839598e+01 -8.841159398780746415e+00 4.129308452146898389e+01
2.203651653756032758e+01 -8.246029166474476924e+00 4.248350713795869638e+01
2.220243015074476745e+01 -8.592005309154941983e+00 4.044688811799655070e+01
2.277568937628588586e+01 -7.396474915648754589e+00 4.023521836497700122e+01
2.191461463544717603e+01 -8.887245378455652656e+00 4.166135466278662136e+01
2.246712149550009130e+01 -7.439323593499381104e+00 4.281414468532140205e+01
2.162493444347152760e+01 -8.806529134325565167e+00 4.254043573550867308e+01
2.203531251677603109e+01 -7.978601375177384547e+00 4.296004936979677069e+01
2.187898252879409000e+01 -9.069075690130187439e+00 4.070883950574067001e+01
2.244266688990537517e+01 -8.122993261960104405e+00 3.970331442883485096e+01
2.166860716406250376e+01 -9.383871484374999739e+00 4.140974930370498441e+01
2.197767238010127500e+01 -7.390019995130425734e+00 4.326568609487302552e+01
2.160308810546874980e+01 -8.518295833383223936e+00 4.310609443443257760e+01
2.191539077402113733e+01 -9.010798735304664575e+00 4.014004733478143550e+01
2.164676748343768864e+01 -9.094779930951613522e+00 4.197514587384011975e+01
2.127989187529672677e+01 -8.949448963447503402e+00 4.284744638672160733e+01
2.179042956450341961e+01 -7.954062724259062911e+00 4.318590909757846674e+01
2.155958109567110981e+01 -9.538602594119048206e+00 4.078184490288223429e+01
2.227617519932149648e+01 -8.306665593615539578e+00 3.902533193502604547e+01
2.249824423550742836e+01 -7.792086342205757354e+00 3.931086505830248967e+01
2.196473748800410775e+01 -8.820291006134645784e+00 3.919240719276985629e+01
2.110814321160991724e+01 -9.814053898166280376e+00 4.154368195000243702e+01
2.127650303023314748e+01 -9.698883930026052980e+00 4.104585277076674998e+01
2.246769424793535919e+01 -7.714870116921654919e+00 3.885798302722094633e+01
2.095627549511003451e+01 -9.381066760629954260e+00 4.258847199881199685e+01
2.101966062863734308e+01 -8.980994771956908096e+00 4.326741818271198525e+01
2.137074499729053301e+01 -7.997119946032318794e+00 4.380228206901879418e+01
2.162863962236749771e+01 -9.429171690853102916e+00 3.983352278297874705e+01
2.145065024588726033e+01 -9.693197955948894773e+00 4.015451444207735676e+01
2.265929234381598434e+01 -7.122830151521442055e+00 3.869056656553018314e+01
2.063285933606503519e+01 -9.812339833987850923e+00 4.232966732462038806e+01
2.113843754296874877e+01 -7.474720758780661001e+00 4.449701631640625266e+01
2.165330467174804596e+01 -9.333907833889410810e+00 3.935949880344895035e+01
2.088447844955403454e+01 -1.001383235632119906e+01 4.068204793264770558e+01
2.206134587749948039e+01 -8.384778442988832126e+00 3.847304419488926186e+01
2.192112366181804006e+01 -8.648698616883971013e+00 3.863322768740167845e+01
2.053464758125038614e+01 -9.628098694999438933e+00 4.287916280853701778e+01
2.054694064832847644e+01 -1.024480409554256433e+01 4.167780320773805869e+01
2.081701901604833793e+01 -8.083315881647729739e+00 4.427056484947121362e+01
2.160555645081898035e+01 -6.881826105201288790e+00 4.416713031892255259e+01
2.216940343449933692e+01 -7.875323885170164573e+00 3.815683137207510356e+01
2.242367043058651177e+01 -7.433170640813957952e+00 3.836867943199155206e+01
2.146360083094029392e+01 -9.345325662249017284e+00 3.874007317364437597e+01
2.030926977193789185e+01 -1.024378701758138810e+01 4.207071922630871086e+01
2.049589378510433946e+01 -8.690988657164904652e+00 4.404408144476565923e+01
2.134164041015625202e+01 -9.847906640625000207e+00 3.952673769610387211e+01
2.256409035178069544e+01 -6.948453712467495436e+00 3.818178276896589551e+01
1.989758761452019797e+01 -1.016228840998933869e+01 4.299775772900708404e+01
2.037538629385108635e+01 -1.039888730901913760e+01 4.098918481272067282e+01
2.043643746758832336e+01 -9.443521192607075676e+00 4.342868566938228980e+01
2.017471883441475811e+01 -9.298477511241596716e+00 4.381697902363804076e+01
2.049760377430413882e+01 -7.874955301150760256e+00 4.465639635645894145e+01
2.135673056400749203e+01 -6.773449238184825028e+00 4.448547770271319024e+01
2.049227505588032017e+01 -1.032892465348439615e+01 4.031808270858286392e+01
2.184661977330938853e+01 -8.462854809386245236e+00 3.792104151372690524e+01
2.285089225618572328e+01 -6.530784573152359940e+00 3.852314999789512484e+01
2.227746164905687110e+01 -7.365870723161936695e+00 3.784062860145543539e+01
1.994169266529523199e+01 -1.041865858370070974e+01 4.240513920021867023e+01
1.985352256816625527e+01 -9.905791592873082863e+00 4.358987714313930439e+01
1.998584591796874932e+01 -1.067547109374999970e+01 4.181191199636455735e+01
1.985628370446156765e+01 -8.275499021210634965e+00 4.481589714791572021e+01
2.086625793697460551e+01 -6.877432567843994704e+00 4.484933579067774900e+01
2.157503640938873346e+01 -6.072127733833851515e+00 4.447283239180968906e+01
2.156580067792481614e+01 -8.990992428427244221e+00 3.824084055895335155e+01
2.199060129327089186e+01 -7.783625089912500350e+00 3.749920426894895087e+01
1.990660733004287763e+01 -7.477970986531097708e+00 4.508809150599711302e+01
2.113138153651915729e+01 -9.890250748024882910e+00 3.891118249056155776e+01
2.079700511658538886e+01 -1.021830867825591938e+01 3.954811696411191946e+01
2.256667210411641378e+01 -6.605212957187789335e+00 3.793291191947357532e+01
1.941022918214421011e+01 -1.024357553027236811e+01 4.327074276186954904e+01
1.989339042303919314e+01 -1.076986039193015010e+01 4.107120374142665753e+01
2.025122424259227571e+01 -6.879715752025715503e+00 4.514417618408132427e+01
2.106728337926674754e+01 -5.745189574659137044e+00 4.494927775126510028e+01
2.090345657482887276e+01 -1.011473925266009388e+01 3.905743348398580395e+01
2.136759859043849730e+01 -8.981226158702064311e+00 3.753123874884422406e+01
2.170385473091116779e+01 -8.201213611049167795e+00 3.715791988689800718e+01
2.288517208010010862e+01 -5.804361143682736923e+00 3.828034597639016567e+01
2.228267277421270975e+01 -6.679583861808638723e+00 3.734316496295371479e+01
2.121079214809650182e+01 -9.332983756016288268e+00 3.784881719732184280e+01
1.896714797440299449e+01 -1.058114760603993609e+01 4.295178244123797384e+01
1.899254867131501712e+01 -1.012004492110113318e+01 4.365835925506935666e+01
1.908491518961662337e+01 -1.078147086891300788e+01 4.241229824389363046e+01
1.948699877842783934e+01 -1.090020559454809757e+01 4.137071228595161898e+01
1.953460803073814844e+01 -9.291281239969352512e+00 4.428307863300712910e+01
1.956194718226131712e+01 -8.077039619281086047e+00 4.503178383877162361e+01
2.059595093369766872e+01 -6.281811477513604913e+00 4.520028859061714144e+01
2.092105958635092833e+01 -9.932607788573292851e+00 3.829552767131479385e+01
2.010011507529747377e+01 -1.064398196584529188e+01 3.995417225139114947e+01
1.980096828672663278e+01 -1.086421519589383777e+01 4.033086838769622773e+01
2.205939272465721501e+01 -7.198917740732507120e+00 3.722151320418520726e+01
2.163193810436417053e+01 -8.540913503182922639e+00 3.736916484413630002e+01
2.251255801002684009e+01 -5.973966957638784159e+00 3.753808139081705519e+01
1.920268205736050859e+01 -1.098148939289102799e+01 4.187284053784427584e+01
1.921748329764134766e+01 -8.675492146595123799e+00 4.497517425849331829e+01
1.995558615560721449e+01 -6.728707179049522757e+00 4.553337846139184109e+01
1.935357180758730422e+01 -7.666715930722969752e+00 4.550515805892201371e+01
2.081191103969929301e+01 -5.645511044373241916e+00 4.516393238910828956e+01
2.025271070515907823e+01 -1.058847888471022181e+01 3.956948455224809180e+01
2.180314571936148837e+01 -7.604257489711613971e+00 3.694040663926615764e+01
1.898886844049187772e+01 -1.112461775441016343e+01 4.093017830514479272e+01
1.873205059247145954e+01 -9.143131824821391973e+00 4.468081585836115011e+01
2.031978620304008487e+01 -5.765005754819090278e+00 4.552193851620138076e+01
2.046536213019641792e+01 -1.038151762679570744e+01 3.858828886685189730e+01
2.220882278111464458e+01 -6.299239121960618526e+00 3.701490750367499061e+01
2.085550501045461402e+01 -9.675243438950634101e+00 3.745649927899224707e+01
2.141690273437500380e+01 -8.619101562500000924e+00 3.681639505616828956e+01
2.151633540726928118e+01 -8.021753259887930199e+00 3.659891947688701919e+01
2.199880519350574559e+01 -6.753919933749063631e+00 3.675372107009474121e+01
1.852391498065344777e+01 -1.091878239875020462e+01 4.263274205401582151e+01
1.832799015338783732e+01 -1.062675538933904384e+01 4.317980376039422197e+01
1.842056864654460568e+01 -1.128755562810334467e+01 4.193368412616614904e+01
1.879789294955104495e+01 -1.116806847290677496e+01 4.144542248169707221e+01
1.862566948759961605e+01 -8.865800890972320047e+00 4.504406627636683424e+01
1.931511769229115316e+01 -7.175999418599016799e+00 4.586503250171148949e+01
1.894642992668575943e+01 -8.149671199653267806e+00 4.558581746860898676e+01
1.999457432226472164e+01 -1.071394464937356439e+01 3.879790830660990508e+01
1.970857515488887657e+01 -1.095854059463005115e+01 3.959085078582481287e+01
2.291942678647073706e+01 -5.078468819939967460e+00 3.803772105959395589e+01
2.221077198358071314e+01 -5.837610453216218964e+00 3.681716648806142445e+01
2.095878802777243877e+01 -9.318007632184013289e+00 3.694036016080585938e+01
2.161568983651097042e+01 -7.424889670375605988e+00 3.638163896198352631e+01
2.071064090239727307e+01 -9.974983850084120363e+00 3.767966254332013420e+01
1.824580005874041433e+01 -9.611539579754699858e+00 4.438527151245957469e+01
1.842213888888037587e+01 -8.471434608147058398e+00 4.550218853406748565e+01
1.867506173049675056e+01 -7.623814701125063209e+00 4.619642426562499793e+01
1.970196175494774948e+01 -5.841827330435744869e+00 4.593223799377553007e+01
1.849074057435032259e+01 -1.134902839144757891e+01 4.048968924520334411e+01
2.245844241682515374e+01 -5.342720044424760673e+00 3.714325868937603303e+01
2.004386842430051274e+01 -5.249202949158587650e+00 4.584314607350029291e+01
2.051547019292128482e+01 -4.746138454190725220e+00 4.558049991369769316e+01
1.935968637891944866e+01 -6.435162241385989468e+00 4.602029476157495935e+01
1.796441010415224682e+01 -1.095519116159618633e+01 4.283810918550989300e+01
1.813206533117072539e+01 -1.033374919473934206e+01 4.372686662606128039e+01
1.803299531106266684e+01 -9.056269428923199527e+00 4.511303841646842727e+01
1.821844859330691335e+01 -8.077009612544681971e+00 4.596031448354799664e+01
2.002733863051520302e+01 -1.064825240209915158e+01 3.811926674202576493e+01
1.897074006375118316e+01 -1.123826869321611532e+01 3.959643087231530956e+01
2.196274638067554363e+01 -6.333210290203833637e+00 3.649061565861715906e+01
2.171500742187500421e+01 -6.828237890625000084e+00 3.616444973773318594e+01
2.100420172208666258e+01 -8.894020635183368384e+00 3.637087589150825551e+01
2.050040447265624977e+01 -1.001732343749999998e+01 3.706439892009626647e+01
2.106743665727103121e+01 -8.620554527405710488e+00 3.618263262338059860e+01
2.127649153423805828e+01 -7.784324383616654686e+00 3.600509852896303897e+01
1.943403125972272250e+01 -5.636812746948685948e+00 4.607877206188144470e+01
1.775983321855149555e+01 -1.007964950672764637e+01 4.408999465568153653e+01
1.808092662845956156e+01 -1.125618579591665736e+01 4.231389329083193473e+01
1.821702740768850859e+01 -1.141510396323214493e+01 4.116706966877595875e+01
1.901746071735627908e+01 -7.028477329375061089e+00 4.610833750614341398e+01
1.776140614035752563e+01 -8.530427248358421366e+00 4.572398431422305265e+01
1.759985363865688868e+01 -9.663261100684605864e+00 4.463792669258645418e+01
1.952257580765861178e+01 -1.103312770884423344e+01 3.878806003619633458e+01
2.209271175450064106e+01 -5.232961117305394261e+00 3.644201023840301445e+01
2.062055527231796503e+01 -9.492076511345151957e+00 3.649473879643937835e+01
2.137577935676997498e+01 -7.187616449162137933e+00 3.578782912526555293e+01
2.022643503545874566e+01 -4.647816303793252501e+00 4.574227005854037742e+01
1.739375391673253901e+01 -1.089655064185329003e+01 4.319590010096157329e+01
1.763732851562500059e+01 -1.159400818012413481e+01 4.199462348483102403e+01
1.844455716491596320e+01 -7.017247073562145054e+00 4.637220528042863066e+01
1.792779140478001665e+01 -7.888845839393321846e+00 4.632173004623913215e+01
1.882413345919363223e+01 -6.024423578539576773e+00 4.631333202567396512e+01
1.743972695683267204e+01 -9.246834671349841273e+00 4.518206658168745804e+01
1.918409740090709192e+01 -1.115156060254735060e+01 3.910036181013153822e+01
1.799185500302769469e+01 -1.157378045906251529e+01 4.004856239164450216e+01
2.191504224128829748e+01 -5.753964000829480341e+00 3.625148152339033203e+01
2.230109529778782118e+01 -4.536575809452911834e+00 3.664318008068551791e+01
2.059135190307050678e+01 -9.169038042211004935e+00 3.592522444110798574e+01
2.021364915258336836e+01 -1.001143704020249103e+01 3.644553887795878211e+01
2.092145085901989177e+01 -8.090672278157075681e+00 3.556442152515835886e+01
2.169271076928515640e+01 -6.125292146017486949e+00 3.593970545888574719e+01
1.982513771212055431e+01 -1.059995724261439420e+01 3.712212773246456976e+01
1.972241724715423317e+01 -4.726481040606872241e+00 4.603759936571977107e+01
1.860977901489241759e+01 -5.676055365841200739e+00 4.644315302319949978e+01
1.900531956627918007e+01 -4.939849739278831642e+00 4.633806939191583751e+01
1.727482919480858214e+01 -1.054680935697761868e+01 4.379538426567024345e+01
1.730436741992600602e+01 -8.983644515838101086e+00 4.548765889634690041e+01
1.776887653363576547e+01 -6.913247187852350706e+00 4.655400592624851441e+01
1.821418840509744896e+01 -6.412033343312923961e+00 4.654786015042230929e+01
1.933637462342389668e+01 -1.110779547934037836e+01 3.798452658442052154e+01
1.754112409757532376e+01 -1.173001881669888924e+01 4.040208323006751812e+01
1.823187196353433492e+01 -1.151838870154893968e+01 3.960201534116337285e+01
2.132752444864188135e+01 -6.852999792465374718e+00 3.557041731122351536e+01
2.103664646130327398e+01 -7.546894760067723418e+00 3.541132004334750150e+01
2.071791702646341804e+01 -8.622007714970090220e+00 3.554881004396951738e+01
2.040901668918927925e+01 -4.046298004554873096e+00 4.564137540218361266e+01
1.940094861687046901e+01 -4.203153234329279009e+00 4.623206495614155642e+01
1.751539918713074329e+01 -1.124536152079639173e+01 4.259595995274680291e+01
1.706110207512669419e+01 -9.992544439444976945e+00 4.452487691329859132e+01
1.758918343914086435e+01 -1.166166644092227145e+01 4.119760865162542984e+01
1.714295473582998142e+01 -8.587711136009351875e+00 4.600140693771029987e+01
1.732358036892701136e+01 -7.415027272785136070e+00 4.656015127176387125e+01
1.794408456077577085e+01 -5.830668000023135455e+00 4.674993979096532826e+01
1.718039486413717043e+01 -8.153681274712559102e+00 4.644703852599675997e+01
1.684677745918186176e+01 -9.437223088385433556e+00 4.525104713281250213e+01
1.865936751424607820e+01 -1.134467314543610073e+01 3.860967420334358735e+01
2.001027019874558377e+01 -1.022016445625963321e+01 3.660074039606831064e+01
1.853078424914670919e+01 -1.139960811840811594e+01 3.913617194813565447e+01
1.958906465100549710e+01 -1.091513965233538208e+01 3.765002441529416899e+01
2.197465157984575157e+01 -4.628309403032657698e+00 3.606685766913995650e+01
2.167040883990948430e+01 -5.422162303572338082e+00 3.571490477305230371e+01
2.031096650529108771e+01 -9.622554004772023717e+00 3.604156012977702517e+01
1.985870113403204940e+01 -3.749995126619793506e+00 4.596791033367860280e+01
1.882536253694879846e+01 -4.551472359830294856e+00 4.647223476543706511e+01
1.824977514289561498e+01 -4.899774487881346730e+00 4.671240852657096809e+01
1.698715665275316411e+01 -1.105609799810004112e+01 4.294725897058142294e+01
1.685364943649017988e+01 -1.074758016014281381e+01 4.347864313187608332e+01
1.717016794997711315e+01 -1.171871112250972224e+01 4.159290388367357849e+01
1.748646550149006629e+01 -6.692006635047787810e+00 4.676206469460874615e+01
1.687805061539530627e+01 -7.916813173611379817e+00 4.656629979507546579e+01
1.749312504606085383e+01 -1.179846249552325865e+01 3.960760229325489234e+01
2.017880422693029985e+01 -9.443854257888759207e+00 3.547992463580418843e+01
2.069751920293161618e+01 -7.906165431139140054e+00 3.503482084844512201e+01
2.137393635100104561e+01 -5.864131272787743043e+00 3.537484397721542706e+01
1.960878458414113013e+01 -3.432198057427124915e+00 4.610541061431398191e+01
1.678680683104317950e+01 -1.132679069150910145e+01 4.249753792520949958e+01
1.658199546690143222e+01 -1.062580525248606733e+01 4.379840493042809157e+01
1.691344447902372394e+01 -1.163235284005624948e+01 4.196925540579184855e+01
1.663960350909789909e+01 -8.927963141813402004e+00 4.591170166879610548e+01
1.643231105839637962e+01 -8.418577636139049858e+00 4.657245020093510846e+01
1.626045935133113929e+01 -9.793579764645567565e+00 4.488902475257679470e+01
1.952023031861898872e+01 -1.042296681735065889e+01 3.613719652938064542e+01
1.887483064637908825e+01 -1.114489906935223296e+01 3.657157989780282037e+01
2.093985973762510611e+01 -6.877773540941186425e+00 3.497611247459440165e+01
1.914988392916892224e+01 -1.118257927563040610e+01 3.717985773457421317e+01
1.813455360813323836e+01 -1.153781662126169927e+01 3.811893462723447357e+01
1.796053090213581882e+01 -1.161294911775427607e+01 3.889808304223204516e+01
1.695464970754471068e+01 -1.184378399689427042e+01 4.048574868051577624e+01
1.992696509681999828e+01 -1.000555337881535323e+01 3.582686840059726308e+01
2.036865846091243171e+01 -8.623460570727683461e+00 3.491549686531104868e+01
2.099751229754154735e+01 -6.240372377028837292e+00 3.489305306472975587e+01
1.905388584879105451e+01 -3.640035907364168821e+00 4.643698304457108605e+01
1.767378952684967075e+01 -5.248298664892727672e+00 4.695215367862712696e+01
1.801814212782382185e+01 -4.524644945153532660e+00 4.684913687625912360e+01
1.712605239103390886e+01 -5.915770205360829870e+00 4.703162135035907454e+01
1.643211441173776421e+01 -1.094808479712282612e+01 4.316166771568568095e+01
1.670364046885163134e+01 -1.184319814275272620e+01 4.119173718383613902e+01
1.675870731593251151e+01 -6.972579158196152704e+00 4.697626887586134359e+01
1.623147592853074528e+01 -7.835412753633015370e+00 4.688165996190239326e+01
1.632476662274596890e+01 -1.024257434019250645e+01 4.431839527815740354e+01
2.135162520732364300e+01 -5.161554844454140145e+00 3.515018243232294992e+01
2.164813845703124784e+01 -4.720062499999999162e+00 3.549043324484942730e+01
1.836237610087161798e+01 -3.801012803957293684e+00 4.674555307172816754e+01
1.620425164662079354e+01 -9.563971321588736529e+00 4.530840593565329755e+01
1.601025173586007710e+01 -1.114838105085716791e+01 4.284447469237742467e+01
1.588793458871315600e+01 -1.070456686921246003e+01 4.380164264212492498e+01
1.619065175313096816e+01 -1.167063806304075158e+01 4.194398234533262837e+01
1.604843635402009383e+01 -9.182060885161122954e+00 4.580405412068206772e+01
1.603092378475296798e+01 -7.252969941189533643e+00 4.719047356640625424e+01
1.582499518052000376e+01 -8.553551670028976872e+00 4.665356222966835276e+01
1.552480669401286129e+01 -7.678890747031806185e+00 4.711714960528789931e+01
2.105516285999133430e+01 -5.602970972492206769e+00 3.480999134804753226e+01
1.846171047953066235e+01 -1.142970319137483060e+01 3.716559098203071443e+01
1.682922778689851739e+01 -1.193461161237552837e+01 3.960248363776355518e+01
1.739104657036155999e+01 -1.182988940832674274e+01 3.899051044339029914e+01
1.702420761277332772e+01 -1.190746843230417085e+01 3.917719645052110877e+01
2.051435725760763162e+01 -7.552888901972210967e+00 3.459900771113630924e+01
2.002881823690558249e+01 -9.154728782427712375e+00 3.488671890178354573e+01
2.035823851727047895e+01 -8.265600253476158343e+00 3.465815606292720474e+01
1.699648309733613871e+01 -5.496888188337955228e+00 4.717375206427150403e+01
1.738560351586669128e+01 -4.616039353933532929e+00 4.716057194229296812e+01
1.567374116468848477e+01 -1.014997124892592417e+01 4.452676816957791317e+01
1.556071338352479216e+01 -9.690840459592250156e+00 4.536584642251225574e+01
1.589259601189064419e+01 -8.800109638397277223e+00 4.629969714313143214e+01
1.902948597314114210e+01 -1.062605990592419225e+01 3.567300617231122573e+01
1.859952382404497939e+01 -1.110718445864589299e+01 3.596278236564412367e+01
1.867871537186234221e+01 -1.129036928400613604e+01 3.676646850279804113e+01
1.964032870044049872e+01 -9.999670059063165084e+00 3.520833113843460893e+01
2.129712596489407872e+01 -4.757676634973972085e+00 3.501231773545327997e+01
1.728878315363955664e+01 -1.186137335799336334e+01 3.837235764927865489e+01
1.623711228642778792e+01 -1.196803464838469822e+01 4.079057798433868953e+01
1.976612547974682954e+01 -9.718757705595372443e+00 3.503450503974138996e+01
1.763353223664615754e+01 -3.681460452182846232e+00 4.712636029946581573e+01
1.657841250837905278e+01 -6.584679167225872654e+00 4.711106301459078338e+01
1.631922211760067398e+01 -5.746479280748838292e+00 4.739532838319245656e+01
1.558871394663655430e+01 -1.134821401628397552e+01 4.252755570257142637e+01
1.535232192375993066e+01 -9.181888411438514197e+00 4.602667172435860721e+01
1.527745464589558466e+01 -7.422317253825662320e+00 4.736490791555009139e+01
1.760965719447587219e+01 -1.173099043683347809e+01 3.762814861653149734e+01
2.055265315711223906e+01 -6.902517896322926561e+00 3.438251601793911050e+01
2.094611764680560029e+01 -4.795291980829119893e+00 3.453421008069430087e+01
2.075870069197033985e+01 -6.044386719139847486e+00 3.446980161485992511e+01
1.643922567474353258e+01 -1.197167946569904196e+01 4.018100351080495614e+01
1.616533026921494098e+01 -1.207076035896983335e+01 3.959737227511786273e+01
2.153719511257803276e+01 -4.099553953300758558e+00 3.526297025393388651e+01
2.001907211837384537e+01 -8.624913672336605330e+00 3.428162159331739645e+01
1.816982532022661800e+01 -3.379330465169529951e+00 4.688427642837269360e+01
1.661230338043651145e+01 -4.653617062018423844e+00 4.745219992337586490e+01
1.508781964433427980e+01 -1.050567432230990939e+01 4.416501164479660702e+01
1.528737271396478903e+01 -1.104154580729837853e+01 4.324179307730460664e+01
1.546750151266380868e+01 -1.170893995431623580e+01 4.191875666926689092e+01
1.500217083442650612e+01 -1.016178485036966883e+01 4.479417856376704776e+01
1.583645838837616537e+01 -6.625544661055618789e+00 4.740356481446700343e+01
1.501807231158353417e+01 -8.105201659408393766e+00 4.704374015923040986e+01
1.777358897565198603e+01 -1.167680816904659657e+01 3.715132962663328442e+01
1.820768669203015122e+01 -1.139812741138838881e+01 3.635321221544833037e+01
2.009242959170276066e+01 -7.775925383451257389e+00 3.403547003115873082e+01
2.072903762149082496e+01 -5.406208456230884529e+00 3.432979209089858585e+01
1.551248914405171142e+01 -1.188195200679565211e+01 4.124375864038529471e+01
1.968612584932825627e+01 -9.309440421882387184e+00 3.443528999705789317e+01
1.709719544793139079e+01 -3.983608203125000191e+00 4.736846712163183781e+01
1.612695465712926435e+01 -5.324772950964788976e+00 4.753461671594093474e+01
1.519490931902063835e+01 -1.078293322676378274e+01 4.380308239291551331e+01
1.506772011214288476e+01 -1.129023392809235204e+01 4.277415954023697253e+01
1.516718506106253628e+01 -1.154777881354366365e+01 4.221067285063557506e+01
1.521790267132386276e+01 -8.688437465547623972e+00 4.673464013224048585e+01
1.481210186800900352e+01 -9.563472806575534335e+00 4.575368076412647156e+01
1.491646949189028248e+01 -9.817788329568331918e+00 4.542333869661737111e+01
1.853931255236546605e+01 -1.082891690055715195e+01 3.520937555759351767e+01
1.832441050157081008e+01 -1.106949679978301404e+01 3.535444742975652588e+01
1.935327220634616552e+01 -9.993778915025844256e+00 3.458891882594677725e+01
2.046223696448269891e+01 -6.485805005872339102e+00 3.412961112896907423e+01
2.117506322554998022e+01 -4.075093109275226944e+00 3.476207399064938386e+01
1.718651760233088766e+01 -1.189285770107243145e+01 3.775424365309001473e+01
1.655527477875489240e+01 -1.201647779633989721e+01 3.874678659064586128e+01
1.663643569021034097e+01 -1.200917103960540366e+01 3.803530779225845038e+01
1.577058539066792164e+01 -1.209304294788775280e+01 4.038942762680129306e+01
1.789022050247293905e+01 -2.915197251446496551e+00 4.707463080522588683e+01
1.564163691724311178e+01 -5.996680781250000258e+00 4.761700529687499994e+01
1.471166865349704089e+01 -9.193370740854195589e+00 4.628466973639283566e+01
1.501714394116546814e+01 -6.586007652755064612e+00 4.764930674809927069e+01
1.452397335791267885e+01 -7.591603019476009351e+00 4.753934202269248743e+01
1.708440186101018199e+01 -1.192429601154461771e+01 3.713705109123255710e+01
1.765425235971423135e+01 -1.163329930303770077e+01 3.658119628067522910e+01
1.773666116310911178e+01 -1.150588467024159378e+01 3.593996461787620689e+01
1.870124711567130404e+01 -1.051273951452562372e+01 3.466732470062365223e+01
2.016576054687500275e+01 -6.927242187500000092e+00 3.378940690283616277e+01
2.039119183831845916e+01 -5.692643972163343946e+00 3.390847773544447108e+01
1.588213566380090036e+01 -1.214728715961579653e+01 3.898201236313246909e+01
1.957894862048360096e+01 -8.817907828071689380e+00 3.385416639523268856e+01
1.735396357832284764e+01 -3.217303562683850426e+00 4.731671723212564018e+01
1.647590855199804949e+01 -4.195530544806643114e+00 4.759480297735466792e+01
1.543786128790307721e+01 -5.308719776508221244e+00 4.783170131297114125e+01
1.585487300318317949e+01 -4.407363965893900115e+00 4.782092643703341395e+01
1.450207214072018225e+01 -1.086106626990559576e+01 4.380337483476385785e+01
1.458344216326102760e+01 -1.115646524058129252e+01 4.316756143441926952e+01
1.466463339300583435e+01 -1.145206405083412982e+01 4.253083744674751898e+01
1.438716974428827911e+01 -1.040310085800504680e+01 4.464189941691468988e+01
1.474531692355542134e+01 -1.174727667639274564e+01 4.189356414634040959e+01
1.427216246409915179e+01 -9.944693026497951394e+00 4.548083807166680970e+01
1.451078434367735959e+01 -8.531825619687394280e+00 4.697025424591579679e+01
1.957094521472592774e+01 -8.538046393586888883e+00 3.365383026992513749e+01
1.608635246105429673e+01 -1.212548473244422453e+01 3.831639581926091864e+01
1.524791825616869545e+01 -1.204292983300853592e+01 4.066980007240477590e+01
1.477498168920180888e+01 -1.194541316533234543e+01 4.112390222568204479e+01
1.550143174111054734e+01 -1.220690983226103121e+01 3.959225719511457697e+01
1.530406110007537990e+01 -1.221805054932272228e+01 3.998828689901319677e+01
1.927434366342865957e+01 -9.355310821377319286e+00 3.391604581201109880e+01
1.686518526486930014e+01 -3.461430154403942971e+00 4.755811476313820663e+01
1.461125735273097170e+01 -8.823190134046036803e+00 4.681565602579775032e+01
1.413792559993810194e+01 -9.451589388272017445e+00 4.618867595718463548e+01
1.804911653843792863e+01 -1.103178453190518660e+01 3.474574474654845346e+01
1.771390771663306651e+01 -1.131315938092024354e+01 3.519812922544635114e+01
1.883588415451770359e+01 -1.010941284415113017e+01 3.414534223916460576e+01
2.007466561228405766e+01 -6.255043549004081882e+00 3.355941675439996175e+01
1.968117803268560806e+01 -7.264841038347047864e+00 3.328497765059803015e+01
1.628445956233759162e+01 -1.209098647466509036e+01 3.771267235380420857e+01
1.537513619157599720e+01 -1.225833244142064338e+01 3.874307157342580865e+01
1.896973867076306419e+01 -9.892710870117486621e+00 3.397792257225404455e+01
1.494424522930720300e+01 -6.140229105278608657e+00 4.780174226978442675e+01
1.523384206733308410e+01 -4.620638325606143404e+00 4.804642327501511545e+01
1.624401937611195379e+01 -3.673395064180410952e+00 4.778441174579847228e+01
1.414195505623911053e+01 -1.142621985992805023e+01 4.261949773838930611e+01
1.426365593556384148e+01 -1.185878032912832403e+01 4.147109134470009906e+01
1.400368639193127507e+01 -8.958117378626470284e+00 4.689679765234374997e+01
1.375658029966636953e+01 -1.016321925874365917e+01 4.516340994466180803e+01
1.439375489137473352e+01 -7.173535780637251946e+00 4.768154637876176594e+01
1.388705528465806971e+01 -8.359385959728902193e+00 4.730538155391685962e+01
1.689393802558623392e+01 -1.190051948261023185e+01 3.652724777660640854e+01
1.828235462306779269e+01 -1.051315332810973580e+01 3.414901373725975020e+01
1.975903668756155440e+01 -6.875788528296372881e+00 3.327181684943543161e+01
1.955506708166533159e+01 -7.920497574656813811e+00 3.338321256744301735e+01
1.480625925394069853e+01 -1.214424116348111582e+01 4.035538549543416309e+01
1.913892555204752455e+01 -9.010859499822945651e+00 3.342682079002559448e+01
1.663287994132542025e+01 -2.939318432141494242e+00 4.774773935110454204e+01
1.424664951497666188e+01 -6.283766330972633263e+00 4.798653026204645755e+01
1.562304640456046378e+01 -3.885218689851863694e+00 4.801065530763511191e+01
1.395915806740883802e+01 -1.106106151231622015e+01 4.341130148922868415e+01
1.362557358581054423e+01 -1.061420703248585617e+01 4.437303617572902681e+01
1.400557233886047293e+01 -1.177541067565040223e+01 4.188145236158393914e+01
1.361372826514806000e+01 -1.000305608854269579e+01 4.553763896241230924e+01
1.351319899809157477e+01 -9.633345428854083181e+00 4.606843265165970536e+01
1.659023107848269873e+01 -1.200092332572429576e+01 3.669950682388807195e+01
1.648256516662471682e+01 -1.205648854107539769e+01 3.710900557466751337e+01
1.726554265191479232e+01 -1.161366348402096271e+01 3.552664257017345051e+01
1.998347451444698208e+01 -5.582139088117459735e+00 3.332918497595991170e+01
1.561743186475097112e+01 -1.223449123494880908e+01 3.788601899472441659e+01
1.431956327965100861e+01 -1.203442218443692013e+01 4.079072974393817219e+01
1.483753463647343374e+01 -1.234305860702152202e+01 3.958715177447969324e+01
1.858619025587378104e+01 -9.791639891876741331e+00 3.336692114636797157e+01
1.467260082257199727e+01 -5.222826194237733866e+00 4.808804532919155861e+01
1.601183415419100697e+01 -3.151259649187209799e+00 4.797402438122797719e+01
1.380042528219040143e+01 -1.090491945376082938e+01 4.382588196738475972e+01
1.341657953446510021e+01 -1.126075786592895156e+01 4.301947602984039065e+01
1.354087098757589125e+01 -1.154529753144539939e+01 4.240331475330385302e+01
1.324129121124310338e+01 -1.038151514895577954e+01 4.484616245438628823e+01
1.377048928022117735e+01 -7.760832456428111925e+00 4.771377610058841157e+01
1.670359477504008083e+01 -1.187675838615166768e+01 3.591786205715163049e+01
1.747368338065539817e+01 -1.129765701610128481e+01 3.473043443470118063e+01
1.831842049951302798e+01 -1.022506356731063626e+01 3.370170779019255036e+01
1.772882803758285775e+01 -1.091689214273348085e+01 3.415268605502963339e+01
1.966783500617884428e+01 -6.203229511342100544e+00 3.304163506815876161e+01
1.935219630880415664e+01 -6.824319921850995563e+00 3.275409752593085244e+01
1.912267564116730867e+01 -8.451153769329872389e+00 3.302586063968948338e+01
2.024386171801214829e+01 -4.870546657275710345e+00 3.357767471871694909e+01
1.588154260991514555e+01 -1.218850210855388383e+01 3.708099360714619053e+01
1.475840784127510830e+01 -1.239780978296078295e+01 3.830624208657096119e+01
1.378277463062657660e+01 -1.197073562384606937e+01 4.104930919787898347e+01
1.411090870064889558e+01 -5.825100685704654779e+00 4.812968189492720938e+01
1.459887118946517148e+01 -4.733100228857132663e+00 4.823803018367208040e+01
1.498822632132853983e+01 -3.767023547419671825e+00 4.833030480910157678e+01
1.365983156620605854e+01 -7.094347327121906410e+00 4.794247374477841106e+01
1.640235192666143504e+01 -2.417094176521980664e+00 4.793740757316790990e+01
1.341270979749452685e+01 -9.263519080400577366e+00 4.659922745302614544e+01
1.319469930161527316e+01 -9.044485233018152215e+00 4.699768148119684241e+01
1.295641292331643690e+01 -1.006130311829359592e+01 4.559434219084208451e+01
1.609647878854820746e+01 -1.207748556327159584e+01 3.626233777173005279e+01
1.758875094713002341e+01 -1.109290926920225573e+01 3.435121009593809305e+01
1.679450327958667799e+01 -1.172142406972948514e+01 3.511339525131039352e+01
1.919658903868757704e+01 -7.602444403545909779e+00 3.278056270310382558e+01
1.989214734415370955e+01 -4.908237811529943428e+00 3.309861174938401973e+01
1.404628039398670047e+01 -1.218786005954209095e+01 4.020451708421036585e+01
1.479797852276431414e+01 -1.237042958108741075e+01 3.894677732695014782e+01
1.869873772464784878e+01 -9.203880925040786920e+00 3.299932240067955291e+01
1.354904385223223962e+01 -6.427258874000940203e+00 4.817131970703125177e+01
1.545888959354100400e+01 -3.316417941657448853e+00 4.819941759821025329e+01
1.584955466972209770e+01 -2.582359142499647486e+00 4.816280108635636026e+01
1.309769697371537056e+01 -1.094879924817670869e+01 4.384842036709571289e+01
1.287401103472543973e+01 -1.146027884538205299e+01 4.262766538494746982e+01
1.272580392934024118e+01 -1.059978145069545974e+01 4.452879382873997116e+01
1.326559973283738003e+01 -1.180351706262319844e+01 4.186846992990697203e+01
1.322220465907479436e+01 -8.124875033134371094e+00 4.758528236594310812e+01
1.651341237241903315e+01 -1.185301748838587699e+01 3.530901891035341578e+01
1.740828891191963024e+01 -1.080191080647057333e+01 3.355917655342644679e+01
1.945170450034507681e+01 -5.348452508119368787e+00 3.262374981528812867e+01
1.514841811658132187e+01 -1.234351938910027613e+01 3.745556582816059432e+01
1.439350007973252588e+01 -1.238137689494175753e+01 3.919081461340529415e+01
1.409261933587925242e+01 -1.236207757474847568e+01 3.953079422104209328e+01
1.396366374354910356e+01 -4.845564382993795327e+00 4.842970493115091557e+01
1.435208794759136630e+01 -4.223603595031007352e+00 4.844204974957595766e+01
1.282212506047926937e+01 -9.568613323667628734e+00 4.630184800970467762e+01
1.300575550735565855e+01 -7.823718570560087571e+00 4.783105065954840995e+01
1.544165234870135173e+01 -1.223727808010627882e+01 3.643909675063892450e+01
1.689842591275890271e+01 -1.156344919478469535e+01 3.471514031274134027e+01
1.780130994055210536e+01 -1.034063499583889723e+01 3.325838142119923901e+01
1.712838428919135225e+01 -1.115403556285279763e+01 3.395668093697278067e+01
1.918160216464900714e+01 -6.306621222613318700e+00 3.245136524052055904e+01
1.901059779503209413e+01 -7.235354981149153986e+00 3.244722357267897195e+01
1.945663508677462517e+01 -4.893574528301901871e+00 3.256737779216611983e+01
1.528049393948250234e+01 -1.232052123402054100e+01 3.705298546626957545e+01
1.471882567397859987e+01 -1.242519757951838955e+01 3.766557685484405482e+01
1.330170986541494571e+01 -1.208287639318590934e+01 4.062736916594543146e+01
1.867505176460556626e+01 -8.364384267986402222e+00 3.239881470488480630e+01
1.820256528394264350e+01 -9.690548942762415408e+00 3.275581438485199470e+01
