1.193670458451540917e+01 1.563711642416682679e+01 4.282741087332055940e+01
7.699447888067581403e+00 1.477061918837675414e+01 4.497133744391345544e+01
1.617747625960541313e+01 1.387185380786214139e+01 4.170449518600810279e+01
6.943179508458758420e+00 1.418651449350420002e+01 4.550849973020169159e+01
5.345312490792477611e+00 1.368691395190930393e+01 4.556653922521885391e+01
3.966626446232944581e+00 1.312275712356610491e+01 4.563767288568600122e+01
2.022690345785739652e+01 1.087855729036295216e+01 3.860061907706663931e+01
2.011871441448266395e+01 1.141711681912446963e+01 3.915317355643437480e+01
1.916230857312783797e+01 1.280302707736733225e+01 4.022785862546903957e+01
1.866447648011392602e+01 1.329310829519409154e+01 4.017394461926174642e+01
1.841664354809194393e+01 1.341093949313786737e+01 4.042098294039993789e+01
1.765063634806823600e+01 1.361837667504077665e+01 4.102535149774778489e+01
9.179482968518515307e+00 1.498553101242533003e+01 4.484554313791907276e+01
9.980924514300307138e+00 1.549699094988961257e+01 4.432625079106748700e+01
1.125446398210998211e+01 1.583489748560998223e+01 4.326720413094179918e+01
1.005592448666806860e+01 1.562883978563268705e+01 4.399073096017988860e+01
1.522122104100446549e+01 1.423069389008779950e+01 4.216460926223831507e+01
1.331037166735665522e+01 1.515829639034962995e+01 4.265318536931544458e+01
1.262323394421820666e+01 1.539781898296441121e+01 4.274032166455234005e+01
1.694785783030847170e+01 1.356555146545983526e+01 4.154739775619086828e+01
6.185673613445378471e+00 1.360251465448402897e+01 4.604765826030673992e+01
4.808435478491472459e+00 1.303849133453945086e+01 4.611756167547861907e+01
1.986533792509980145e+01 1.196784269303791604e+01 3.948398259660589815e+01
1.958019522225540143e+01 1.232007375100137203e+01 3.986318521782630597e+01
9.918293212307371931e+00 1.509289957990080211e+01 4.478184973549782200e+01
1.106460183570242251e+01 1.563378992975390069e+01 4.366429763637127337e+01
1.123650775177221561e+01 1.570772990088501331e+01 4.348893921207394442e+01
1.133551317445216000e+01 1.583638876470881485e+01 4.302061344767268736e+01
1.080938544323003114e+01 1.546439479349224122e+01 4.405433520826004212e+01
8.439195999100851608e+00 1.487806435681631356e+01 4.490887333399624737e+01
1.210730090855858521e+01 1.555712399094027809e+01 4.303951520845335921e+01
1.194527361681858935e+01 1.555410719727004931e+01 4.353289149486549547e+01
1.504203894562472676e+01 1.430069932695423596e+01 4.231513793057342809e+01
1.393146684511492062e+01 1.486296909181923454e+01 4.256620303011660411e+01
6.916192828305733009e+00 1.379620738032403615e+01 4.600213905552547544e+01
7.645870615087302369e+00 1.398961575259338375e+01 4.595549236477070565e+01
1.580766533074262981e+01 1.397669669678324844e+01 4.231004580626960632e+01
5.497202188209721285e+00 1.332060721223074040e+01 4.608264287935442383e+01
2.028306503376870040e+01 1.133546149323764674e+01 3.963244296221417784e+01
1.866699321190801086e+01 1.303849564416719353e+01 4.072202160194687792e+01
1.828430788230737392e+01 1.314219562107182782e+01 4.102415341655412107e+01
1.760427303699060886e+01 1.326581573490027566e+01 4.137262449108306583e+01
9.882263321568709458e+00 1.478871625452064364e+01 4.529106753671736385e+01
1.065812659120945760e+01 1.520037561323460018e+01 4.472015847752518880e+01
8.402737725400507784e+00 1.457386123098187447e+01 4.541610269272298694e+01
8.375686189076981591e+00 1.418300184653025298e+01 4.590902118684475397e+01
1.287914636068696517e+01 1.527782951314804016e+01 4.305842569547338172e+01
1.261805278325030244e+01 1.532738767616616471e+01 4.341433209667452786e+01
1.455256894681605218e+01 1.456774818161476581e+01 4.248103493716789103e+01
1.517375793909842407e+01 1.424499505844666025e+01 4.231426327696890155e+01
1.398906351391089942e+01 1.482992449865525586e+01 4.266093110511206277e+01
7.060816706796471109e+00 1.350468034588955923e+01 4.641310184330936295e+01
1.637780249063275662e+01 1.377118537565183765e+01 4.192886054208766922e+01
5.822933245254516166e+00 1.306998488324342667e+01 4.653624690100645722e+01
6.697415778810873910e+00 1.297175188869731777e+01 4.690177414025107794e+01
5.460636576740633963e+00 1.253721288282320501e+01 4.702494832018080473e+01
2.051810006029502631e+01 1.079396756719689954e+01 3.924846877467979311e+01
2.048103302526903491e+01 1.029698088979035298e+01 3.837181610276088151e+01
2.069923288280193319e+01 1.023394195600458190e+01 3.885780456640981129e+01
2.001156760672070689e+01 1.189505579203827779e+01 3.990981989843214706e+01
1.966059293869099633e+01 1.231224960246507827e+01 4.028186476439518771e+01
9.106794744536568231e+00 1.437667064409540174e+01 4.586259539921550754e+01
1.124464283275390564e+01 1.561750004147531001e+01 4.363743231180782800e+01
1.231679619155591610e+01 1.513534696694752668e+01 4.418189515410244894e+01
1.156294588346724694e+01 1.529991264745800983e+01 4.411804034008322617e+01
1.261431584100455616e+01 1.528157631752771906e+01 4.356894931061903264e+01
1.518070967961132745e+01 1.427227823971670873e+01 4.239568508816151393e+01
1.386712254263443711e+01 1.493855948017838564e+01 4.287461360369805163e+01
1.365171321856948872e+01 1.499826503308226933e+01 4.307736285736419291e+01
1.277123949670400371e+01 1.527576501740157511e+01 4.338734555019536998e+01
1.359761742222918812e+01 1.499728469676160358e+01 4.324177138152771249e+01
8.521065295178820165e+00 1.389151421595782487e+01 4.632197104546980881e+01
7.938104035913380763e+00 1.340682772399710210e+01 4.677810681078250354e+01
6.078905395539711876e+00 1.275446710073889278e+01 4.696340473979054053e+01
1.655699640733440603e+01 1.359239303675649957e+01 4.211989080374060279e+01
1.750023371164046893e+01 1.319508069682998830e+01 4.164393937660785383e+01
1.953761160624902260e+01 1.224411294026778130e+01 4.067930274992090744e+01
1.891711238369910220e+01 1.266601842769058273e+01 4.102301004176080568e+01
1.826079345143734400e+01 1.296592030756761993e+01 4.119780001397890601e+01
1.848468939946248568e+01 1.274537120849142369e+01 4.138167032150684577e+01
9.245508715569467739e+00 1.368714290496578556e+01 4.663478671918177554e+01
9.829227276235824817e+00 1.417252228236265665e+01 4.617593495063427156e+01
9.777600600907026873e+00 1.444987311245467865e+01 4.578679402366628182e+01
1.044822441166209614e+01 1.452301886585592250e+01 4.571097855041302438e+01
1.133475373501151928e+01 1.513609588587561738e+01 4.458713274771420743e+01
1.111846671960160293e+01 1.459606578733171567e+01 4.563511537664732742e+01
1.250764276684934018e+01 1.526265235006641774e+01 4.388862656873880042e+01
1.226730978716116738e+01 1.504725105198813395e+01 4.440332801753770298e+01
1.466854396145336814e+01 1.450172125818581037e+01 4.267056379963810286e+01
1.442364165461941816e+01 1.471892284714747134e+01 4.309629368116030435e+01
1.328389760816134846e+01 1.500881521017434217e+01 4.360507194990398716e+01
7.317366184331490331e+00 1.318929476190827366e+01 4.683998572376862768e+01
8.591818038214297459e+00 1.354699590631706485e+01 4.670648208708841764e+01
7.920411490770903562e+00 1.289704772772319252e+01 4.721404132529961117e+01
8.638123726438964312e+00 1.329073765168082666e+01 4.691284074214110689e+01
6.272572494850028768e+00 1.248735703715550471e+01 4.723311983375445777e+01
1.730450863226397118e+01 1.320869786278098701e+01 4.193002356660021945e+01
2.044755273456125622e+01 1.125364730089789411e+01 4.011156467007707960e+01
9.900490202665654493e+00 1.382754792755703477e+01 4.656286641816329563e+01
1.055588853584378128e+01 1.396802263033175251e+01 4.649032328972396755e+01
1.003840696943929345e+01 1.305829879617562383e+01 4.718243071351770368e+01
1.029713085984197818e+01 1.351320656987142677e+01 4.683667818910857505e+01
1.132024686725369378e+01 1.504072374977419280e+01 4.478166678797336431e+01
1.122231512393675779e+01 1.493460685484955341e+01 4.513865388634631159e+01
1.146380056409339865e+01 1.512379953471075567e+01 4.456168694626555293e+01
1.535753901710181424e+01 1.417310306543108034e+01 4.267936404196590416e+01
1.518576685626216971e+01 1.431798447467238944e+01 4.296082274813844748e+01
1.395378663585943535e+01 1.473591908100396530e+01 4.364125010493307855e+01
1.307083858194864057e+01 1.497072190236769629e+01 4.424504635608249714e+01
7.087219481674683408e+00 1.243745285033553571e+01 4.744126696208601857e+01
8.615217705279796689e+00 1.261134925820501884e+01 4.749387261303533592e+01
5.623954917149460719e+00 1.199329208386006229e+01 4.752749431488648924e+01
1.604066144651955739e+01 1.384449166908382800e+01 4.268766085701907542e+01
1.626743622072138251e+01 1.374620344421971119e+01 4.250302709176025218e+01
2.015784563383008532e+01 1.182233924371964839e+01 4.033574976873610041e+01
1.945298099614267784e+01 1.209172121925356436e+01 4.107768564563276925e+01
1.805216647501891813e+01 1.282467010284710440e+01 4.173996304898494003e+01
9.337776367943439126e+00 1.317462049508653266e+01 4.704754786952196355e+01
1.117282255989111484e+01 1.431875110475687407e+01 4.602382197359457905e+01
1.198180920163624563e+01 1.488119285957166049e+01 4.484315309708345865e+01
1.513488781174182840e+01 1.429755855930782182e+01 4.311661777310104071e+01
1.595778814250482824e+01 1.391685120404383191e+01 4.282843526010768898e+01
1.462295550683569623e+01 1.446330690707260125e+01 4.367743553668868373e+01
1.739202071766187174e+01 1.317013401456339849e+01 4.221827397042478935e+01
1.381151984578019132e+01 1.471059475685728657e+01 4.406830814097720150e+01
7.902451167748167471e+00 1.238742317466720344e+01 4.764968223822726401e+01
7.197878393279380838e+00 1.207471204685378652e+01 4.777655212505568016e+01
6.494296187576010126e+00 1.176237527032671970e+01 4.790311005889950735e+01
1.672235423298370094e+01 1.351582516260482869e+01 4.269563386634098379e+01
1.079335397533987084e+01 1.316331775587319441e+01 4.702020210280451096e+01
9.326502747261654847e+00 1.283475112586204858e+01 4.733828452284959809e+01
1.178907448315948336e+01 1.466901143287402043e+01 4.555910595528168727e+01
1.128673755541090351e+01 1.394817806766945800e+01 4.635713351290181095e+01
1.142983590588920251e+01 1.367021126783123286e+01 4.659311833355442189e+01
1.154894236873079727e+01 1.326718129102520294e+01 4.685784530619252308e+01
1.230427677669731423e+01 1.336986246351841601e+01 4.669554391804686588e+01
1.264294422006864771e+01 1.472175427756383037e+01 4.490461584059497113e+01
1.239178408180385915e+01 1.459522772204896057e+01 4.541253085470682294e+01
1.529241608269121144e+01 1.419056590853617195e+01 4.371369252088215518e+01
1.584901942080729498e+01 1.387606675069648432e+01 4.313759056173777395e+01
1.455184106906842700e+01 1.445061762925337234e+01 4.389097589115815623e+01
1.374244823859173081e+01 1.463202072562219413e+01 4.426296798633991614e+01
2.055131289308700815e+01 1.120250188141340786e+01 4.044809904892618846e+01
2.007346717442828776e+01 1.167012569996951754e+01 4.073385896406762896e+01
1.869755814436052077e+01 1.238905704542287545e+01 4.153723287182080526e+01
1.934371454215479247e+01 1.195281568526970339e+01 4.133414585393615681e+01
1.744765861775375981e+01 1.299891279522380749e+01 4.248633567322697502e+01
1.073803146091517746e+01 1.293633388538238904e+01 4.727749385827167572e+01
1.022544122708583103e+01 1.262623549349613761e+01 4.762335240618759968e+01
9.575891831336656779e+00 1.225850294694775755e+01 4.792609416685138513e+01
1.200931514299987235e+01 1.391885258421032567e+01 4.622364221096057690e+01
1.227564942275934889e+01 1.449780800005565951e+01 4.555376078733493017e+01
1.441493624284360209e+01 1.429311138830038708e+01 4.428216924858389802e+01
1.816990748876389716e+01 1.248237146915687568e+01 4.227541000811635286e+01
1.352068756951437756e+01 1.468669712306390629e+01 4.463621322837904870e+01
1.330457515399090873e+01 1.456218286121143812e+01 4.496614366875672175e+01
8.739547926281767687e+00 1.232296810536649367e+01 4.778791412240342140e+01
1.998902827962808715e+01 1.151705483541950947e+01 4.113175277227331605e+01
1.847022688504798182e+01 1.239521323814173215e+01 4.190286179194514915e+01
1.656092587017172946e+01 1.345434251779403745e+01 4.316032418045499242e+01
1.143685733001772142e+01 1.281437954919061717e+01 4.738581913277563729e+01
1.213561407123533975e+01 1.269235210626235677e+01 4.749701468749999833e+01
1.226426933048090717e+01 1.428574837480671533e+01 4.582393839848279526e+01
1.251384644941259872e+01 1.458028717547940722e+01 4.538277328876086614e+01
1.508562482551411499e+01 1.395348765487192466e+01 4.430273749306811482e+01
1.323933545032329739e+01 1.449151420441933702e+01 4.520499989469197999e+01
8.301908215314659500e+00 1.189583222855917910e+01 4.818252724378070440e+01
7.244681371081854948e+00 1.142714094000481673e+01 4.837211148434479924e+01
2.043848216730055611e+01 1.099981624931389845e+01 4.097905171842168670e+01
1.943834507352746144e+01 1.174160591239618867e+01 4.160017243090102568e+01
1.888807177275680260e+01 1.196593182649945142e+01 4.206832727812511763e+01
1.595287135034575421e+01 1.380479516795253581e+01 4.353629401503149410e+01
1.727122651037359091e+01 1.303235244701807183e+01 4.317984703962610382e+01
1.098613053307558651e+01 1.236012303700151449e+01 4.786503854005199798e+01
1.252313226995489259e+01 1.362931372737754110e+01 4.639399074090968611e+01
1.274519560294803178e+01 1.275857623493839554e+01 4.724187445470713698e+01
1.272378778888007744e+01 1.388046409527689207e+01 4.608909417914681228e+01
1.396534911306875415e+01 1.440280021506095665e+01 4.502761231915666684e+01
1.456463389296690991e+01 1.414036811008287842e+01 4.479221406187566146e+01
1.781378606657477093e+01 1.267694581338148119e+01 4.281069847620370439e+01
1.241592904908016415e+01 1.444843053032724178e+01 4.555219116208949259e+01
1.304279643095641461e+01 1.422766802773423223e+01 4.554491551353316936e+01
1.325779224431992986e+01 1.385460524015552330e+01 4.590257569140406702e+01
1.349991455916179461e+01 1.361234010753915946e+01 4.608733204324745714e+01
1.295579382464367058e+01 1.335864077869307032e+01 4.648978561816500132e+01
6.517554389694626416e+00 1.143835515355698895e+01 4.820098413752724298e+01
7.972565190085367348e+00 1.141589538992266206e+01 4.854338928134941966e+01
1.661275900259451177e+01 1.341881932356929674e+01 4.335924095560506686e+01
1.156110280004006263e+01 1.252636743817671672e+01 4.768088623971704010e+01
1.133394113824615523e+01 1.215295157432894513e+01 4.842653728631491106e+01
9.271973166515319775e+00 1.166790891839077382e+01 4.849795523442690381e+01
1.041205482876558719e+01 1.219401103836161582e+01 4.806254429704620179e+01
1.584357969958773005e+01 1.377951932154355141e+01 4.366959212109302513e+01
1.516079901228172311e+01 1.387697454223716598e+01 4.455756951594166537e+01
1.447768333704379273e+01 1.409997135615581954e+01 4.499293488971496657e+01
1.835379553140407438e+01 1.232149255919162201e+01 4.243815801403388832e+01
1.360720767974875933e+01 1.334741889485555610e+01 4.628679926198006456e+01
1.313590463639063799e+01 1.313078642106541416e+01 4.670714417262461637e+01
1.425822956927778939e+01 1.333620181813545003e+01 4.608477771643500631e+01
1.396599443754991654e+01 1.289078525870267988e+01 4.673140774565796107e+01
1.335544818072709106e+01 1.282473418358707562e+01 4.698660671833603431e+01
1.295502071099410912e+01 1.259198604284184775e+01 4.768324055829222630e+01
9.841975490479628164e+00 1.193093451514752168e+01 4.828118570481108662e+01
6.441066068068874273e+00 1.088872419705606909e+01 4.866527443910034378e+01
2.039882971457097227e+01 1.078353431973441623e+01 4.127544409839214268e+01
1.952860132883913025e+01 1.132697831586599158e+01 4.185198857424835239e+01
1.639532274301914683e+01 1.336800885228310243e+01 4.362578228936964564e+01
1.480640508138677092e+01 1.284116587426995437e+01 4.638135157338679448e+01
1.495158939141887089e+01 1.306396479828671353e+01 4.605799873631966079e+01
1.226170007126792427e+01 1.211180476384942217e+01 4.878850396645471932e+01
1.575623682109795887e+01 1.361341947562912758e+01 4.432471153058553881e+01
1.367006572390995700e+01 1.400655614691409490e+01 4.553690885173362801e+01
1.378583816224355019e+01 1.396572135133408565e+01 4.553529253779039720e+01
1.378347864157312763e+01 1.382265452895630631e+01 4.571581619329123924e+01
1.498661241005687117e+01 1.379663164307561551e+01 4.495820596901048560e+01
1.429880412650309118e+01 1.378469147218806690e+01 4.552751984453447420e+01
1.790197136456805183e+01 1.248086718948094997e+01 4.299577957222756197e+01
1.378698317989531219e+01 1.249148487161837551e+01 4.788231773175288453e+01
8.701336250297774910e+00 1.140461701982892784e+01 4.871482245360824948e+01
1.062570237686721697e+01 1.180735331084200901e+01 4.884621690841061792e+01
7.627891766455595857e+00 1.068733528503587316e+01 4.910493364449808951e+01
1.464506652693537525e+01 1.274151667329797277e+01 4.683796721434092802e+01
1.694728830830513289e+01 1.295628742322524829e+01 4.357866752734848603e+01
1.302479359789064972e+01 1.230179540572994412e+01 4.833534929632583044e+01
1.516175299679686006e+01 1.348765166983120878e+01 4.520802228527328737e+01
1.509219440119755973e+01 1.314271879647947472e+01 4.576819370981666424e+01
1.549487530593308371e+01 1.349366976699168852e+01 4.492351003322018244e+01
1.853264257867795450e+01 1.192903522624390966e+01 4.280891778367900713e+01
1.749837955087346586e+01 1.254515382766747855e+01 4.353136179401195704e+01
1.456754897055888698e+01 1.254187449349267602e+01 4.741730364534421227e+01
9.413308215694042858e+00 1.141001686605154752e+01 4.901930206145685531e+01
1.012743792619495409e+01 1.141533853905385953e+01 4.932363981378301077e+01
8.164360771804458849e+00 1.104586426530420695e+01 4.891000214673838542e+01
7.091467859267371665e+00 1.032868529102757726e+01 4.929979293296425880e+01
1.633855881590184467e+01 1.325765607736328455e+01 4.405769034492984559e+01
1.564604986121795704e+01 1.279138172328348944e+01 4.603123587879423440e+01
1.534633349533814339e+01 1.259227301627584694e+01 4.695260981245699128e+01
1.155245540818235739e+01 1.176576649759689985e+01 4.920880641775395503e+01
1.511473596450401224e+01 1.336762635963367174e+01 4.548913061334582864e+01
1.805241652329590352e+01 1.215579823711709473e+01 4.323284375212968200e+01
9.127136747300575337e+00 1.094676057653205170e+01 4.954124585524978386e+01
7.910670102564493433e+00 1.038229838503695390e+01 4.965546075543943516e+01
7.785412061489161317e+00 9.830281694905027123e+00 5.014379911816799051e+01
1.916330401848139076e+01 1.137647121602635281e+01 4.262285043852880051e+01
1.860739480341084473e+01 1.176623620367052503e+01 4.292766610132814975e+01
1.600333918903537267e+01 1.319055527655133808e+01 4.488880844013520033e+01
1.628940471802401291e+01 1.321683645655633654e+01 4.425077119142898852e+01
1.692196736333370666e+01 1.290098839829292388e+01 4.379319635930709609e+01
1.645898533544768227e+01 1.309068871796099920e+01 4.422751798150546421e+01
1.693414536795487990e+01 1.261759356885788819e+01 4.446348970228138597e+01
1.610757396080195392e+01 1.250690683028456363e+01 4.649749304646268655e+01
1.716178991480544980e+01 1.256783014155381295e+01 4.413219301654083893e+01
1.536908725549935717e+01 1.341567375305077015e+01 4.513065729297122175e+01
1.592805915161994079e+01 1.294893359148298195e+01 4.545140142481027112e+01
1.812732579092932639e+01 1.200799151045047175e+01 4.338714670148512198e+01
1.084510108249945404e+01 1.142058690641898444e+01 4.962796274028818289e+01
6.268697348377306078e+00 1.030037275674708930e+01 4.906510924871684409e+01
6.714899430414626558e+00 9.895561995255167886e+00 4.947709495376925304e+01
8.733110674468658630e+00 1.043579135185823503e+01 5.001130378867209458e+01
1.671931061651887163e+01 1.259408294264006223e+01 4.511952520666689281e+01
1.675648069334537738e+01 1.271541603734049275e+01 4.483798110468860187e+01
1.638819526359534251e+01 1.257396107153350329e+01 4.568953994125376994e+01
1.686738406178272598e+01 1.242168764124012270e+01 4.604341118366274799e+01
1.713110641554490954e+01 1.235649082781638874e+01 4.534798119146849160e+01
1.652906556832601126e+01 1.265312459703725168e+01 4.539975057249636592e+01
1.786517550554182421e+01 1.204443985500527248e+01 4.403807709058958153e+01
1.750855468330446740e+01 1.223921144183074006e+01 4.478779483230107417e+01
1.020261532063728716e+01 1.095498369109767189e+01 4.999749252082745699e+01
9.024487046011051561e+00 9.909922816317035199e+00 5.067804242983559959e+01
9.559984636543250147e+00 1.048914827394177962e+01 5.036708223316205135e+01
1.756700098398376042e+01 1.217035888786058884e+01 4.565070430184871952e+01
7.641899113446851466e+00 9.230888712576753363e+00 5.060267158575878454e+01
1.780381673797680619e+01 1.200243824726474884e+01 4.500576177268568046e+01
1.791925611907576155e+01 1.205390220786376432e+01 4.528768697977771751e+01
1.819556668855358694e+01 1.171369591580705816e+01 4.444415916791425758e+01
1.799035742451161468e+01 1.194391665213586862e+01 4.472787804157419345e+01
8.490037640778220762e+00 9.331488722786890122e+00 5.098844611449228381e+01
6.799993743616306041e+00 9.130078938729155880e+00 5.021694864363442434e+01
1.798176612215616288e+01 1.202133665893806658e+01 4.541953952632533742e+01
1.888372237136424303e+01 1.118797474456092189e+01 4.410100254417021404e+01
1.847264411118683469e+01 1.164814428186471140e+01 4.466791838818776483e+01
1.826653094191372517e+01 1.191901100008371017e+01 4.526085112500000207e+01
1.886331902845172692e+01 1.153680148330316335e+01 4.495424497744225789e+01
7.399636026732570038e+00 8.782395040692774657e+00 5.075949986755528442e+01
8.128290394186223011e+00 8.658465023893310075e+00 5.122387789907770639e+01
1.403806470739640488e+01 1.194332894784074028e+01 4.781354166316706511e+01
1.357872731542594025e+01 1.195894336121059531e+01 4.807821554151819043e+01
1.428083250986840724e+01 1.139516834492322594e+01 4.774472473671355033e+01
1.455273719999208559e+01 1.189545510489311297e+01 4.751587161731200126e+01
1.249162158069570694e+01 1.152734267817429625e+01 4.874735387869773007e+01
1.336636214129949529e+01 1.142606468539875664e+01 4.827526092787957879e+01
1.479775319682446089e+01 1.142862009090063680e+01 4.743466479403956271e+01
1.507194560353844182e+01 1.201022306861808708e+01 4.719370984009420056e+01
1.561273282272834351e+01 1.191857057172327927e+01 4.688921569503796150e+01
1.533889358113341927e+01 1.142672442002071165e+01 4.711746315117250816e+01
1.399499437158930704e+01 1.068464670837368757e+01 4.800665227315549544e+01
1.365198432670546147e+01 1.098412686960111984e+01 4.816702198594681761e+01
1.452353950368535962e+01 1.084700567097863022e+01 4.767585983887936862e+01
1.208668006709573817e+01 1.122913434922310927e+01 4.900107643738557073e+01
1.271659101020413907e+01 1.094338342243191953e+01 4.870620969722723004e+01
1.315157000514764896e+01 1.089255103403565883e+01 4.847027337219792997e+01
1.587897405690362795e+01 1.124506813447628950e+01 4.682578588562893884e+01
1.662669268944274137e+01 1.180507392216675910e+01 4.628301487806852776e+01
1.638600631217878245e+01 1.118850921867918302e+01 4.652257471919263310e+01
1.720596834738924485e+01 1.124537388420137596e+01 4.601007058411283879e+01
1.533400326076688103e+01 1.070933352809240802e+01 4.721895744827835983e+01
1.614514154447717331e+01 1.057152407758023216e+01 4.676228496577157756e+01
1.667564042071572672e+01 1.090850975286237556e+01 4.638603864581548208e+01
1.773648069143146344e+01 1.158234365689534506e+01 4.563529989957101662e+01
1.589665163782455970e+01 9.934973026695594456e+00 4.700961820401646207e+01
1.468072093703398373e+01 1.014209518911489383e+01 4.769525129976383937e+01
1.528173498431946342e+01 9.936748009010319294e+00 4.737229687602328454e+01
1.437917369622390318e+01 1.026545492165442397e+01 4.785240959636633562e+01
1.385046483133824324e+01 1.010302736788309730e+01 4.818163359309653515e+01
1.224409713167435143e+01 1.071366647628316748e+01 4.898638713556898949e+01
1.346611318676914237e+01 1.052216848763361945e+01 4.833577210875763086e+01
1.154625589407477726e+01 1.106718766060077108e+01 4.930722843465863292e+01
1.799712083492479309e+01 1.129340193924425506e+01 4.551540789799810938e+01
1.483784219456731357e+01 9.437176247193557188e+00 4.771472574653840582e+01
1.564832110371453666e+01 9.298873144809666869e+00 4.725685864155511240e+01
1.423478654576874369e+01 9.683886376599504686e+00 4.802747843278385176e+01
1.293698030173040259e+01 1.035959274357987248e+01 4.866504842993531099e+01
1.104829700124098757e+01 1.079655276102449157e+01 4.959531880254348124e+01
1.168291010009139619e+01 1.051447536892527701e+01 4.930037846368080778e+01
1.068225681954267081e+01 1.041646923641803291e+01 4.981850493046727024e+01
1.219132752110975204e+01 9.953740788898274516e+00 4.909786283403521168e+01
1.315299117629548675e+01 9.754484225614900694e+00 4.863691663115053387e+01
1.019198175703995801e+01 1.017550485445773489e+01 5.008794920181696853e+01
1.082283403949823786e+01 9.861986068058847366e+00 4.980894344933933837e+01
1.125146594041864390e+01 1.017251418539549768e+01 4.956264861776429598e+01
1.368726925565993824e+01 9.585860223240119993e+00 4.835709632251313650e+01
1.265754226189567255e+01 9.370621851369209665e+00 4.893985406543627192e+01
1.203496999956097646e+01 9.146235236086877052e+00 4.928580181900021984e+01
1.144689049008299442e+01 9.548467728620062545e+00 4.952995368603144755e+01
1.262341355972438528e+01 8.743713308442504939e+00 4.904147037614674787e+01
1.336891840987827429e+01 9.149489870297543348e+00 4.860876916777756662e+01
1.175343852715224990e+01 8.939329100173658560e+00 4.945157920725664979e+01
1.085223344063974871e+01 8.972961612627722516e+00 4.988606383631437069e+01
1.321249436895907969e+01 8.340708966098670629e+00 4.879684011332946625e+01
1.036467063540650102e+01 9.551414376829553632e+00 5.006960432600342870e+01
9.794995571830240166e+00 9.792052271639905214e+00 5.032554368272612777e+01
1.409037489488469852e+01 9.102299245525248494e+00 4.820232568734976297e+01
1.499489196301619920e+01 8.732248518659373460e+00 4.773315535632660556e+01
1.447040162755370218e+01 8.626408893708221726e+00 4.805518230333706242e+01
1.205994273733800703e+01 8.330186710452496257e+00 4.937318446263056160e+01
1.137923361032222580e+01 8.434163695084299306e+00 4.969226194475928082e+01
1.272562012337081860e+01 8.103046463798122545e+00 4.906883095608989009e+01
1.358503291358244169e+01 8.543837675907036910e+00 4.858056768591482211e+01
9.438578005473335253e+00 9.406134782893071034e+00 5.053268643941970595e+01
1.540010448196652071e+01 8.663107144159374329e+00 4.750467722581728935e+01
1.146531391166784886e+01 7.754282218620194733e+00 4.972928119040683015e+01
1.086148489111960735e+01 8.075560397076337438e+00 4.998574024403252025e+01
1.002950757301544904e+01 9.094754136628882435e+00 5.028396749841153479e+01
1.236639550041904378e+01 7.721041199486995410e+00 4.929476771435988525e+01
1.394590239352931782e+01 8.520549477816544481e+00 4.837720330788982182e+01
9.082258156978969765e+00 9.020129686667864632e+00 5.073982105582611979e+01
9.671657184487358450e+00 8.708480062744179406e+00 5.049100021411793193e+01
1.515185919734740949e+01 8.027310663071478558e+00 4.775153864661260883e+01
1.025726357742697914e+01 8.396999259834274199e+00 5.024234215365658685e+01
1.003948812525350220e+01 7.917335874464204615e+00 5.039128195237686469e+01
1.043579714489160004e+01 7.468556989409223412e+00 5.024552232728744627e+01
9.634474281655387884e+00 8.294409227973043031e+00 5.054666249603879891e+01
9.011491329889931734e+00 8.191667404695806454e+00 5.085107556080657787e+01
1.098338154658560839e+01 7.532859462316420895e+00 4.997925163568777407e+01
1.380118829887014087e+01 7.937914627529377931e+00 4.855232891663085582e+01
1.323717487430118567e+01 7.524876409901365193e+00 4.888424668685652108e+01
1.401072005743214532e+01 7.350368709242148135e+00 4.852490268359625247e+01
1.447675586795000413e+01 7.982642641319709575e+00 4.815181453066479378e+01
1.325875790662308873e+01 6.799767984042927260e+00 4.896739838217575169e+01
1.267293283083218824e+01 7.111603648682292445e+00 4.921628984561975528e+01
1.206909275687431382e+01 7.432983554059341635e+00 4.947281533883046478e+01
1.144565767792387412e+01 7.050434273263309848e+00 4.980529101205853948e+01
1.083206199664852143e+01 7.019772665474043549e+00 5.009975646098141056e+01
1.491096037730135748e+01 7.410454488144465834e+00 4.799103957874844895e+01
1.467003073738289132e+01 6.793564187139430111e+00 4.823053811610348163e+01
1.205923919395999633e+01 7.081038577322371630e+00 4.951082290783212869e+01
1.250338998908513588e+01 6.494547893084187784e+00 4.935961929580402341e+01
1.384400261533935250e+01 6.488185978216626459e+00 4.871870706802523898e+01
1.422003754756673466e+01 6.763220033662145525e+00 4.849746924998358111e+01
1.185527652612102223e+01 6.614339982376890248e+00 4.965519925480511887e+01
1.096911294446658403e+01 6.417791750131037531e+00 5.009599983123948874e+01
1.555784604359973322e+01 7.009946099919674545e+00 4.765066522685273753e+01
1.323519524130798608e+01 6.373680821478510339e+00 4.902160354560673738e+01
1.303231657088652007e+01 5.977113578750763878e+00 4.915863755904261723e+01
1.442907100728676539e+01 6.176633841604772357e+00 4.847003337948019208e+01
1.373069692913795059e+01 6.076895583448536975e+00 4.881434771302460263e+01
1.233375223647719565e+01 5.877253102044327271e+00 4.950299580524053056e+01
1.563712212119046185e+01 7.726920868098149597e+00 4.749496349397153239e+01
1.499346256113449982e+01 6.593318768034265531e+00 4.805920091895095680e+01
1.165129897529452663e+01 6.147610860552980228e+00 4.979957541503762286e+01
-1.066608836804748783e+01 -2.646569834100497509e+00 1.899669929767284060e+01
-1.127702274067759625e+01 -2.229737754374984338e+00 1.941004280130796644e+01
-1.100529019282611998e+01 -2.049120834459459584e+00 1.886520215896818442e+01
-1.080906071044152306e+01 -2.864563304574704095e+00 1.940463838325975132e+01
-1.107378032879027607e+01 -2.917778076580958224e+00 1.981412924086486882e+01
-1.052262030408156690e+01 -2.650080106421700332e+00 1.880688228272176232e+01
-1.154891512496148032e+01 -2.410400000000000098e+00 1.995517186733207993e+01
-1.032711794885819145e+01 -3.243596319650101201e+00 1.912812685494204601e+01
-1.064134489310762355e+01 -1.961490397019910681e+00 1.859236222109699099e+01
-1.059844623554156051e+01 -3.425366598271641028e+00 1.967303273299512156e+01
-9.977129978446770409e+00 -2.518524315374083500e+00 1.839781532443656076e+01
-1.129683929436738943e+01 -2.969945263377929745e+00 2.014896882437183834e+01
-1.004018204444425422e+01 -3.250686818194579164e+00 1.874859791121702557e+01
-1.104496186859669926e+01 -3.528745452532346505e+00 2.034262590076129129e+01
-1.187547270656522436e+01 -2.618789391076889128e+00 2.062521526651465820e+01
-9.988001321965521484e+00 -3.840803834345247303e+00 1.925962884880136983e+01
-9.676271386342900627e+00 -3.163193344316843181e+00 1.847587749928115386e+01
-1.164778100038881448e+01 -3.433572459252581588e+00 2.110662791135115768e+01
-1.051865594714353946e+01 -3.922097616209857751e+00 2.002989161624331160e+01
-1.012364880726270400e+01 -3.932381052317534653e+00 1.953210126457863893e+01
-9.361351933164161920e+00 -3.013198444501438811e+00 1.833010480965135258e+01
-9.819757180696068843e+00 -2.443243631183992903e+00 1.832492800839625957e+01
-1.109450813536288116e+01 -4.040059157249422661e+00 2.091868270721881018e+01
-9.556998703256990524e+00 -3.852172611426274429e+00 1.869023098768537849e+01
-1.220179673883774107e+01 -2.826405723258597735e+00 2.129482580718192963e+01
-1.079282252614714999e+01 -4.087998811841830893e+00 2.053650047703970927e+01
-9.648827200873236976e+00 -4.439420890504438333e+00 1.939116819258918056e+01
-9.361617843840154052e+00 -4.445199403477937850e+00 1.901125773795548568e+01
-8.903050386781306003e+00 -3.582985041124557846e+00 1.833529064661491859e+01
-9.375459299458615448e+00 -3.807937578409349655e+00 1.855396007961092764e+01
-9.173554571516350009e+00 -2.411115445871006457e+00 1.827524730405881215e+01
-1.144157091049015129e+01 -4.113063021305045197e+00 2.145450011484346575e+01
-1.009472556330717374e+01 -4.544231675486845923e+00 2.006084500764516676e+01
-8.766853562260752852e+00 -3.034456665519387197e+00 1.828789382298538868e+01
-1.257724550670145014e+01 -2.105500239546400199e+00 2.115093002030088343e+01
-1.199514509448468935e+01 -3.506435551387095728e+00 2.164269445098861411e+01
-9.074905776389517342e+00 -4.452265876411432899e+00 1.863200487200820987e+01
-1.054054251907758832e+01 -4.647490528939172805e+00 2.073049872877204791e+01
-1.088791354170716019e+01 -4.720162272965109374e+00 2.126651762541748525e+01
-1.250951979281456339e+01 -2.974927942866731900e+00 2.185026669222063944e+01
-9.178010092381825302e+00 -5.165391515303517700e+00 1.941887707479271086e+01
-8.163224206852147447e+00 -3.248682224863170820e+00 1.825825510750271974e+01
-8.444913141333545425e+00 -4.152526995423674983e+00 1.834048600403941265e+01
-8.251660030705650684e+00 -2.512393646504006650e+00 1.821459948869056689e+01
-1.274290386618476845e+01 -2.320414870146061848e+00 2.164793822174755888e+01
-1.123527834146038273e+01 -4.792815858921787076e+00 2.180256257669540076e+01
-1.230297108749651791e+01 -3.654983794766167637e+00 2.219838173839686846e+01
-1.004671469314014587e+01 -5.307044157300905063e+00 2.069278689709179275e+01
-9.452390295612765669e+00 -5.167881219029359485e+00 1.979998557299975559e+01
-8.795297565699730313e+00 -5.172241750891834577e+00 1.891284456224769883e+01
-8.074692645108454414e+00 -3.985603626384859322e+00 1.830196155500546595e+01
-8.532441058028398473e+00 -4.587474880557446788e+00 1.848885468599097948e+01
-1.178863193776597207e+01 -4.185985241992217887e+00 2.199034655894931589e+01
-9.701845502761049289e+00 -5.333388112029771477e+00 2.027200858509288750e+01
-7.415332134344104098e+00 -4.126604897118157922e+00 1.833951463319533204e+01
-1.037588042612465422e+01 -5.322462331581749417e+00 2.119346009002609676e+01
-1.072331884962247095e+01 -5.394580737879969945e+00 2.172915804775768223e+01
-1.209650453482892019e+01 -4.334371970826937925e+00 2.254601480339943720e+01
-1.281765400353150852e+01 -3.123584869191506463e+00 2.240647897212522111e+01
-8.707365175029748272e+00 -5.891048606405966837e+00 1.944658057591164990e+01
-8.698358968525822021e+00 -5.060099129131404361e+00 1.872780354537995962e+01
-9.256030732868856248e+00 -5.895723002680887781e+00 2.020866198371614075e+01
-7.986098039296965823e+00 -4.722867823060076020e+00 1.834570173873556342e+01
-7.151831512307656347e+00 -3.644887469903910215e+00 1.832562897627011012e+01
-1.158217650938205878e+01 -4.865332504528282698e+00 2.233791982083475602e+01
-1.261079275260872379e+01 -3.803486309959152045e+00 2.275409004643774580e+01
-9.552894498010017443e+00 -5.965643924407469711e+00 2.065507253143888278e+01
-7.547921807545561634e+00 -3.022150273365327156e+00 1.827407306527894804e+01
-1.107075429327371374e+01 -5.466703335384830886e+00 2.226488471722510809e+01
-1.312559534955541096e+01 -3.272103206009220333e+00 2.296236983771152396e+01
-9.882131916173991115e+00 -5.981761408297423976e+00 2.115550771162610744e+01
-8.648044864587898672e+00 -6.620414550600560055e+00 2.004574974354989436e+01
-8.515889095917399843e+00 -5.892887684554158234e+00 1.919355158169671682e+01
-8.322021459195624971e+00 -5.667571799585647163e+00 1.882355954131395492e+01
-7.847356247684306396e+00 -5.443206833796172539e+00 1.856892293828585139e+01
-6.755700308695463008e+00 -4.267606706409012851e+00 1.837719472775249940e+01
-7.311710840110382748e+00 -4.986399433521307323e+00 1.839049855916205445e+01
-1.197215174530453474e+01 -4.900899599151411934e+00 2.298413091919593043e+01
-1.021136810193626943e+01 -5.996684690849459543e+00 2.165598598794844065e+01
-1.248712522719089790e+01 -4.369878319246761400e+00 2.319315697848271185e+01
-7.586889548041855669e+00 -5.415220419356901793e+00 1.852636100201271674e+01
-6.761084604103679396e+00 -3.173696637855038194e+00 1.827764350362757639e+01
-1.144861081280673254e+01 -5.456441934023195550e+00 2.291791062586246497e+01
-1.055895070709557437e+01 -6.068605851536487350e+00 2.219178761321645865e+01
-1.300162687486112212e+01 -3.838951062881134746e+00 2.340151495203271992e+01
-8.236495883580325028e+00 -6.617007338173486630e+00 1.947430298091297018e+01
-9.059651054819418903e+00 -6.623466478255810586e+00 2.061740044424790241e+01
-6.168738474250109682e+00 -3.869457310024037699e+00 1.833333862363208766e+01
-6.359513760377779157e+00 -4.890308336737157369e+00 1.842877121044201871e+01
-1.350635800414662491e+01 -3.412054355599074107e+00 2.380702029067871450e+01
-9.388496246033485093e+00 -6.640081591162436681e+00 2.111744921200967795e+01
-7.945733397544109344e+00 -6.274962013805313710e+00 1.891931802279147945e+01
-7.708690927276597549e+00 -6.162925109932580803e+00 1.879199103185520769e+01
-6.637357077917132919e+00 -5.249820524107667197e+00 1.843538534477378477e+01
-6.809116236541109757e+00 -5.660454846067050738e+00 1.856123138133030182e+01
-1.236273968966930248e+01 -4.936501611063969897e+00 2.363137701315163142e+01
-1.183868413176351098e+01 -5.492590327604966127e+00 2.356512154433977102e+01
-1.093691852491050831e+01 -6.058396147060897796e+00 2.284514184081575294e+01
-1.287775303414504258e+01 -4.405364143511627084e+00 2.384032700130586235e+01
-1.332029305919007101e+01 -4.262222911811692327e+00 2.446539445938832458e+01
-9.717369172648073317e+00 -6.655873048436382611e+00 2.161758849119415160e+01
-8.082683829034436940e+00 -7.237727842805833589e+00 1.990522176003357657e+01
-8.631847468998682160e+00 -7.240947647730839876e+00 2.066682465592452189e+01
-7.902486371034008528e+00 -6.748852140425300128e+00 1.924453137088097066e+01
-7.187786393025339393e+00 -6.107250347031752291e+00 1.870696480748485158e+01
-5.963249346264368533e+00 -5.512995332905783030e+00 1.848035957457868506e+01
-6.194164100886118796e+00 -2.858316791705899806e+00 1.824158876223892634e+01
-1.131488458042629830e+01 -6.048170362511905651e+00 2.349854230324889315e+01
-1.004680990464244061e+01 -6.671001406059183125e+00 2.211863524889519184e+01
-1.388705020505376453e+01 -3.552052939783213237e+00 2.465143448246015012e+01
-7.934721622358666515e+00 -7.190652121951163878e+00 1.962302138308561794e+01
-8.915680506749842138e+00 -7.234722568002796450e+00 2.116110491707506469e+01
-5.563145177721947832e+00 -4.868476042745959020e+00 1.841651331180431939e+01
-5.478618403379241109e+00 -3.218862399526416507e+00 1.826521158559476632e+01
-1.042544613167222067e+01 -6.660394956360538465e+00 2.277271352911927593e+01
-9.244429290337357941e+00 -7.251718763481791008e+00 2.166163006130464908e+01
-7.569157805679232354e+00 -6.882843980646504711e+00 1.901517059641820140e+01
-5.163000644510905346e+00 -4.223943287836903870e+00 1.835268975628675037e+01
-6.637237238421710650e+00 -6.227488374154961370e+00 1.871634691918530891e+01
-6.105488356467287048e+00 -6.172470552875846117e+00 1.867632180656920227e+01
-5.732111126788918654e+00 -2.567962161776985219e+00 1.827322290333130894e+01
-6.238766837500294038e+00 -2.014001885760178912e+00 1.826584277235137677e+01
-1.275380107464173740e+01 -4.972129750016961225e+00 2.427942200571031961e+01
-1.222876496769074173e+01 -5.528723221248307951e+00 2.421236089359371491e+01
-1.080336764497462809e+01 -6.649815490442237298e+00 2.342560858546822899e+01
-1.170500268103033648e+01 -6.083991624206232629e+00 2.414545793046471189e+01
-1.376228298166565978e+01 -4.041618911357860000e+00 2.557850526560118354e+01
-7.633104545825774245e+00 -7.763957295660667945e+00 1.977166570969237824e+01
-7.929122134187650772e+00 -7.857254201342882993e+00 2.033543901189592518e+01
-8.487653995476451385e+00 -7.852768237753202207e+00 2.121087179368571540e+01
-6.788694332915009788e+00 -6.799087918036650358e+00 1.888754975757355581e+01
-5.091303154134489084e+00 -2.854431078624849238e+00 1.829555635052637541e+01
-9.573179266270367194e+00 -7.267540663754993524e+00 2.216220526959950732e+01
-9.866453798145666809e+00 -7.221947166205693769e+00 2.279109156075899634e+01
-1.304847807179718977e+01 -4.824839258373584627e+00 2.502150427787401554e+01
-7.450365862237969594e+00 -7.608748321145675675e+00 1.946764447836318723e+01
-8.203810533439837016e+00 -7.858735708063369962e+00 2.071629140566214033e+01
-8.771499076893524816e+00 -7.846697498920049973e+00 2.170552230385641579e+01
-4.786799406408467128e+00 -5.313751722799907817e+00 1.858000022642810478e+01
-5.335476647925314175e+00 -5.805907105993695083e+00 1.860115752504989217e+01
-4.762811754684838306e+00 -3.579399801752921384e+00 1.828889056973504168e+01
-5.640744384864381011e+00 -6.197863888944562305e+00 1.872352009899706715e+01
-5.419721987083686798e+00 -2.129446304387864419e+00 1.830222425392195618e+01
-1.118129102598077829e+01 -6.639229592201454366e+00 2.407855355567586386e+01
-1.024481429571631530e+01 -7.211010231945713223e+00 2.344422366688304038e+01
-6.980144839350086450e+00 -7.186678946582244265e+00 1.904148902502145901e+01
-7.243077910086650029e+00 -7.596859516247437938e+00 1.935330996158889860e+01
-6.247644169909815304e+00 -6.831650268766745526e+00 1.887222395567416910e+01
-5.012581389648463670e+00 -6.490836193125697484e+00 1.884439221028997480e+01
-4.707116258303364553e+00 -6.098927747148382927e+00 1.872206378819395667e+01
-1.250752439020987161e+01 -5.404164023634991487e+00 2.503013547787568882e+01
-1.198340664714362092e+01 -5.959673944959208214e+00 2.496268015241267335e+01
-1.334300489668816425e+01 -4.677745540988647477e+00 2.576288657690315986e+01
-9.100370970668787862e+00 -7.863160449647450534e+00 2.220568633536968406e+01
-7.331722587053571161e+00 -8.336796954378341340e+00 1.992020657514454740e+01
-7.775509233338769199e+00 -8.476866216411442778e+00 2.076580354990784016e+01
-4.237941121536882960e+00 -4.821590166512303988e+00 1.855889351653240382e+01
-4.500449871452441464e+00 -4.200506056887774342e+00 1.842388575764898917e+01
-4.275649038330313623e+00 -5.838041693780428254e+00 1.872680974002588883e+01
-5.318025699785011717e+00 -6.882735538056516056e+00 1.896672489172456721e+01
-4.504108597685132942e+00 -2.420425239907625592e+00 1.834404994998009641e+01
-4.229005347706204176e+00 -3.184932321761068330e+00 1.833297411718902126e+01
-1.062317784279452226e+01 -7.200083594461639258e+00 2.409740849203448931e+01
-1.145929948432923418e+01 -6.515193705038477390e+00 2.489521596331647757e+01
-9.393312904480781711e+00 -7.817673502815244646e+00 2.283423544557936680e+01
-1.280247964645913683e+01 -5.256487478560301518e+00 2.577146649630284259e+01
-7.553365170349294111e+00 -8.406869724946441025e+00 2.034253681977821060e+01
-6.915965460032401424e+00 -8.313706250357393301e+00 1.969163823264423741e+01
-8.201857220034199258e+00 -8.467393034514909544e+00 2.150800914017392174e+01
-6.389717117331287888e+00 -7.490509493494422522e+00 1.906806107827229368e+01
-4.006835382609591711e+00 -3.977293646852019471e+00 1.841049969083932325e+01
-3.975225587509777725e+00 -5.442654054281436338e+00 1.869391542170562559e+01
-9.686254868303876719e+00 -7.772294269598297944e+00 2.346285829796489253e+01
-1.363779262468935549e+01 -4.530659461850110148e+00 2.650450261480055758e+01
-1.403435981386321885e+01 -3.905662901373899487e+00 2.644992832926613602e+01
-7.644624438395697830e+00 -8.987489094423610325e+00 2.138722643580730320e+01
-8.627507368033079160e+00 -8.457729806071963452e+00 2.224915814509943246e+01
-6.456097010230845257e+00 -8.001659766168319976e+00 1.938867216431833995e+01
-4.078372122649090770e+00 -6.391856745904405557e+00 1.884300607097803848e+01
-4.587980109115543215e+00 -7.045167687488032016e+00 1.904689874501441338e+01
-3.695096998108573061e+00 -2.790434545286771151e+00 1.837707848068794547e+01
-1.226170393301846495e+01 -5.835436442003241631e+00 2.577953398430551601e+01
-1.086486546180371882e+01 -6.918928859799595266e+00 2.475574358996960100e+01
-1.006458088263901907e+01 -7.761468275675293071e+00 2.411624920591231103e+01
-1.309759041842537641e+01 -5.108860390070040225e+00 2.651280410074990357e+01
-7.179536298511643544e+00 -8.846295170228406946e+00 2.033791322534071000e+01
-6.588725732603233354e+00 -9.030500147058823757e+00 2.003001363243070188e+01
-7.325028749223172930e+00 -9.171541652332996009e+00 2.096979870998197271e+01
-5.531631094465417675e+00 -7.871136701551321835e+00 1.926038629555817394e+01
-3.712205722479185788e+00 -6.063696090701134800e+00 1.882895258716274967e+01
-3.472841982519442539e+00 -3.582816608361672372e+00 1.845461278296081176e+01
-1.023365999714174457e+01 -7.548552625313172726e+00 2.485860589362754425e+01
-1.173733668017948339e+01 -6.391167127475736898e+00 2.571186189194970950e+01
-8.920021303666139545e+00 -8.413707048280089751e+00 2.287710010620574863e+01
-1.396107054813721859e+01 -4.217719612337909041e+00 2.728930167874000290e+01
-1.255637472786661313e+01 -5.688211434032974800e+00 2.652113673822570306e+01
-6.522425513735836233e+00 -8.514524585566613624e+00 1.970929608196603766e+01
-7.928815601837052363e+00 -8.980810758359279333e+00 2.188141993097846694e+01
-3.234335630222665348e+00 -5.107843296911826592e+00 1.867387519288026709e+01
-3.250397373938243906e+00 -4.375171171831242489e+00 1.853215333136234122e+01
-4.994965796139900327e+00 -7.567710214342230124e+00 1.921001416183000643e+01
-3.452436994329300290e+00 -6.684719333062513869e+00 1.896400713883441824e+01
-3.916858248394728736e+00 -1.986419104242400646e+00 1.839256405954219531e+01
-1.114285822774048107e+01 -6.794898162930832264e+00 2.557240811097988953e+01
-9.212934203628318386e+00 -8.368220995575700982e+00 2.350597498663699625e+01
-1.337520606465005990e+01 -4.896127644522289657e+00 2.736817994883738336e+01
-7.513913677817708248e+00 -9.497248154542003107e+00 2.200764336435332069e+01
-8.213007764823428758e+00 -8.974048497293983573e+00 2.237569109384804378e+01
-6.140303095309388226e+00 -8.034115228323535973e+00 1.938012620286234977e+01
-3.368857142618693956e+00 -5.630619232260013263e+00 1.876627034165144181e+01
-3.858003771452053421e+00 -7.207597706810108029e+00 1.912716515534657802e+01
-2.983064184375634920e+00 -3.029797533640271379e+00 1.848325501533551218e+01
-3.160830482162173993e+00 -2.395726249168710353e+00 1.842122547427460688e+01
-1.201574230249633324e+01 -6.267002587135787728e+00 2.652947676756211237e+01
-1.054842901664685151e+01 -7.198628829165421905e+00 2.543295952514296943e+01
-9.505913851828765360e+00 -8.322975414645561898e+00 2.413506833967509024e+01
-9.608311344398549281e+00 -8.181712610078792025e+00 2.479820061784119289e+01
-1.283461922968141700e+01 -5.474639113806788693e+00 2.737686533671669764e+01
-7.027268226445730903e+00 -9.355963188115188345e+00 2.075580738440478257e+01
-6.732862420385517410e+00 -9.448095830995688615e+00 2.060158814998943555e+01
-7.128853982234598874e+00 -9.936824549623635150e+00 2.190117964831429376e+01
-8.399595669006806986e+00 -8.775153810366111529e+00 2.282898461300684545e+01
-4.671934673734223331e+00 -8.251725121375038441e+00 1.945301616684552215e+01
-5.890728396751478968e+00 -8.577824799347565587e+00 1.969229473596742253e+01
-4.264595869932607641e+00 -7.729761753065766072e+00 1.929011471044858084e+01
-2.883799290830999951e+00 -6.180128109891343868e+00 1.890120570477171569e+01
-2.760529750197752374e+00 -3.822182956042194935e+00 1.856080148980019473e+01
-3.382791494751169914e+00 -1.591698086948210911e+00 1.843670180519927015e+01
-1.369895733007645866e+01 -4.583113458369413529e+00 2.815251050383486842e+01
-6.335560440547300942e+00 -9.598048164496541190e+00 2.053302108799202585e+01
-6.874975385909190884e+00 -9.865638449372466923e+00 2.117374348931624439e+01
-7.798247242629769538e+00 -9.490635384520082596e+00 2.250230546133018805e+01
-2.495857003530756568e+00 -4.773032733726592980e+00 1.865385972131607062e+01
-2.315054694240974875e+00 -5.675478529904900427e+00 1.883840826633242216e+01
-3.281014493576260183e+00 -7.282985961125569396e+00 1.927454731018060485e+01
