8.671558935069338503e+00 1.249633713584639816e+00 2.354006873721451498e+01
8.388241895826759276e+00 -4.015998137604699647e-02 2.307563807697185609e+01
4.751345565452025355e+00 8.975091277170124116e+00 2.279481936415260535e+01
5.929072860091949337e+00 7.785621516466004977e+00 2.292711550359149086e+01
8.845333897338209184e+00 1.798447589780417077e+00 2.381652920975276544e+01
8.741836024248026860e+00 2.942596686297249686e+00 2.394145243741469287e+01
8.246764695662985645e+00 -6.852727838900166679e-01 2.284366751378152927e+01
8.819981231442479697e+00 5.465328732229751685e-02 2.354813073183719041e+01
7.933468529450423468e+00 4.705158312819751387e+00 2.352970330852631520e+01
7.390894593935815493e+00 6.431288314948283791e+00 2.357423837636336827e+01
6.901013730104068600e+00 6.917207929496745678e+00 2.332307824863494972e+01
7.740327324418557531e+00 5.833621489740781207e+00 2.367177555536454037e+01
8.199109603663533363e+00 4.121837442565938758e+00 2.365996213344430288e+01
3.796033905396273500e+00 9.943109181656197393e+00 2.290021039601814934e+01
4.270528714048515084e+00 9.459630718294011587e+00 2.284751760782327779e+01
5.143745044925484677e+00 8.578508289512456031e+00 2.283891998639745324e+01
6.348352632343978286e+00 7.819855472475521374e+00 2.324408407300666468e+01
8.961625786159068241e+00 6.989472657298051450e-01 2.378033521781055271e+01
8.464750547871393138e+00 3.538516288107381502e+00 2.379021404528183581e+01
9.018920387147971951e+00 2.346678830110747960e+00 2.409268009841891356e+01
9.117135252480833785e+00 1.216283061394992870e+00 2.402918937240322350e+01
8.642842799227635098e+00 -7.525668401505135607e-01 2.325787706672091915e+01
6.643717358158056641e+00 7.433319576764872316e+00 2.332054932740797071e+01
5.967660608805607225e+00 8.409610560245665667e+00 2.323352411601225143e+01
9.290864549196978572e+00 1.764805165265673326e+00 2.430555073011097278e+01
8.118450699313044083e+00 5.240892500257178455e+00 2.382680442636828744e+01
8.384281571174282632e+00 4.657115454818216094e+00 2.395714954430341237e+01
8.649822096982763497e+00 4.073836731705350545e+00 2.408731566520104650e+01
8.584668714395178313e+00 -1.195470599056555727e+00 2.313547113665250166e+01
4.737471377930629224e+00 9.522367392192730762e+00 2.306705665050809273e+01
5.574759371056381418e+00 8.805976402537929459e+00 2.318936081207434441e+01
8.915329392070725945e+00 3.490597200054533999e+00 2.421745158925961050e+01
9.251745802570484400e+00 1.481635253658356577e-01 2.402062331408023610e+01
9.407276106180477271e+00 6.655372483043606735e-01 2.426952062706113722e+01
9.192507278471534704e+00 2.894916792823103879e+00 2.436882265840149842e+01
9.145344245126366900e+00 -3.344814865740508014e-01 2.384635491469040147e+01
7.313846514886003902e+00 6.953838097393532536e+00 2.367975990729659941e+01
8.024489687281025851e+00 6.304905365593334032e+00 2.406228826987932834e+01
7.044112800571560307e+00 7.402514598111014088e+00 2.360034799961520235e+01
8.154136460658024887e+00 -1.359295203204522240e+00 2.282476574745248143e+01
9.038944867620664070e+00 -8.181713223606063012e-01 2.367207811665650752e+01
5.182317886475225954e+00 9.202377271867201003e+00 2.314519685971660223e+01
4.251105693168468314e+00 1.027951790222303075e+01 2.325570915248328774e+01
6.767587679684401003e+00 7.854092941538787898e+00 2.356080735148571392e+01
9.464367191135854895e+00 2.313189025643711982e+00 2.458162932008896817e+01
9.562807997939787086e+00 1.182932827978881329e+00 2.451840673451092911e+01
9.736337848287172747e+00 1.731629326370497379e+00 2.479457137696788038e+01
8.569384671184273827e+00 5.192932503328272276e+00 2.425438166822603137e+01
8.303566999365530776e+00 5.777008375265309859e+00 2.412374532378481007e+01
7.745763124011010525e+00 6.832142232080207656e+00 2.400090895546842518e+01
9.435066882735052118e+00 -8.844266366196037454e-01 2.408627606916132180e+01
9.541517381497929051e+00 -4.019524153919211140e-01 2.426059739087283162e+01
8.922537945270004656e+00 -1.705633070404285689e+00 2.342719866187825772e+01
8.478793412270356100e+00 -1.715541868792676672e+00 2.309506205745450558e+01
4.723583630587359750e+00 1.006941287419176589e+01 2.333915654913939619e+01
3.779207291276557523e+00 1.067203704589302760e+01 2.326290999788758285e+01
6.386991436115304843e+00 8.443911989202410595e+00 2.355051114659016775e+01
9.100540054241548660e+00 4.025838375279062298e+00 2.451466765696401851e+01
9.697155837085830399e+00 1.151530958254436549e-01 2.450959245931939279e+01
9.637870045077960413e+00 2.861579932440790230e+00 2.485770032589575607e+01
1.000872493240854588e+01 1.149570928866960218e+00 2.500788489204424181e+01
9.365942262315213540e+00 3.442677996575342458e+00 2.464471547417464592e+01
7.466447047085818411e+00 7.360495322953488184e+00 2.393939948008462792e+01
8.835103414832987667e+00 4.609075147706497511e+00 2.438459671733482637e+01
9.347817842741990901e+00 -1.551320017287256325e+00 2.390267414125484891e+01
8.061483087937903136e+00 -2.033653576313178668e+00 2.280583622254022558e+01
8.717262188434027337e+00 -2.209887797683429245e+00 2.331102223189898126e+01
5.167881481300359958e+00 9.840736296362093682e+00 2.346285359684687677e+01
5.613588691172608058e+00 9.429968794435200863e+00 2.349589529099394269e+01
6.006263258657303261e+00 9.033828903753571282e+00 2.354004513356704464e+01
6.806365847290605231e+00 8.478224150800199865e+00 2.386737310797731482e+01
9.909867260252550381e+00 2.280334312199124636e+00 2.507072746789107143e+01
9.852792387092019766e+00 6.322893581129456209e-01 2.475857133826418632e+01
8.433426225335630022e+00 6.346208832408783529e+00 2.443574789698814342e+01
8.171097268433907601e+00 6.786252359102155296e+00 2.435844329518514684e+01
7.187380168456142471e+00 7.888380291689209400e+00 2.387794510265230130e+01
9.753703170389817600e+00 -1.542745016757672172e+00 2.433731733758712679e+01
8.511997624263415219e+00 -2.714144370279389484e+00 2.319483843814148472e+01
4.709656550998261082e+00 1.061613693123443092e+01 2.361135179701490827e+01
4.236545927202471695e+00 1.091717868663500823e+01 2.357310131084589599e+01
1.014277790090164721e+01 8.164798638851905599e-02 2.499871361170932360e+01
1.018209241914654051e+01 1.698598370364182930e+00 2.528391923810207587e+01
9.776754020518836796e+00 3.546704446053678517e+00 2.510170626913201275e+01
8.948473550344147043e+00 5.145843167626603432e+00 2.461905642957479401e+01
8.785342388364908217e+00 5.925168049136763315e+00 2.463454175469434659e+01
8.095992081688512698e+00 7.493609119683698694e+00 2.453851678865290964e+01
7.628739673843274893e+00 8.071975730874607180e+00 2.432937469590944346e+01
9.986927107971194317e+00 -4.353728292542161094e-01 2.474949640141036866e+01
9.831209568667464538e+00 -9.519077235395304593e-01 2.450047674109694640e+01
9.260478819014466012e+00 -2.215909069083200400e+00 2.371893381425845959e+01
9.055180620402575542e+00 -2.720352209659027576e+00 2.360274212222228840e+01
9.538492426714892503e+00 4.027261465631672088e+00 2.494866788941200397e+01
9.273089362064778740e+00 4.610518283680876905e+00 2.481863868950091145e+01
1.007605887091235886e+01 2.907342862920693882e+00 2.533616000565370996e+01
1.029863259832874434e+01 5.987019606480102896e-01 2.524792302797825982e+01
7.267264601203660135e+00 8.430583785148447973e+00 2.418719991841398453e+01
9.676193153289409210e+00 -2.135312795849463541e+00 2.417411528643238938e+01
5.596605263105255190e+00 1.015916797704899466e+01 2.385867742804625280e+01
6.044825074528587194e+00 9.657358442375366891e+00 2.384622823226381882e+01
5.149579659220810512e+00 1.066151732351023362e+01 2.387113643543428410e+01
6.425385206748213562e+00 9.068066910341633147e+00 2.385680665991536387e+01
1.045462205730682648e+01 1.116214542965618506e+00 2.549733521930433966e+01
9.356164241945013060e+00 5.321467269422575086e+00 2.506275037359604596e+01
8.563249161625639871e+00 6.915244440679831683e+00 2.474766091393189527e+01
1.010575409563096372e+01 -1.411238678853062423e+00 2.479375776019450583e+01
1.007405065311385961e+01 -2.079512245044563112e+00 2.467949203449977702e+01
4.695666338413859719e+00 1.116291097674703359e+01 2.388358579603896459e+01
9.711077937606415134e+00 4.611963730564040631e+00 2.525267927508668819e+01
1.040944121935920741e+01 -4.595942811958192986e-01 2.526611340842028142e+01
1.056549471767596415e+01 5.740424117790137587e-02 2.551557961307574729e+01
1.037543323226248759e+01 2.267915142999332723e+00 2.557066374263624553e+01
1.064789551870382489e+01 1.686105862818871648e+00 2.578409069401712017e+01
1.018749663573944453e+01 3.650713403695358572e+00 2.555861620806798840e+01
8.913093179537526112e+00 6.725795369957999092e+00 2.502074304510115255e+01
6.922408129095176221e+00 9.232707769822322774e+00 2.430133053793738895e+01
8.693073479946287208e+00 7.484283730544713187e+00 2.505957640704941625e+01
8.070163034782167344e+00 8.255597560575681726e+00 2.478086311827722810e+01
1.025338708334779270e+01 -9.765640351275128861e-01 2.501663053279603588e+01
9.598651145007409013e+00 -2.726540476119815981e+00 2.401080426475653340e+01
6.430039949699232871e+00 9.892790092765816112e+00 2.424054743452431637e+01
9.904593762092410714e+00 4.078615355662138064e+00 2.534735992359165735e+01
1.072151345759375829e+01 5.744963960418376647e-01 2.576499757966018578e+01
1.056774139997474649e+01 3.000228218269067160e+00 2.587874385804936495e+01
9.266865936568526863e+00 6.073250739021745837e+00 2.514506581266599383e+01
7.669412472965442262e+00 8.559500696805610431e+00 2.458136861476699764e+01
1.038027393219832994e+01 -1.870503026764642751e+00 2.508697600947487061e+01
1.004243151909398435e+01 -2.747940066103292889e+00 2.456526813375918650e+01
6.079804486768796146e+00 1.017724713432116346e+01 2.413295116563799780e+01
5.650932614317887293e+00 1.088263860251154824e+01 2.426072040020655152e+01
1.087102288722871002e+01 1.203178670624457380e+00 2.597930860180774459e+01
7.347106648595970846e+00 8.972499724083535355e+00 2.449629036238161461e+01
8.423361055492009086e+00 7.925010409875416606e+00 2.497602869784585877e+01
9.883939506512419371e+00 5.197600315574500307e+00 2.555717378898366832e+01
9.662470973221424231e+00 5.719421350541648685e+00 2.545651948251433794e+01
1.067596087863373100e+01 -1.001227240987139888e+00 2.553326095446008992e+01
1.047791894387409606e+01 -1.399427425257339985e+00 2.525196469738712324e+01
9.913331463232402996e+00 -3.106555736805268531e+00 2.437687980892239281e+01
9.231120838064454048e+00 -3.373649409628522999e+00 2.387768307181980632e+01
5.078812116606569838e+00 1.143687036200268459e+01 2.423264697187567052e+01
1.018883136433873204e+01 4.427894916880558362e+00 2.572096991981944569e+01
1.098821464193004971e+01 3.316466532612849516e-02 2.603244329845242078e+01
1.083208780851545683e+01 -4.840408702906840999e-01 2.578286037869825265e+01
1.084099905358051252e+01 2.255497221807647001e+00 2.607059190543613170e+01
1.101726781243919007e+01 1.722262814637081085e+00 2.620675235526575975e+01
1.059825125983573635e+01 3.754725448208581451e+00 2.601553565597610529e+01
9.429184452548453166e+00 6.784496032377279384e+00 2.553497390983823223e+01
9.142286749546167712e+00 7.490012165466099603e+00 2.549222948212368323e+01
7.969219789528789732e+00 8.977033794754470719e+00 2.501892224641185791e+01
1.048595319044363983e+01 -2.769592130540607933e+00 2.511938067573325739e+01
9.593661548254665661e+00 -3.313013410669684689e+00 2.413566617026940619e+01
6.434346461260916250e+00 1.035745457306185102e+01 2.447753244271834561e+01
6.114791650718751193e+00 1.069718063441584732e+01 2.441969635354780976e+01
1.116455522035642645e+01 6.075300763523869829e-01 2.627368069611863888e+01
1.128750291151393270e+01 1.290158663811947992e+00 2.646136436174465700e+01
1.086191414714203241e+01 3.340709364927169744e+00 2.624261051489680341e+01
9.748530105786196387e+00 6.221376518929398358e+00 2.565573457529156087e+01
7.427022938543266228e+00 9.514919533059213563e+00 2.480566790572490987e+01
8.823009116393368600e+00 8.053795738375789881e+00 2.537175445980412647e+01
8.511426992416437187e+00 8.439152387001762179e+00 2.523218376382368788e+01
1.005685399539220981e+01 5.783414396046982375e+00 2.586163876913967385e+01
1.083758653590080101e+01 -1.638232679918597112e+00 2.567084287960941325e+01
1.065482905257865021e+01 -2.329769003515423265e+00 2.538019019518089081e+01
6.815473742047011285e+00 1.012834204343179678e+01 2.463501655616448005e+01
9.588670530390340119e+00 -3.899276757559681172e+00 2.426045930292511699e+01
1.103403790550285990e+01 2.824697844552700676e+00 2.635699483165146617e+01
1.131850758427482617e+01 2.046743372462608512e+00 2.658657161460737228e+01
1.035457705955657204e+01 5.181547285127822811e+00 2.605271465886989191e+01
1.109903418245290574e+01 -1.025907918510393202e+00 2.605049504807944771e+01
1.051412626271893913e+01 -3.317681439070692573e+00 2.511391934597127573e+01
1.022781218658063196e+01 -3.486328399363887609e+00 2.474266070349525748e+01
5.460999072372739960e+00 1.171029637405287005e+01 2.458186280334726348e+01
6.149786261691440714e+00 1.121714327701726077e+01 2.470645403009317320e+01
1.068188606698977772e+01 4.520097164243695786e+00 2.626268145630103490e+01
1.125525312629252639e+01 -5.088522346439422472e-01 2.630019731284162532e+01
1.100912831092231059e+01 3.858768738035002865e+00 2.647258749509620657e+01
9.910530836056425485e+00 6.932788853422967357e+00 2.604539112885436936e+01
9.591503125089456461e+00 7.495742059906598698e+00 2.592488295610920801e+01
9.272233718141691838e+00 8.059122593549247426e+00 2.580428452391558736e+01
8.611511153398279106e+00 9.116729494791485422e+00 2.561885741321258791e+01
1.112669860956656898e+01 -2.210500657274164560e+00 2.597112385386164490e+01
1.092936908345361680e+01 -2.789409566301009225e+00 2.567333999931026156e+01
7.822134567615321998e+00 9.647234930453441493e+00 2.519546371778403682e+01
6.675543855363735624e+00 1.079067470107879778e+01 2.486828191154507550e+01
1.132427552271736282e+01 -1.631017869084583571e+00 2.626924166702781704e+01
1.143142610880951260e+01 6.585518693484365693e-02 2.654127565645362452e+01
1.122701200786297271e+01 3.393710164527038664e+00 2.664329974190088279e+01
1.170346591742404208e+01 1.377031751636652590e+00 2.694281154615766027e+01
1.022981435295191233e+01 6.369384836822660212e+00 2.616599685918408014e+01
1.052733012577826699e+01 5.767815192850545891e+00 2.635722325234792862e+01
8.952818398245572240e+00 8.622760296415892256e+00 2.568363171386970834e+01
8.269751827966784319e+00 9.611359433951493614e+00 2.555400022965918083e+01
7.506964939294739736e+00 1.005750863443935650e+01 2.511514241324549346e+01
7.201445596947606553e+00 1.036421442318702368e+01 2.503001014660178569e+01
1.089309253051341564e+01 -3.518273075361449731e+00 2.557376573635727368e+01
1.165167557477625238e+01 6.838271353900076122e-01 2.683571828243104562e+01
1.153377436783078558e+01 2.730282768402123139e+00 2.691176824115535737e+01
1.082521590880371498e+01 5.165494557485714289e+00 2.654825162756602097e+01
1.152215061978006716e+01 -1.050583372545008221e+00 2.656777534764904658e+01
6.184780949629722357e+00 1.173699656711802852e+01 2.499314643343187115e+01
6.675298396113778843e+00 1.170469426430251048e+01 2.532816509108080538e+01
1.157607477227715265e+01 -2.207442843187052084e+00 2.654956619914574389e+01
1.122781103341486997e+01 -3.214951694863902976e+00 2.604263082293021725e+01
1.131764561420663817e+01 -2.818696520319014187e+00 2.617067652520502108e+01
1.112267712622877802e+01 4.564032873623454556e+00 2.673899587963138202e+01
1.172477649208385841e+01 -5.301833447141356404e-01 2.683534007201011207e+01
1.169879634104792387e+01 3.359704362791390952e+00 2.717361032546219235e+01
1.181250318623676776e+01 2.127277200711334970e+00 2.715565146013184261e+01
1.196228782343949426e+01 9.886698472048601749e-01 2.721179950875579934e+01
1.142001653962087637e+01 3.962814610555151162e+00 2.692964782017549297e+01
1.033996944882942515e+01 6.927806483608793364e+00 2.643676004325563866e+01
1.003669241092753239e+01 7.405403544663058391e+00 2.630467780261262689e+01
9.547311528294365246e+00 8.308026093588209093e+00 2.613171187269783502e+01
9.024398847588496864e+00 9.160001344604394191e+00 2.596731368866245759e+01
1.176273100272486793e+01 -1.514759826279600041e+00 2.684221010573901367e+01
7.928291844861312221e+00 1.010555917028975337e+01 2.548920127527070534e+01
5.840060290310636226e+00 1.198374051932557549e+01 2.493098716725921449e+01
5.258385423249656299e+00 1.219394337144159834e+01 2.475616530963890938e+01
7.131130612157025261e+00 1.115210949144707975e+01 2.537636620695760215e+01
7.586852138048302052e+00 1.059973584113436118e+01 2.542440910603851734e+01
1.192769464659106937e+01 -9.027314509764926276e-03 2.710328977507015225e+01
1.211934758966785175e+01 1.463887499719231045e+00 2.742415299783560201e+01
1.064432337355999891e+01 6.562281525466554299e+00 2.662237718622893112e+01
9.340799785017932066e+00 8.842572331762715621e+00 2.610549487691702808e+01
8.704065971158049919e+00 9.573724352972758922e+00 2.588549510624214633e+01
6.219801607236163044e+00 1.225710094606164446e+01 2.527996856430529249e+01
5.699976522599599527e+00 1.271934169462020137e+01 2.527959151549856642e+01
5.132141605908923765e+00 1.269938366293669318e+01 2.498186523529777858e+01
1.170680570208731908e+01 -2.848436249650921237e+00 2.666913782632858698e+01
1.197752383264081288e+01 2.756703640041287429e+00 2.741750193752811882e+01
1.213023296820842134e+01 5.111553024431192416e-01 2.737073677404847771e+01
1.094199797597520352e+01 5.960323129395789010e+00 2.681338097529108211e+01
9.933244574169835417e+00 7.960764485217359798e+00 2.637908715251579395e+01
1.128321914391581515e+01 4.996029942322232742e+00 2.698155857060318752e+01
1.193284601653695098e+01 -9.883521474487562131e-01 2.705023704023984266e+01
8.177338015343565303e+00 1.037016431320210330e+01 2.579991737826787102e+01
7.622644798818495104e+00 1.111304435301690496e+01 2.573137961621655734e+01
7.658422251946326753e+00 1.162607763786286519e+01 2.603804113735448666e+01
7.945752297316324153e+00 1.084923252062255727e+01 2.581658731068402801e+01
1.208805716596633140e+01 -5.127134226892043900e-01 2.725984001831487902e+01
1.200368467922763216e+01 -1.979651703457181222e+00 2.711703094272984060e+01
1.156697105298322015e+01 4.524738286221666961e+00 2.718240174209202920e+01
1.185383608551339663e+01 4.126025323395466238e+00 2.740619977426833742e+01
1.225625587447411569e+01 2.153690961898327316e+00 2.766136822622650726e+01
1.233262495767328026e+01 1.030966859056041018e+00 2.763798955445316352e+01
1.132795067549993284e+01 5.523448677793388661e+00 2.712425863966807782e+01
1.045003339825815480e+01 7.485765905030371314e+00 2.670729972379474404e+01
1.071557125777220421e+01 7.064897174119760592e+00 2.683919485827411222e+01
9.822390022020153211e+00 8.556929700366790570e+00 2.645914078254134338e+01
9.096036256491517591e+00 9.697672421542950616e+00 2.625122629820062059e+01
9.378993994510830490e+00 9.325112943272813482e+00 2.633804604385657555e+01
8.624375184510229886e+00 1.012535691453540565e+01 2.605426729810243458e+01
7.097151815506549610e+00 1.208361984912475151e+01 2.585739145187370625e+01
6.536041870646741359e+00 1.254116545176356112e+01 2.567672958410813422e+01
8.304750402606476456e+00 1.109879973464586200e+01 2.620872693179804003e+01
1.239121443932368827e+01 -2.245386519594733954e-01 2.763057730907427256e+01
1.190166334080470101e+01 -2.452172491439357227e+00 2.694993435334830068e+01
1.218687998760608870e+01 3.543194571360585243e+00 2.770974763695402032e+01
1.105877938162069896e+01 6.755154136557084854e+00 2.707850965532232479e+01
1.145990207992852561e+01 6.202147478344564036e+00 2.738334535175794215e+01
9.728584645043950374e+00 9.062274565589477859e+00 2.652714645536908478e+01
1.217634894415393099e+01 -1.475898130692604004e+00 2.732768274363587935e+01
6.209533592446875971e+00 1.283375213375614088e+01 2.565781334532168145e+01
8.179180176120272705e+00 1.174385422972068227e+01 2.647298742328432652e+01
8.369030550240021071e+00 1.063237334497633313e+01 2.606371732322555701e+01
1.261817369015632373e+01 4.008147123979996507e-01 2.793284021747506785e+01
1.234316206740777844e+01 -9.261784878868869475e-01 2.753222891846597875e+01
1.253498085724016775e+01 1.550690980473261593e+00 2.790519368250316390e+01
1.253646722066715924e+01 2.865557700062845825e+00 2.802254445601722210e+01
1.019127562522306896e+01 8.300488635472223820e+00 2.671856752364093879e+01
1.171390188722896397e+01 5.086574702922153079e+00 2.743511460760007026e+01
5.656976084617057587e+00 1.321695645752340376e+01 2.558659857785988834e+01
1.236810195818858382e+01 -1.966832654364568000e+00 2.754437105468906921e+01
1.200080784151447943e+01 4.687915358142594968e+00 2.765896335946302642e+01
1.186102300345129024e+01 5.649139847284561533e+00 2.768815399524854470e+01
1.101662254601844104e+01 7.496002580298259943e+00 2.725619377078360017e+01
1.056016130942064990e+01 8.044047856339226144e+00 2.697799738770111588e+01
1.024370547341171012e+01 8.900616326634828823e+00 2.694921445542646410e+01
9.167751537263463035e+00 1.023593053080567827e+01 2.653541500768652028e+01
9.641873862922228255e+00 9.758848665233923469e+00 2.674192728178714873e+01
8.736249633825877936e+00 1.066736467284963119e+01 2.637207139300245728e+01
6.852486403748559773e+00 1.282540636530081990e+01 2.607371036739888481e+01
6.199895860681150950e+00 1.341045981518425023e+01 2.603566259312520259e+01
8.664189171252154154e+00 1.134867357297600421e+01 2.660133241131100945e+01
7.694200383304820257e+00 1.213903725106664133e+01 2.634464371594934207e+01
1.287766171735096243e+01 -1.718134965334582320e-01 2.820072358462649476e+01
1.275351161314278237e+01 -8.639984575824809498e-01 2.801423100897813967e+01
1.262872513073185132e+01 -1.520548376987660655e+00 2.785717541466347313e+01
1.271075068085843540e+01 2.088438893111648209e+00 2.813979047096679409e+01
1.279447399364126170e+01 9.780555910868229397e-01 2.817315108623781938e+01
1.228771199756547183e+01 4.289257567482292366e+00 2.788280928514798518e+01
1.271622432319352214e+01 3.727777647011264239e+00 2.828993126592791896e+01
1.147308221911086612e+01 6.947957526208048407e+00 2.753434175988187960e+01
1.200798185361345460e+01 6.211085358483584784e+00 2.794091338639186972e+01
1.011599727297640250e+01 9.281767372486941170e+00 2.694839785305487823e+01
7.302011402035742726e+00 1.254719317285825042e+01 2.626652769828430323e+01
5.612302679534475480e+00 1.371457260671676792e+01 2.589355090705673845e+01
8.561523813590332210e+00 1.178958589099661225e+01 2.676997670532470863e+01
1.306231712340224860e+01 3.164023062910615636e+00 2.860901073708156872e+01
1.305396299474814725e+01 4.054255877298509336e-01 2.844104925534468364e+01
1.178148584025838552e+01 6.634553564762295075e+00 2.778932944688434503e+01
1.067052713631091798e+01 8.603538817475776312e+00 2.724918768757885701e+01
1.207819805417834402e+01 5.201991858499226851e+00 2.783139144787456232e+01
9.239366997053627628e+00 1.077343995042338065e+01 2.681900716874678636e+01
8.259185686933484760e+00 1.226146980014660492e+01 2.681356936428866788e+01
1.316333337632380918e+01 -8.018985441707617845e-01 2.849557747556907472e+01
1.297521235574601839e+01 -1.258169145155390467e+00 2.826758181503254974e+01
1.297777573549690544e+01 1.684060941731320593e+00 2.839371868552084166e+01
1.238873418409105298e+01 4.921602276654507335e+00 2.810091127357543428e+01
1.288652892464304678e+01 2.626215468511922779e+00 2.837439550525511933e+01
1.242652349918036059e+01 5.664725572277050425e+00 2.827380850239476118e+01
1.107725419789517396e+01 8.291158926652320460e+00 2.754887307381491013e+01
1.050338458439943423e+01 9.501245373033610164e+00 2.736946636601134841e+01
9.682833184728336207e+00 1.040331539082646017e+01 2.704368519448991037e+01
1.012629940900227865e+01 1.003319038899228133e+01 2.726836220652572962e+01
7.168902777770703061e+00 1.310961977048363813e+01 2.647060007530143366e+01
6.718754810445352277e+00 1.333447585206885044e+01 2.632560595976904594e+01
6.185798229654263736e+00 1.398779152377531965e+01 2.641383263639427526e+01
9.023135233551689893e+00 1.159820475620589875e+01 2.699337052850659546e+01
7.729977794334394581e+00 1.265185145452180926e+01 2.665112610807294402e+01
1.331345155976560157e+01 -1.672041586101851718e-01 2.870887975251570268e+01
1.326322635271688988e+01 1.054132850944931477e+00 2.868845215832294215e+01
1.272185108456494085e+01 4.452590125228192974e+00 2.835970319172134424e+01
1.315354993786979065e+01 2.221823293938200106e+00 2.862832646195479214e+01
1.323827594759507953e+01 3.702352646040803386e+00 2.884385064355114636e+01
1.153480460295914867e+01 7.737285610672010705e+00 2.782634796029174140e+01
1.188726591585568215e+01 7.140705347525249103e+00 2.799002745504945366e+01
1.215478940484316261e+01 6.772452970951150952e+00 2.819341143968417995e+01
1.078069899276754029e+01 9.162045805708515900e+00 2.751985345893894319e+01
9.310949888359870030e+00 1.131070666099978261e+01 2.710244358738251691e+01
8.745012029868023617e+00 1.204532034120740569e+01 2.704061005328334844e+01
1.302669095237695274e+01 4.124844018081384789e+00 2.865562852991797982e+01
1.353569591811001871e+01 4.528547746402941110e-01 2.896971314496725469e+01
1.342057037369286654e+01 1.817431243151969245e+00 2.888223425799273514e+01
1.332558419985219444e+01 2.958471810458682683e+00 2.887558345981290486e+01
9.656217142238656237e+00 1.089932781524720440e+01 2.722636358650764521e+01
5.408313676250138258e+00 1.439334304937357167e+01 2.622475107378518544e+01
6.829601058713297590e+00 1.379730252699992832e+01 2.670665060137319458e+01
8.132478257395115762e+00 1.278453203166485608e+01 2.701004675263435217e+01
7.765784030680737970e+00 1.316492891277489363e+01 2.695765208844766647e+01
1.281653671819845286e+01 6.312778326499852710e+00 2.879258964140683119e+01
1.089092022077034549e+01 9.720808471362349934e+00 2.779063312087665594e+01
1.051392499716013162e+01 1.025248038010135865e+01 2.768948422393945208e+01
1.281196667939935629e+01 5.170730170258268643e+00 2.858202638580331367e+01
9.759295307367610306e+00 1.131672672866075580e+01 2.748698302627951051e+01
1.013660211699316527e+01 1.078461436977329058e+01 2.758823897504850464e+01
7.485128745129155270e+00 1.339365478053275105e+01 2.686710131554794501e+01
8.592254689453600491e+00 1.276269000446811219e+01 2.732490735946997518e+01
9.382543545021954756e+00 1.184805759204826714e+01 2.738584296246649075e+01
1.315622719164302978e+01 4.616012018365839964e+00 2.883685216608134283e+01
1.378226406777667101e+01 1.177888155213349108e+00 2.926012845228078518e+01
1.360076073135622465e+01 2.474292129351010949e+00 2.913160291042990480e+01
1.341421960763576315e+01 4.240638060012875243e+00 2.907866754566332190e+01
1.374666042343675443e+01 3.209266553006600020e+00 2.935055273239525420e+01
1.230150785577002814e+01 7.333480374592833861e+00 2.844575485668986659e+01
1.255896536225580462e+01 6.823242554705652552e+00 2.861913429747191273e+01
1.124346756472871078e+01 9.124145360876244837e+00 2.795436945671008644e+01
1.159652737009076873e+01 8.526614197051790356e+00 2.811834210089287112e+01
1.194915436808924269e+01 7.929815741751366609e+00 2.828211251501067025e+01
5.785627208355523798e+00 1.476730742860824996e+01 2.669801331959004287e+01
6.172599421640189377e+00 1.456477996333955893e+01 2.679200976185669347e+01
8.987510957800429523e+00 1.230523531004847015e+01 2.735541218221712256e+01
8.196745927285293831e+00 1.322047310213480209e+01 2.729452264985383536e+01
1.386336541435865755e+01 1.950802749990256713e+00 2.937074008763268651e+01
1.369767851318164098e+01 3.788915383023992334e+00 2.934637282813450199e+01
1.307438704786954808e+01 5.801759208263185030e+00 2.896623197178506715e+01
7.801603695367504088e+00 1.367791016253351088e+01 2.726488687150838075e+01
6.709773430670750827e+00 1.465356259288999397e+01 2.720248967985521560e+01
7.256815028125541467e+00 1.416580820842024302e+01 2.723368411459568605e+01
5.157280603237945016e+00 1.499764232116398688e+01 2.654704761026664883e+01
9.020409331260088592e+00 1.278456646701519794e+01 2.766673500492064619e+01
9.385212997658509693e+00 1.240578706745835191e+01 2.772086713136287273e+01
1.411994088136206216e+01 1.544172729062665894e+00 2.964012411137090908e+01
1.304188307078357134e+01 7.010440322567551341e+00 2.918022001477970662e+01
1.333221184059714837e+01 5.290790913642154258e+00 2.913985677254123985e+01
1.150576499846906842e+01 9.410965062763576583e+00 2.831802506186469870e+01
1.092748115652964991e+01 1.031291843319658597e+01 2.810806127657538411e+01
1.238065561633256806e+01 7.948775043206756763e+00 2.873046328010803308e+01
9.993114530333015111e+00 1.161499921416680436e+01 2.784979873609527345e+01
1.057679066329696838e+01 1.075775534930545696e+01 2.799018596634133615e+01
9.728082039830454164e+00 1.213346871408601935e+01 2.784768019735926003e+01
1.404447530193397142e+01 2.621013713401477041e+00 2.962222895534834777e+01
1.359029212724728986e+01 4.779317203248101720e+00 2.931365353340633106e+01
1.382222357776096189e+01 4.266653337293932147e+00 2.952070631760279440e+01
1.405421487183550511e+01 3.753855318389669460e+00 2.972779002675674320e+01
1.270170771480886351e+01 7.556709602233048884e+00 2.892477831944647093e+01
1.338361247190973380e+01 6.406460574736108526e+00 2.942544599036895292e+01
1.204882148472399273e+01 8.454098142480928502e+00 2.855772863326723154e+01
1.126763807039919563e+01 9.981783248707058576e+00 2.826296495556314881e+01
6.162998117618109895e+00 1.514135527468152809e+01 2.717129094076654994e+01
8.120899122187854147e+00 1.398123254371020607e+01 2.769212942819320844e+01
7.775620104286440792e+00 1.419069832653506502e+01 2.759184707912718437e+01
5.591025146266261459e+00 1.552175984324643032e+01 2.716146326645254305e+01
8.843036059082560740e+00 1.327760149559400915e+01 2.782570314676527090e+01
1.016872904803696898e+01 1.190876256432543556e+01 2.815554813045191551e+01
1.430615997698202513e+01 2.084174928041390373e+00 2.985923398482859881e+01
1.346137735623643117e+01 5.816297107410984601e+00 2.938793374605532804e+01
1.046055811922047596e+01 1.135985902031707262e+01 2.816834920617525029e+01
7.750187944555133157e+00 1.470393735131603385e+01 2.791906956765616599e+01
9.387893538720028630e+00 1.296333874207009274e+01 2.805623344166932753e+01
1.007388717993161364e+01 1.241909834344835417e+01 2.831015847503779526e+01
1.428585796968517485e+01 3.241825462492335053e+00 2.993453716086647631e+01
1.431837772843078760e+01 4.417658616067493327e+00 3.010017968153737655e+01
8.500273114038016331e+00 1.372963267742479410e+01 2.783307685933246134e+01
7.102744903004227339e+00 1.508396929144095111e+01 2.775066405980955153e+01
6.458702117057769421e+00 1.546401131337468726e+01 2.758225877298107775e+01
1.370943267433327861e+01 5.391634682349339514e+00 2.956877578480892055e+01
1.451747952649890117e+01 2.729841247792941683e+00 3.014123529116460176e+01
1.400577661549319330e+01 4.970404620916064609e+00 2.980602661110915363e+01
1.352483795767279418e+01 7.197804238021753953e+00 2.974132629163944941e+01
1.382858418473031747e+01 6.004004039776822843e+00 2.982390137588500423e+01
6.101106041372623245e+00 1.569816484080341290e+01 2.755750627853595702e+01
1.055527301314557675e+01 1.204333533404146017e+01 2.858391066257946989e+01
9.390595766775867048e+00 1.352109504475872193e+01 2.839261536517907203e+01
1.464427159574611181e+01 3.613927723010505577e+00 3.038187311234231558e+01
1.394757769054315055e+01 6.615563810911855747e+00 3.007865929709674546e+01
8.440601346539882144e+00 1.428492541252123083e+01 2.811985222292455333e+01
7.722940578069589002e+00 1.521703078569167467e+01 2.824566350070939436e+01
9.905161132871118213e+00 1.311292887460635193e+01 2.858315340462295850e+01
8.915544553064245648e+00 1.390301070304508713e+01 2.825623689269774630e+01
8.217164944508393631e+00 1.483291270200980172e+01 2.833162864377383272e+01
6.754540078267263326e+00 1.578683719128890317e+01 2.799277041241263575e+01
7.258198030208435014e+00 1.557038444212060568e+01 2.817956198499814136e+01
1.041973958173187320e+01 1.270476504334252610e+01 2.877369193630151400e+01
1.412481617625611996e+01 5.582699684989054667e+00 3.006100212293329221e+01
1.442104685540722642e+01 5.161394624035318124e+00 3.029809460737290649e+01
1.481364236327078032e+01 4.599005563196247870e+00 3.068186090834232260e+01
1.419611246970507601e+01 6.192115050142128929e+00 3.026327505795766726e+01
1.028725913680463755e+01 1.317848841757010447e+01 2.894542096574917522e+01
9.951016241445071131e+00 1.367801742650881458e+01 2.896032578253678480e+01
1.451094785998583170e+01 5.866683929151649934e+00 3.054022594705176985e+01
1.483627639880276838e+01 5.352367521604580958e+00 3.079003374298459761e+01
1.453479024180114720e+01 6.717762688054199849e+00 3.074000742681960574e+01
1.493600629312703809e+01 6.108308444133792037e+00 3.105311766412456009e+01
1.525150119374150215e+01 5.543338210256140819e+00 3.128182870938895022e+01
1.733272025776394720e+00 -3.420767391039614580e+00 4.397625825561183888e+01
2.245710823178450610e+00 -3.887082527203463478e+00 4.402373441015441102e+01
2.471087636833023460e+00 -3.385754278813897677e+00 4.431526825692890270e+01
2.358904048602509018e+00 -2.873321575147032458e+00 4.446157949201094794e+01
1.809311542648418314e+00 -2.744511804334004879e+00 4.426835766242194126e+01
2.105046870689141869e+00 -2.302747428839728272e+00 4.453883559348209786e+01
1.602630101546331565e+00 -2.220798799846578575e+00 4.435052327082932777e+01
1.258340266956488929e+00 -2.615486588005525803e+00 4.407476018561205677e+01
2.599397172714512649e+00 -2.217123150456534741e+00 4.477830717286462914e+01
2.169444464014204765e+00 -1.759934126442751490e+00 4.474328041191633076e+01
3.029237507379092698e+00 -2.674207500088012779e+00 4.481332733842123872e+01
1.051657481152449947e+00 -2.091595226775664340e+00 4.415713320960141175e+01
1.395568153867292382e+00 -1.697160830531197373e+00 4.443269028776398244e+01
1.739498520901667789e+00 -1.302814530592247166e+00 4.470826099479609184e+01
2.377767744930114446e+00 -1.424584140515492647e+00 4.494065070611743096e+01
3.341768305005055506e+00 -2.171142326355269159e+00 4.510939975646115130e+01
3.016132877044026994e+00 -1.548675908196086359e+00 4.517309471679024568e+01
7.635351285390371556e-01 -1.424850851741175095e+00 4.413016927432904879e+01
1.233793377682090187e+00 -1.010305248502223030e+00 4.448147947086294351e+01
3.736984248545038856e+00 -2.684026832634381687e+00 4.511159327759071402e+01
1.448466602191670116e+00 -6.800722807240117129e-01 4.464532305580269167e+01
2.137232012089017363e+00 -8.819238367258356304e-01 4.498977664652637998e+01
2.775565219606113576e+00 -1.005575776018629464e+00 4.522222599748815242e+01
3.654259306390020168e+00 -1.672371908405560603e+00 4.540545897369477046e+01
3.263931858292066224e+00 -1.146989272251773606e+00 4.538714575693997944e+01
4.014905015749466344e+00 -2.238839933503077528e+00 4.537480810856416724e+01
7.283091763191201773e-01 -7.178896229814996088e-01 4.425476951330719544e+01
2.534995647977297040e+00 -4.622433044024265580e-01 4.527135982439799022e+01
4.437377908952777616e+00 -2.654188057093336717e+00 4.535469298797037396e+01
3.596968849986328931e-01 -1.012613949971026273e+00 4.398556459394789897e+01
1.089243522138282905e-01 -1.427801074537074388e+00 4.375853729856542174e+01
1.896836730783998837e+00 -2.082805628324116143e-01 4.496206060848757602e+01
1.157175371122508123e+00 -5.839882930401883721e-02 4.458231937258841526e+01
3.386034992783724995e+00 -6.267959279645983761e-01 4.558122921813775719e+01
3.839360069176802615e+00 -1.211358628208090593e+00 4.560959073320653800e+01
4.292718821633237702e+00 -1.795922435490765467e+00 4.563796027011747469e+01
4.749814964661129402e+00 -2.155985969689013348e+00 4.565071162325453002e+01
2.228596179172511182e-01 -4.254788983981539485e-01 4.402805925357039030e+01
-1.902720382815623335e-01 -8.985363505422198083e-01 4.369715094875220984e+01
6.448030667189824650e-01 -1.552424782934191602e-02 4.431471474083230078e+01
2.932617800884528503e+00 -4.208288845669584666e-02 4.555286783104226345e+01
2.344281184900562032e+00 2.643305623350757361e-01 4.527878234914766153e+01
4.203741745215233472e+00 -5.929660382974598631e-01 4.595827461403356295e+01
4.647353744714042278e+00 -1.245350660098671458e+00 4.596201393745169383e+01
-5.043802051263558406e-01 -1.251217455450576388e+00 4.338208345418026823e+01
1.755805725853708532e+00 5.705223863033268561e-01 4.500489385031711009e+01
8.665062062700055190e-01 5.625691781862628416e-01 4.451944382838851055e+01
3.538592527919680819e+00 -6.761606634983127750e-02 4.581710639724315115e+01
4.898252369465671663e+00 -1.742260583248645522e+00 4.587376508641041539e+01
1.721657621016255135e-01 2.086867775572829042e-01 4.409539449253151133e+01
-2.829072221941134613e-01 -1.328771586555132778e-01 4.380119613577728899e+01
1.165527053835688109e+00 8.771744905978652307e-01 4.473059108776859460e+01
2.726078956925213070e+00 5.275950632789843109e-01 4.550544301498657518e+01
3.306433611593250443e+00 3.455370156105355139e-01 4.581322808304248895e+01
-4.896323781804063358e-01 -3.690080766987160477e-01 4.363572744063098696e+01
2.138135418079455619e+00 8.333132203734843202e-01 4.523150873939564320e+01
4.144788811057105171e+00 -9.309703633243268661e-02 4.608147229272052670e+01
5.279529884593042510e+00 -2.079098309139758793e+00 4.586935267752157586e+01
5.001688775377067131e+00 -6.946651687120158902e-01 4.628593487911182081e+01
-9.781053390336793552e-01 -9.179274256788130248e-01 4.314561923768896889e+01
5.760067988094511593e-01 1.183471719822673407e+00 4.445660185164799572e+01
1.214726231815703716e-01 8.422340850196919915e-01 4.416272830023266494e+01
3.842403439600462267e+00 2.923958815677114020e-01 4.603956555534922757e+01
4.750309594023750748e+00 -1.185119035761759837e-01 4.634560900226691160e+01
5.476059337194036480e+00 -1.234134946138872424e+00 4.626236007198863831e+01
-3.338394186734935376e-01 5.008324898161270466e-01 4.386835552186361298e+01
1.676418706555468541e+00 1.226904077273926807e+00 4.503304694590186585e+01
1.086037513445584635e+00 1.533066740675492090e+00 4.475862961311431576e+01
3.099943279117540751e+00 9.145012957015596911e-01 4.576571860639171518e+01
3.679834674779496773e+00 7.328475360936993477e-01 4.607332060658206530e+01
4.348598843715786089e+00 4.682620931328575486e-01 4.630791408791820629e+01
5.503965483343228549e+00 -1.688314931503100080e+00 4.610967890688495885e+01
-7.885026296390139633e-01 1.596296274969515039e-01 4.357440202331006418e+01
-1.137693710604255726e+00 -2.319653726254448378e-01 4.322422848141903273e+01
2.519950811285933678e+00 1.096155616688404777e+00 4.545811766723763725e+01
5.355562729072397943e+00 -1.439011819509482537e-01 4.660980509439561104e+01
5.808024500284385994e+00 -6.223604927380348428e-01 4.660028864819123129e+01
2.313880581567909100e+00 1.664564603273946952e+00 4.541080991644712128e+01
4.430002863818713332e-01 1.757915538722650384e+00 4.440089699097055842e+01
-4.810191746832365167e-01 1.262675652123464332e+00 4.384059163821488170e+01
1.118382459046421834e-01 1.598625616706449204e+00 4.421545199530654457e+01
4.053042159323735127e+00 1.120073658238812664e+00 4.633331553785867385e+01
5.046027713893307620e+00 4.063273860316804487e-01 4.660434452226954249e+01
6.108812222319642160e+00 -1.634296123149289626e+00 4.634534453815878408e+01
-9.798799159186077912e-01 7.790224590163042917e-01 4.350961062101085730e+01
-1.486852992273147045e+00 -6.237565296829480355e-01 4.287408156781477686e+01
2.893710917494840107e+00 1.483255354590585551e+00 4.571834021665964798e+01
1.597037312713074364e+00 1.883375408513789262e+00 4.506119903098055346e+01
7.425848635167016099e-01 2.206423067440648644e+00 4.458672807156739282e+01
4.736280185768584339e+00 9.567829449762236260e-01 4.659888617650893394e+01
6.260771826272907070e+00 -1.101176495730670002e+00 4.659077087349270840e+01
-1.251181214259049934e+00 5.523747848079084699e-01 4.329672277105333933e+01
1.180363386753207733e+00 2.319536756462686089e+00 4.483948329640301722e+01
3.100027539449212166e-01 2.332424763407578094e+00 4.434519346684508179e+01
3.473540778628490422e+00 1.301698140476494459e+00 4.602588042504898880e+01
5.741742885256475581e+00 4.390042698604493809e-01 4.693155273377918490e+01
6.027731545314041206e+00 -3.423467654364427404e-02 4.689243309432634277e+01
-1.721524602546465665e+00 1.555132401251955732e-01 4.285175117786241117e+01
2.687339502259010082e+00 2.051974832747007760e+00 4.567088612341673581e+01
-3.532706800032973105e-01 2.014649793619635254e+00 4.397381571355876417e+01
3.267454296429220140e+00 1.870396829200996924e+00 4.597855832852475544e+01
3.847098980122404033e+00 1.688933699141540457e+00 4.628603634568861480e+01
4.426318346435143880e+00 1.507520799108125420e+00 4.659342930406881322e+01
5.430585165738526676e+00 9.892748645337456903e-01 4.692608421433087074e+01
6.713590578764856431e+00 -1.580147878513031401e+00 4.658125595513545392e+01
6.481566996210076148e+00 -5.130428103958191155e-01 4.688284062304661859e+01
-1.171247280622668585e+00 1.398200087004823011e+00 4.344481903072393436e+01
2.107620751372842882e+00 2.233399966167318507e+00 4.536347124361381589e+01
1.668220804055410733e+00 2.598390280328136015e+00 4.512641727728053098e+01
7.363767608974731704e-01 2.690362149505443057e+00 4.459995682511654991e+01
-8.104198184279565176e-01 1.782441085842512152e+00 4.368684564680764737e+01
5.121281222597350968e+00 1.539545495063866509e+00 4.692061988031023390e+01
-1.714304568176306054e+00 9.444734770694838133e-01 4.301877906721367140e+01
-2.089209119093768496e+00 -3.880045495602784111e-01 4.245629857062893819e+01
1.228264171644288139e+00 2.963914991114039665e+00 4.488901946131190357e+01
1.769732425866678005e-01 2.907135194429636638e+00 4.428947439504976558e+01
3.084051248741513707e+00 2.360465489241813763e+00 4.590788266215457725e+01
4.284596997232982041e+00 2.176734495879655285e+00 4.655652595681615935e+01
6.935386608547569942e+00 -9.918532844448736396e-01 4.687325335012391747e+01
6.703193772258001282e+00 7.536761189684944295e-02 4.717473685109618486e+01
-2.080756653486157237e+00 6.674555774916839379e-01 4.267846138845348491e+01
-1.835927117322956104e+00 -1.013172005039011836e+00 4.252401347983347080e+01
2.581173427942008658e+00 2.553817849631025094e+00 4.564340204129830880e+01
-1.549956498429743146e-01 2.509254212133257944e+00 4.409658204565492667e+01
-8.173495683425280323e-01 2.429777745874021733e+00 4.373271695812628934e+01
3.625498216301919818e+00 2.421068350983525796e+00 4.620919912594301593e+01
4.829957579441691351e+00 1.912573076117998205e+00 4.685403162921568310e+01
2.016287142537749766e+00 2.879783038276449769e+00 4.530723778979348282e+01
5.819739792696947411e+00 1.571549334917315077e+00 4.724728999048326017e+01
7.277100396771831292e+00 -1.367387349937607466e+00 4.684335439855399130e+01
6.417477346474294464e+00 5.482754652608340384e-01 4.721380148020242018e+01
6.131740394830797136e+00 1.021184625787748157e+00 4.725287060439541875e+01
7.157245307043943683e+00 -4.036614286734085399e-01 4.716517271539385092e+01
-1.362609908492803390e+00 2.017821361072624331e+00 4.338002572207963681e+01
-2.342852769418341641e+00 2.405841287364374470e-01 4.238848346592295968e+01
7.891358293831082227e-01 3.328787124959773802e+00 4.465204795934183579e+01
2.490320950948398337e+00 3.199898751644441486e+00 4.558704410286291875e+01
-1.729098599528024360e+00 1.633882628351949862e+00 4.308407615210388997e+01
-2.177887915596027568e+00 1.336917738145771972e+00 4.274056151076439392e+01
-2.584509348529183015e+00 -1.859693786208648780e-01 4.224627952055713109e+01
-3.530870871540604528e-01 3.051798399786300298e+00 4.400440706294255477e+01
3.499191970301669397e-01 3.693751709487627544e+00 4.441501783071048948e+01
5.232874131598612699e+00 2.317210925568866209e+00 4.711435526861816925e+01
1.925019796977902820e+00 3.525860474441366410e+00 4.525103241271852283e+01
3.054219356496194582e+00 2.873937443820339777e+00 4.592305831055521992e+01
4.729918116834348929e+00 2.674299350202657966e+00 4.684733968829887374e+01
4.142788626483976167e+00 2.845740076191303203e+00 4.651963664216714989e+01
5.728899738149258347e+00 2.146905153088795259e+00 4.731110984267295549e+01
7.441101484170299152e+00 -8.379571910156158321e-01 4.709456779630775713e+01
7.374198536667925907e+00 1.851315313862433587e-01 4.745737308739836635e+01
-2.596656450104068092e+00 8.693763953890785157e-01 4.232062082127439595e+01
1.311462678887419742e+00 3.750163644424961973e+00 4.492345679610043163e+01
4.372474709472619347e-02 3.482833827040579422e+00 4.423366165223688284e+01
2.569119800155310163e+00 3.748124699743117905e+00 4.563177893062474766e+01
3.527165080210369563e+00 3.194009376283341251e+00 4.620266080039555590e+01
6.805713361276721329e+00 1.130666162090260496e+00 4.753531120986333036e+01
7.089927539145323365e+00 6.577649421762832294e-01 4.749632892730882361e+01
-1.281370818359881980e+00 2.844869056257459228e+00 4.349164985368121705e+01
-2.984935670306524624e+00 2.573475593382495430e-01 4.209773861585095034e+01
8.547114993159075080e-01 3.965946695193048210e+00 4.467897930506097026e+01
-8.374402638499113261e-01 3.162781507439835771e+00 4.374330080975693846e+01
3.076453892454284134e+00 3.454941247662352222e+00 4.593407325779798356e+01
6.362683203805706178e+00 2.111999057988797723e+00 4.759466715271489790e+01
6.521568216426874898e+00 1.603607398840700693e+00 4.757430129981595002e+01
7.838454144346997943e+00 -1.154778286776413809e+00 4.710520004311565145e+01
7.884403333522423729e+00 -3.785165736112766077e-01 4.741225055726049220e+01
-1.847542967233194444e+00 2.189180591456551639e+00 4.306277179450358261e+01
-1.554391211371588311e+00 2.638982348598452710e+00 4.331508694594074882e+01
-2.192221018948981470e+00 1.878406801944791482e+00 4.278994415568506327e+01
-2.850032222224350154e+00 1.496780212295679702e+00 4.225286976679338125e+01
-6.419890951848596927e-01 3.792871807420409080e+00 4.386849877964753119e+01
-8.962550407268476960e-02 4.058999905783926110e+00 4.417780436488275342e+01
-1.193667964485723321e+00 3.527086711292038768e+00 4.355957521062148885e+01
5.638024724226310624e+00 2.722261606037211124e+00 4.737493346775342928e+01
5.196626954407838284e+00 2.841142586693632399e+00 4.712840814802303413e+01
4.510998800732250125e+00 3.417764824045111727e+00 4.677086626958698190e+01
4.000926241712515541e+00 3.514656693491988726e+00 4.648275528185369154e+01
6.203920713752808069e+00 2.619900621666606977e+00 4.761501636479209765e+01
7.585800650268771150e+00 8.022206149969568489e-01 4.773902766321134550e+01
-2.640675368438457404e+00 1.728830262337288648e+00 4.246282281088365806e+01
-3.083937412246432253e+00 9.750845530227888469e-01 4.210699603517263512e+01
-2.937682114785800547e+00 -4.848275919629537190e-01 4.206269302786024156e+01
1.833822558598491748e+00 4.171552904591085742e+00 4.519486242919044372e+01
1.131430557200558962e+00 4.564757236444622279e+00 4.481817593454764648e+01
5.211355117459788300e-01 4.311977880592231749e+00 4.449812061494792914e+01
5.020548079702815691e+00 3.320940092281313039e+00 4.705878855315198450e+01
7.961008646098694186e+00 2.329621314975568180e-01 4.767206960723036246e+01
-1.746353683384687772e+00 3.260832323626344564e+00 4.325008456756222586e+01
-3.488044316949773016e+00 -2.210107351626396377e-01 4.183224893485314055e+01
3.549369771629902193e+00 3.775579183048337395e+00 4.621364424803027049e+01
3.098674343292062261e+00 4.035962943880941900e+00 4.594508684207958282e+01
2.647718041364730990e+00 4.296364450479808639e+00 4.567651137973640374e+01
5.530045592873856997e+00 3.223998361377485189e+00 4.734706254766332023e+01
6.917562695738944001e+00 2.186387556937182453e+00 4.787691494224828404e+01
7.159006573487991965e+00 1.511322910932288099e+00 4.779753293629947564e+01
