-1.173769298185444576e+01 -5.730994188234814768e-01 1.830453208540954790e+01
-5.098249457938853979e+00 3.537754048562264941e+00 1.875617372560676088e+01
-4.667091487426941576e+00 3.840930027378851808e+00 1.886717530798516762e+01
-2.726681483544567630e+00 3.391343791176431033e+00 1.895726829927418322e+01
-5.820989014982249188e+00 3.868244591842367353e+00 1.878087728811894408e+01
-7.406531723231810638e+00 3.592299663494741946e+00 1.858354080268211916e+01
-7.849229083775248306e+00 3.309021428884132643e+00 1.850222154894932913e+01
-1.032712773437500076e+01 2.349230346475670306e+00 1.825546549097146354e+01
-9.228475168235425130e+00 3.135952673481415598e+00 1.843179104407623825e+01
-1.173054940611838504e+01 -1.340249344809519183e+00 1.857963875154456090e+01
-1.169965333143291275e+01 6.504337660780018515e-01 1.819501038206772492e+01
-1.203194474697045635e+01 3.372428290808252571e-01 1.832596260954619183e+01
-4.086585405132189486e+00 4.280360338995157221e+00 1.904543640990156561e+01
-6.622675341795927650e+00 4.012084361043458891e+00 1.875230129095600873e+01
-1.088619544158525621e+01 1.984324925374314263e+00 1.825157447305810976e+01
-1.130903713585501436e+01 -1.994178251689189496e+00 1.856974400274808445e+01
-1.236553247796349808e+01 2.399260510408680533e-02 1.845692871147909386e+01
-1.215207701279623365e+01 -6.860063830379869998e-01 1.858953913487512821e+01
-1.144516594392923992e+01 1.619470419115127235e+00 1.824770243087463228e+01
-3.161516122652046956e+00 4.229904589770910661e+00 1.913158887976371858e+01
-1.061270968304929596e+01 3.023818294960328945e+00 1.844752471821354689e+01
-8.679001855209769190e+00 3.529415508571340343e+00 1.852000431678596115e+01
-1.184099197106771406e+01 -1.503265253155942061e+00 1.880194539738048931e+01
-1.200396718750000069e+01 1.254709090909090774e+00 1.824385387871574338e+01
-5.325107151838081698e+00 4.100755348185024296e+00 1.887934659079383337e+01
-4.958520085862286209e+00 4.474715920078931930e+00 1.900293565885649372e+01
-2.240863043489738970e+00 4.012679724924188562e+00 1.917329993989659798e+01
-8.129617187500000952e+00 3.922814330571650743e+00 1.860821980542176135e+01
-7.481595213462318483e+00 4.377813976298061682e+00 1.877486532430972943e+01
-1.009998455611679447e+01 3.403331564645450946e+00 1.853316351647802662e+01
-1.093037765504338488e+01 2.747303579275075514e+00 1.844161058457667579e+01
-1.162516797856917172e+01 -2.202079376598663263e+00 1.913016635003193855e+01
-1.237273119473102589e+01 -1.012725479434123388e+00 1.903405159791813261e+01
-1.249763674864259499e+01 9.379297794658765230e-01 1.842654183127799072e+01
-1.257273355448205265e+01 -3.275595034092047830e-02 1.859942556193251306e+01
-3.781755130370371365e+00 4.708390708852849826e+00 1.919105934814946934e+01
-5.870317750166672788e+00 4.551966475746215046e+00 1.894872604492610790e+01
-9.404048600457686646e+00 3.889258533699361919e+00 1.864152762001293340e+01
-1.171292565507043371e+01 2.236225754889284545e+00 1.843609362341682356e+01
-1.214505667520374566e+01 -1.579073975740436175e+00 1.923586926954675747e+01
-1.299333802317274333e+01 6.208395611152919269e-01 1.860931760674580460e+01
-1.290444501963723134e+01 -5.225133037642274436e-01 1.926614533114001304e+01
-1.227179357109557500e+01 1.871353012700327501e+00 1.843221256991458645e+01
-4.471215806112588176e+00 4.848131758770646726e+00 1.915377900851047954e+01
-2.427185646590086954e+00 4.702440507051998786e+00 1.933512139975730904e+01
-6.834509033538967770e+00 4.832155596610908432e+00 1.894129227247702119e+01
-1.089809171084376160e+01 3.697915202515970279e+00 1.863946237583667553e+01
-8.854970808822612227e+00 4.282869149574138667e+00 1.872981142076512384e+01
-1.231499947057245237e+01 -1.815780758609536472e+00 1.964261535992419283e+01
-1.260866132334505885e+01 1.764354421014457941e+00 1.852577961436491805e+01
-3.205548867333329444e+00 4.961996815918902293e+00 1.931987358114129805e+01
-7.713725129597293950e+00 5.097255080855068954e+00 1.901039710107506764e+01
-8.426385813670712821e+00 4.597481641619329373e+00 1.882731176206747392e+01
-1.153330325164189674e+01 3.145133180426516795e+00 1.862765283754240642e+01
-1.203647819576889333e+01 2.816607039904704735e+00 1.862412240842050437e+01
-1.268889429510222655e+01 -1.221312729727189517e+00 1.959443979384096579e+01
-1.194122640261406332e+01 -2.410083593750000031e+00 1.969076531166883726e+01
-1.321522132255797466e+01 2.940904211953366265e-01 1.905391489002738226e+01
-1.304602990850159117e+01 1.608485356977466418e+00 1.869571300159602245e+01
-3.983910616090553525e+00 5.221546756168051751e+00 1.930462620713356614e+01
-5.249586078403567058e+00 5.107696787529340199e+00 1.913853423240720630e+01
-6.187569074530559377e+00 5.286395777699245180e+00 1.910770345426977102e+01
-1.032864499176210415e+01 4.231422714598697787e+00 1.876491061198458610e+01
-1.343594696276586475e+01 -3.309599940944516622e-02 1.949814517292926652e+01
-1.306255707326957882e+01 -6.270708878085917704e-01 1.954628247719278633e+01
-1.335008994288453543e+01 1.289507032823842048e+00 1.880022878122505858e+01
-1.253965351058664623e+01 2.488060278533317238e+00 1.862060777219548058e+01
-2.761593750483811949e+00 5.286634021795126870e+00 1.946635127491828143e+01
-7.066712704197291472e+00 5.551548290438318212e+00 1.917682609576607433e+01
-1.213646945532917165e+01 3.543085701665857457e+00 1.881376655494485206e+01
-9.579624221721777744e+00 4.642549908683657911e+00 1.885128261277134598e+01
-1.255778366065012541e+01 -1.828789939377575058e+00 1.999599361866247094e+01
-1.348302208027543259e+01 1.069078992338851286e+00 1.893389519523990927e+01
-1.321417535867702853e+01 2.274602943292453272e+00 1.880808384181892734e+01
-1.319605625221250733e+01 -8.780992931905436949e-01 1.997439361004138902e+01
-4.762273799830024856e+00 5.481091037276444311e+00 1.928937918668431095e+01
-8.722837940132237122e+00 5.271416846389328725e+00 1.904618724913524375e+01
-9.081461069789016349e+00 4.885964804895082558e+00 1.892534571574866575e+01
-1.196197177748772766e+01 4.156843576463542966e+00 1.891578137153245720e+01
-1.118354555831714769e+01 4.372157378633828806e+00 1.883145940900747561e+01
-1.317451369156239771e+01 -1.247800969126013904e+00 2.030131913342237127e+01
-1.230253471322150105e+01 -2.635443467447321275e+00 2.037375034890976977e+01
-1.381554010195570825e+01 5.784264513450324552e-01 1.960055668215797198e+01
-1.361367082349953606e+01 -3.512318292469974734e-01 2.005230306418516406e+01
-1.370844495557406617e+01 1.957680364237780912e+00 1.899101435968099594e+01
-1.280771537083135492e+01 3.105216034999526364e+00 1.880915737572835411e+01
-3.390173667090000453e+00 5.705440640792911466e+00 1.951502472430668078e+01
-1.978608860887504539e+00 5.186237774591770489e+00 1.952853220085544805e+01
-5.540635937499999386e+00 5.740628554149293628e+00 1.927413253738562560e+01
-8.025386562129719792e+00 5.887181587753567591e+00 1.926776601405758527e+01
-1.081637156836989355e+01 4.757610332273750409e+00 1.892357646361954338e+01
-1.286824621711092220e+01 -1.887408670830419188e+00 2.046213353788213141e+01
-1.397295600648864955e+01 1.517324863721644101e+00 1.925863690595199174e+01
-1.401292228055029376e+01 4.922968477633655748e-01 1.992097505007874858e+01
-4.323910508536269681e+00 5.954554006015587042e+00 1.947859294606739766e+01
-2.507879392663254325e+00 5.714709640244151956e+00 1.962077481535743573e+01
-6.354382643563281974e+00 6.051154424216826477e+00 1.935989636832550076e+01
-1.274039775577408129e+01 3.941497405260130371e+00 1.900011271284908787e+01
-1.030433850508227600e+01 5.002230964971501770e+00 1.897276115049631429e+01
-1.379130171058191046e+01 -6.676492401451621372e-01 2.060668351885200877e+01
-1.419441749422851018e+01 1.189147782702456579e+00 1.970283741780218989e+01
-1.382017825316367521e+01 2.785140754928700169e+00 1.909061223328011181e+01
-5.122627032203869391e+00 6.192188136653559383e+00 1.945458612654402941e+01
-7.168873221055676481e+00 6.361948227898867714e+00 1.944573818798022202e+01
-9.597759972222149827e+00 5.405714379520961010e+00 1.909651375051807776e+01
-1.201112999706805695e+01 4.720612054825813253e+00 1.904458321017428801e+01
-1.307569225579722350e+01 3.722163240653605154e+00 1.899766012221197187e+01
-1.146937597382969543e+01 5.047271022852734212e+00 1.902372209237755740e+01
-1.341538824174597089e+01 -1.398907948431751702e+00 2.075655687912016489e+01
-1.303949587364940399e+01 -2.130549273030715618e+00 2.090640155198270023e+01
-1.424953284712436563e+01 6.982513140219170911e-02 2.065971854240866890e+01
-1.344793496442660441e+01 3.253687357020643489e+00 1.904411861698208952e+01
-1.406719760258757113e+01 2.626582267629147260e+00 1.918202187294453154e+01
-1.446244932558467511e+01 1.964806428786720849e+00 1.958308404034118766e+01
-5.843752358260088542e+00 6.291873282913578613e+00 1.947004932709473479e+01
-2.967701247945341958e+00 6.318891503610819527e+00 1.974321273649195163e+01
-1.530032072374907015e+00 5.670033626635883728e+00 1.972196231335303196e+01
-7.984284653431870105e+00 6.673076501731902255e+00 1.953167687374725503e+01
-9.019419680365706071e+00 5.945629983712953148e+00 1.926517317821747000e+01
-1.281447483512743801e+01 4.800261629103945715e+00 1.919616487515877523e+01
-1.102973733912992849e+01 5.362217061974912546e+00 1.909435163551117398e+01
-1.458919315846657661e+01 1.019137896473219618e+00 2.034330152670858993e+01
-1.457333309849196645e+01 1.800352879591291311e+00 1.980520205853590454e+01
-1.397446848673533637e+01 -8.944264475447948337e-01 2.111047421261666202e+01
-3.885548112597360326e+00 6.428016752454875693e+00 1.966782364671420069e+01
-2.009607020348699979e+00 6.252435604740280262e+00 1.983574610600561172e+01
-8.583620485027452673e+00 6.381890581298875986e+00 1.942087016747427697e+01
-1.049404473810709248e+01 5.755323690853513696e+00 1.921617628658878729e+01
-1.334386541984624763e+01 4.339548509137218346e+00 1.918631368600606990e+01
-1.359868626825456595e+01 -1.626021341660254249e+00 2.126035787917914632e+01
-1.470777961277317658e+01 8.071460352832537932e-01 2.071277610376678169e+01
-1.432732195815749954e+01 -2.263100463556407538e-01 2.105059345849793573e+01
-1.442578476562500001e+01 3.295161925945787829e+00 1.937295154545117626e+01
-4.703960139950785546e+00 6.644457800782847201e+00 1.963533865965483827e+01
-5.434912091351491448e+00 6.663417647515405662e+00 1.962048221937935466e+01
-6.658116365194683972e+00 6.602979092069593214e+00 1.955601214027841195e+01
-7.165226452074925589e+00 6.874429377246760176e+00 1.963880481009666568e+01
-1.228455883026570739e+01 5.261419026908563445e+00 1.920604668992984543e+01
-1.175511601562500097e+01 5.722151638760242243e+00 1.921593559113303940e+01
-1.388463063997292934e+01 3.817646810175072236e+00 1.927957424974972511e+01
-1.468763934125889214e+01 2.854139476863706726e+00 1.964019225315136907e+01
-1.465258670587384593e+01 1.459737290781217833e+00 2.013564371661406227e+01
-1.495204292389083989e+01 2.411723340830176365e+00 1.990759583337872840e+01
-1.322299832113910334e+01 -2.357002302669346072e+00 2.141032348864083090e+01
-1.415763220328306460e+01 -1.121902469649939338e+00 2.161425976989152531e+01
-1.354538887050418161e+01 -2.516719353453086505e+00 2.197622575404916390e+01
-1.378198472264593022e+01 -1.852810629369948892e+00 2.176416351159564755e+01
-1.298584251120797894e+01 -3.021216250767245537e+00 2.162191536578235329e+01
-6.147361163550950636e+00 6.844007824802312179e+00 1.966629522992438339e+01
-3.427522943590434412e+00 6.923067918018325884e+00 1.986566210633793972e+01
-9.316105843498348804e+00 6.620069138410658915e+00 1.948425175350315897e+01
-9.905074862846728223e+00 6.187698876587162111e+00 1.935020153655495534e+01
-1.351258362319738993e+01 4.942224526295889042e+00 1.944005501604678798e+01
-1.121937779433264915e+01 6.115323571580583817e+00 1.933777755114838115e+01
-1.451059498308649864e+01 -4.526952561941595676e-01 2.155432970154744510e+01
-1.478561034051922896e+01 5.107826279730769414e-01 2.110367908614319887e+01
-1.505931907195966879e+01 1.976729936576357538e+00 2.033693385723292835e+01
-1.434073838472813911e+01 -1.348934220752351809e+00 2.211789174529304347e+01
-1.469387064555952804e+01 -6.800930277582654115e-01 2.205807315712358019e+01
-1.330853870451261756e+01 -3.180987822080374450e+00 2.218835693923586305e+01
-2.489361149049364563e+00 6.835047222649679455e+00 1.994958176549036111e+01
-8.798755240052024362e+00 6.983826581116150400e+00 1.961751605996180103e+01
-7.381412391841980281e+00 7.405640537907855148e+00 1.983052662799564558e+01
-1.301343086039965868e+01 5.291511823836613004e+00 1.942018039231550475e+01
-1.384640064706707818e+01 4.779519297484953633e+00 1.951759532951631826e+01
-1.516571018260800230e+01 1.544333579980739168e+00 2.076582094597775097e+01
-1.486339312217569564e+01 2.144148649741385027e-01 2.149458053882366571e+01
-1.465822972692284587e+01 3.996514688924492020e+00 1.965784950672074416e+01
-1.495745663296152372e+01 3.849075234027443670e+00 1.987705876356763568e+01
-1.410425807217364813e+01 -2.012737255802572456e+00 2.233001290010765416e+01
-1.386776852452145192e+01 -2.676409840078665336e+00 2.254212732235358985e+01
-4.285368606171199524e+00 7.096645545396995658e+00 1.981607296078034253e+01
-5.368107346640096367e+00 7.246283972985700927e+00 1.983927278758629242e+01
-6.450846609984839830e+00 7.395912317175795891e+00 1.986247124163507038e+01
-8.209566515178348567e+00 7.521689982641928118e+00 1.984253811559246827e+01
-1.068375088496895486e+01 6.508405820867928071e+00 1.945961833617489489e+01
-1.236321329630510135e+01 6.130212430104253762e+00 1.952585280327151196e+01
-1.425231536307788893e+01 4.388100429969301608e+00 1.958770860078791642e+01
-1.192287959074090509e+01 6.338481579317524428e+00 1.949372220404251266e+01
-1.521807146146452894e+01 3.048172047688823216e+00 2.015261213381741001e+01
-1.528262470937041684e+01 1.099527896452170195e+00 2.135218731687866622e+01
-1.504676458488782842e+01 -1.147175781105441023e-02 2.199829482365111488e+01
-1.541151213436504186e+01 2.882991845701215805e+00 2.045769511411220520e+01
-1.483324636212921455e+01 -9.265925859499232198e-01 2.260434081623563785e+01
-1.363102686444560518e+01 -3.340667423402632341e+00 2.275445159250137550e+01
-1.812992339157033284e+00 6.777418098812765912e+00 1.998240240800214096e+01
-9.612737068950899300e+00 7.294368879211489798e+00 1.970330342242657551e+01
-1.014784835046147826e+01 6.901680148958382333e+00 1.958154147678163071e+01
-1.302223346137383153e+01 5.837482030767979779e+00 1.960979220049253158e+01
-1.368125294622040045e+01 5.544699518209527334e+00 1.969373906979899402e+01
-1.434905070835479712e+01 5.218949015886889420e+00 1.984894977058648990e+01
-1.138711525391573254e+01 6.731322510393369818e+00 1.961543710087933334e+01
-1.539940743126542344e+01 6.547196875000000915e-01 2.193855677077816324e+01
-1.545706265743181085e+01 2.115251564584248456e+00 2.096360250568304195e+01
-1.469282688671307824e+01 -1.683259225482810706e+00 2.303956359545495047e+01
-1.428469877837375357e+01 -2.320558458922242995e+00 2.293008417016179123e+01
-1.410293197251161423e+01 -2.899171967683815243e+00 2.315727884465028907e+01
-4.724120990178644952e+00 7.743392651876803257e+00 2.004348558615848575e+01
-3.866903313027756361e+00 7.548697582249584315e+00 1.999676685394549835e+01
-2.104701956943268115e+00 7.300733892896290378e+00 2.009441874125604954e+01
-2.969497789519720321e+00 7.418116396723401174e+00 2.006351671922968904e+01
-7.620632272858462564e+00 8.059637416690241807e+00 2.006760987746076452e+01
-1.512292589319894631e+01 -3.397836821751690772e-01 2.251264951678211901e+01
-1.559569267359013445e+01 1.911766417560275544e+00 2.133098570383278059e+01
-1.548608325943133046e+01 3.684409132582297630e+00 2.039723586837764202e+01
-1.489052676003480080e+01 4.695708333573272775e+00 1.994258189659433000e+01
-1.574821054494764638e+01 2.686289167693610480e+00 2.116142536914155059e+01
-1.512586181344599900e+01 -1.067147111554999306e+00 2.324658831149525895e+01
-1.560867783846980750e+01 2.868131625101709714e-01 2.275791624937716051e+01
-5.728028509199730500e+00 7.949836963772598075e+00 2.009017794116459399e+01
-1.350077277808460874e+00 7.050622457301223278e+00 2.008399432476687707e+01
-6.754108937660825873e+00 7.947405456808429136e+00 2.005851202348138074e+01
-9.049938021147873712e+00 7.733119216322410061e+00 1.988999913501757533e+01
-8.487155361139057774e+00 8.171851909723761409e+00 2.007670866194940729e+01
-1.076613637968706882e+01 7.049529999023333104e+00 1.969794736045368211e+01
-1.297105620192375852e+01 6.538035234279332641e+00 1.983564241377900927e+01
-1.209047928213591838e+01 6.954192166969590971e+00 1.977125624963398209e+01
-1.572967494446363546e+01 1.689009624078598337e+00 2.177483546627995636e+01
-1.587081532855850163e+01 3.356245787728477925e+00 2.100762053181475153e+01
-1.532595866489389103e+01 -5.040747208757250242e-01 2.309108976925819334e+01
-1.402004792004308520e+01 -3.493544264924778098e+00 2.361552938886697106e+01
-1.457397372134095193e+01 -2.458368009485738970e+00 2.355947304716156054e+01
-1.530259372357700798e+01 -1.372511680909297205e+00 2.383361582408341306e+01
-3.448883547782505055e+00 8.000267797210206311e+00 2.017728140110935442e+01
-7.924347895728057978e+00 8.610601132457011531e+00 2.026344437508043583e+01
-1.035750513866833877e+01 7.671411993530424134e+00 1.992853931130883893e+01
-1.428647249347565307e+01 5.837743358613145972e+00 2.001905418861185026e+01
-1.385020209182346029e+01 6.147738594420290248e+00 1.994785972871469681e+01
-1.575185630156754435e+01 1.318979220694088905e+00 2.211298113166734680e+01
-1.548995109867290410e+01 4.402345427323449023e+00 2.038194231121521938e+01
-1.472693532527639348e+01 -2.831616315860504773e+00 2.421899345406181325e+01
-1.504501932880727111e+01 -2.017431751495533554e+00 2.396178457349335744e+01
-4.230704689396545426e+00 8.210122763185511374e+00 2.023190003922188396e+01
-1.609992116279995722e+00 7.899289979420113461e+00 2.028059963196805882e+01
-2.529437832031249833e+00 7.949779086720336174e+00 2.022894745428750696e+01
-9.809693702190884323e+00 7.890694359155030035e+00 1.999165636342531727e+01
-9.247040520361192506e+00 8.329857700577855795e+00 2.017856594468353038e+01
-1.138727246101304225e+01 7.415001954452572264e+00 1.990761292300014773e+01
-1.512276245719771239e+01 5.394983537975853061e+00 2.022725594554142958e+01
-1.485219370307650699e+01 5.656656416263362352e+00 2.018062746592598344e+01
-1.291889141616334946e+01 7.258418554115152688e+00 2.009743259701686569e+01
-1.602608674945672718e+01 2.279586353116827890e+00 2.189674393297082489e+01
-1.603919812712224413e+01 3.257643069616732223e+00 2.135935864857912847e+01
-1.575390989172541900e+01 4.320462526730316277e+00 2.064169592643444417e+01
-1.595730618039175752e+01 1.109412909030704331e+00 2.266720456067137590e+01
-1.556047441923543673e+01 -7.267995672065962198e-01 2.370529680617368484e+01
-1.581791035174605753e+01 -8.222138914549853572e-02 2.357719020611632388e+01
-1.616637272224156519e+01 7.395463697689489413e-01 2.348683714258209676e+01
-5.012530728602274444e+00 8.419971836449082758e+00 2.028651735686933577e+01
-6.353117056208605007e+00 8.350315445874088027e+00 2.022040689805745828e+01
-7.057136938397809089e+00 8.498466121926950834e+00 2.025440925209792908e+01
-8.847316734003090488e+00 8.907197946333099026e+00 2.043653565035533504e+01
-1.357950999297304051e+01 6.944635105578098155e+00 2.014574517252523833e+01
-1.225827134522563888e+01 7.570598366374736266e+00 2.004912894267493684e+01
-1.610395313526123928e+01 1.982939801003259284e+00 2.228732704386075980e+01
-1.639332885156513697e+01 3.237707186712175389e+00 2.200986992441370660e+01
-1.440868128861195352e+01 -3.646213175797682560e+00 2.447633819297612234e+01
-1.573086791799446438e+01 -9.373458165078648596e-01 2.443392689254290673e+01
-1.598844956385445570e+01 -2.924383379310980247e-01 2.430585381519185972e+01
-1.615875220504075216e+01 -5.025344090136434350e-01 2.503450132879078183e+01
-1.637789698709437403e+01 1.899541003729672550e-01 2.487766217953528525e+01
-1.620746248835249048e+01 4.000483295834555975e-01 2.414864289342450832e+01
-1.513764919431868705e+01 -2.258827857363673086e+00 2.470701044234575505e+01
-1.522985557405914214e+01 -2.499845303384353290e+00 2.545134787569384827e+01
-1.486565228117251891e+01 -3.193514151447623295e+00 2.533624926481909512e+01
-1.426638725511116235e+01 -4.145989746794629838e+00 2.543107539327703392e+01
-1.547327072045348295e+01 -1.582515686759402129e+00 2.456228852775679172e+01
-5.794568997686849521e+00 8.629872512613143698e+00 2.034114876026276164e+01
-4.518963896914109490e+00 8.728759860757147493e+00 2.045352277848852296e+01
-1.000692490765440290e+01 8.487844317374385383e+00 2.028042433554255908e+01
-1.401904739090336172e+01 6.748850961722500763e+00 2.020184159706855453e+01
-1.440809966784468266e+01 6.330293772164631960e+00 2.022062418971153619e+01
-1.292464005548418982e+01 7.818747647229043807e+00 2.031322266764527384e+01
-1.648567240257321842e+01 2.105617816157305811e+00 2.292900143581169559e+01
-1.633000436903182617e+01 3.829403003178215137e+00 2.155743185435903086e+01
-1.617564545172675494e+01 4.393317417010920600e+00 2.122200100701337178e+01
-1.602203867187499853e+01 4.957502734374999775e+00 2.088643625135883042e+01
-1.568874040592473662e+01 5.526181482295052128e+00 2.069935980342929582e+01
-1.590103055632263995e+01 -1.147768181933740639e+00 2.516254385620870693e+01
-1.556543328014944017e+01 -1.823882620778868313e+00 2.530708015319722648e+01
-1.599271543787435057e+01 -1.389465852382132827e+00 2.590775086082743783e+01
-3.822850026480979935e+00 8.577165135621209302e+00 2.042099099135765528e+01
-5.080919639924231568e+00 9.122903954442945107e+00 2.060387837346047490e+01
-3.104702518064429650e+00 8.574321367482539813e+00 2.043704729430266909e+01
-2.080678707172011421e+00 8.567248281653514042e+00 2.051452555392993915e+01
-9.530212963848146757e+00 8.841608966009543380e+00 2.043015195061133937e+01
-8.170540093024216688e+00 9.357404814605011723e+00 2.062459235334805996e+01
-7.360509765625000256e+00 9.050149727492783569e+00 2.045053748042888486e+01
-1.110254433827780218e+01 8.048542964877336559e+00 2.015385798151435637e+01
-1.042770165770224722e+01 8.150611580072686380e+00 2.015416812130952451e+01
-1.535523050096710307e+01 6.095543856792392745e+00 2.051223133903025797e+01
-1.496600017661667259e+01 6.513796403694222192e+00 2.049338659333769641e+01
-1.365640794466529861e+01 7.833968103358145640e+00 2.050548015746251451e+01
-1.180448234264144425e+01 7.929407997177440492e+00 2.016338627101280423e+01
-1.418786830327089987e+01 7.350296742479270229e+00 2.045580121296437426e+01
-1.645580277106592604e+01 2.646858593749999766e+00 2.246166174393400894e+01
-1.654804785991144200e+01 -2.005888249010847821e-02 2.560664650730884517e+01
-1.659711089880104851e+01 8.825007197452311436e-01 2.472057277041296786e+01
-1.651542979490994867e+01 1.564395703124999981e+00 2.339631990591411181e+01
-1.532171452263854405e+01 -2.740868814080075211e+00 2.619599856709699282e+01
-1.492227838323539757e+01 -3.375928060392031416e+00 2.625897135454850684e+01
-1.565721235953937907e+01 -2.065172018487213990e+00 2.605188298586712392e+01
-1.632881959267994176e+01 -7.125883773591279446e-01 2.576334344020868983e+01
-6.577310096136605111e+00 8.839953939139006067e+00 2.039582786315551388e+01
-1.457690441326495190e+01 6.932028050348407078e+00 2.047458096037563635e+01
-1.242603028899041995e+01 8.186865730984344225e+00 2.032696350590617840e+01
-1.673772000522808057e+01 3.376281956379138638e+00 2.286698288984223737e+01
-1.665385642913031816e+01 4.164938619657431396e+00 2.226417204478669021e+01
-1.675126649391890155e+01 1.465672973867416351e+00 2.434467211744498272e+01
-1.650215772069513775e+01 4.447208824853432496e+00 2.188520419907419878e+01
-1.676726543926323743e+01 6.722637124422929933e-01 2.544994911133662541e+01
-1.452297232873118915e+01 -4.010721992129726132e+00 2.632187678819850163e+01
-1.597561646470351704e+01 -1.609163100781165756e+00 2.678753010592386374e+01
-1.564019122010892637e+01 -2.284711353121154698e+00 2.693189898139919336e+01
-1.631148808023258567e+01 -9.327836602570511726e-01 2.664329661227766621e+01
-4.197043059936809151e+00 9.154408423671034356e+00 2.066485187849185934e+01
-6.016582308858433592e+00 9.345071917720499499e+00 2.065601251551105477e+01
-2.760336979909344901e+00 9.148682371031688021e+00 2.069696886314138595e+01
-9.592009727136403541e+00 9.374619402836488646e+00 2.068381492574213709e+01
-8.979913215169640139e+00 9.664389438349044070e+00 2.079850655631622303e+01
-1.086184103204342755e+01 8.654509403970090275e+00 2.041637669383143106e+01
-1.312520358742684579e+01 8.317516903190769639e+00 2.055515322647744014e+01
-1.481098952295871563e+01 -3.689868270957875840e+00 2.712060169507728702e+01
-1.521004824143861178e+01 -3.055079187600497903e+00 2.705796828212926641e+01
-1.614357029458093606e+01 5.628223194534327511e+00 2.123979087260497067e+01
-1.675474382721503375e+01 2.834544236037716214e+00 2.316865163644107994e+01
-1.673769750851077376e+01 3.844610011073102740e+00 2.264294847547713374e+01
-1.679475641279084641e+01 2.112658521866900507e+00 2.379219663269912743e+01
-1.635534195357143616e+01 5.405718654422492442e+00 2.154768618134691138e+01
-1.662403689444963462e+01 -1.277017928340827557e-01 2.646824438460748397e+01
-1.553219362329448394e+01 -2.598561038315132965e+00 2.779305281137272132e+01
-1.596245589356823658e+01 -1.828652550460229564e+00 2.766697334650242368e+01
-1.684329134513314230e+01 5.644891196728251126e-01 2.631160298512364548e+01
-1.698683466868410719e+01 1.365108511703269523e+00 2.529299356757453410e+01
-1.706280076548890534e+01 1.256786600636129680e+00 2.615469559513131159e+01
-3.490564446652924868e+00 9.068919040194696635e+00 2.064442828107050687e+01
-4.571376883749733722e+00 9.731866412023283175e+00 2.090880776936678842e+01
-5.455368402148080165e+00 9.850358767107451285e+00 2.091631742226389790e+01
-1.020410742608527954e+01 9.084840584434193289e+00 2.056913294798941649e+01
-7.579111450915467785e+00 9.597874466573689034e+00 2.074481373022543096e+01
-1.184828913296752617e+01 8.425967603728569344e+00 2.037938929811629762e+01
-1.573980639359371203e+01 6.609993976791173509e+00 2.110863122809466219e+01
-1.544248699619473975e+01 6.805605804388028979e+00 2.089098927067846390e+01
-1.424947496400627145e+01 7.929134859691401971e+00 2.077468664734140802e+01
-1.259381370861862770e+01 8.801318692762405860e+00 2.060485452927003180e+01
-1.510176323060368020e+01 -3.368772914894893056e+00 2.791917595399577934e+01
-1.469332671114493571e+01 7.877753475127819982e+00 2.097957476549689204e+01
-1.703671997152116901e+01 3.564236785284332409e+00 2.357459275326999304e+01
-1.698177176313865999e+01 2.133781977423211629e+00 2.443659985768116272e+01
-1.710892940613602420e+01 1.981373079518991220e+00 2.505720156243462071e+01
-1.585624765196421748e+01 -2.141857736356215014e+00 2.852713485276084526e+01
-1.629807432357205244e+01 -1.152823075701286504e+00 2.752285156898617657e+01
-1.660928454730190396e+01 -3.478040751300757738e-01 2.734769769065361089e+01
-1.692058459167473927e+01 4.569323960204388912e-01 2.717276136380062468e+01
-6.850191542005735990e+00 9.509265360084077301e+00 2.068705632005000439e+01
-8.388487554567202409e+00 1.010963530136130473e+01 2.102767281098643082e+01
-1.090027811873881980e+01 9.312643887020364275e+00 2.072227425767658460e+01
-1.374880195475728506e+01 8.640819383363433914e+00 2.095253787390985423e+01
-1.441220152396505583e+01 -4.324177403495223615e+00 2.718329637840599844e+01
-1.552960223345966995e+01 7.514820467054269315e+00 2.126915858138141147e+01
-1.667509569650785650e+01 5.064866533730664422e+00 2.221289752985235211e+01
-1.679073486468176313e+01 4.731572761155266704e+00 2.251490010724790025e+01
-1.701898382329631687e+01 4.105950621055796113e+00 2.327243999038357458e+01
-1.697858636083877570e+01 4.500527964182686524e+00 2.297102606061452335e+01
-1.705408270315190933e+01 3.022522876493657140e+00 2.387674735571835427e+01
-1.707393984812532750e+01 2.661080752846773922e+00 2.418818851403898051e+01
-1.542584113856333872e+01 -2.911901392853186721e+00 2.865340748535649951e+01
-1.628630536036722631e+01 -1.372420807037419754e+00 2.840075182333371728e+01
-1.659745992515035695e+01 -5.678247706558043895e-01 2.822616950817761250e+01
-1.690897759590016491e+01 2.377018694005828270e-01 2.805136995134141742e+01
-1.713982049509827021e+01 1.148825622289770365e+00 2.701622151343207889e+01
-6.339359802728679938e+00 9.968842735999929872e+00 2.092382767412803446e+01
-1.040123578172994812e+01 9.681666733680117432e+00 2.085777302787505150e+01
-9.789087038398109897e+00 9.971271044097509417e+00 2.097237702753770705e+01
-1.306952263854385876e+01 9.161901629695824667e+00 2.096648237048099972e+01
-1.626513501028758668e+01 6.299126291543019285e+00 2.159325230633336190e+01
-1.668820419382298681e+01 5.853341888288391637e+00 2.220806339812117258e+01
-1.470196734198427713e+01 -4.003165159382988669e+00 2.798161236750312142e+01
-1.694226340582780921e+01 5.194713564222637636e+00 2.281069276727960826e+01
-1.723109602896520087e+01 2.595863820890556450e+00 2.482120352742317948e+01
-1.724296575507994689e+01 2.023817066898541128e+00 2.591416423799598334e+01
-1.736515278124578998e+01 2.638687027100390381e+00 2.567848614405728824e+01
-1.561342720249338001e+01 -2.416310321475676481e+00 2.948295305604733585e+01
-1.722018523046874705e+01 1.041133826057374367e+00 2.787673376263866842e+01
-1.679489417599464218e+01 5.416894237166815229e-02 2.899890857202694150e+01
-5.829489497902414108e+00 1.042755188245370412e+01 2.116016505571812800e+01
-7.068581288351314384e+00 1.005733485371750113e+01 2.098152086386632575e+01
-7.797802789512317645e+00 1.014582078685876354e+01 2.103921336877662895e+01
-9.252818225663659746e+00 1.034906422447092034e+01 2.116636408168786332e+01
-1.148413851067354940e+01 9.019835006160189295e+00 2.062778246627580359e+01
-1.209511625635733090e+01 9.171783388904316325e+00 2.074013258250300495e+01
-1.612396851370227324e+01 7.124753044957714998e+00 2.170438592319957749e+01
-1.431112886416335428e+01 8.508648809933479384e+00 2.109383303246921670e+01
-1.684806301957424068e+01 5.682629294630916483e+00 2.254064609973275779e+01
-1.499548437500000020e+01 -3.681840369230496179e+00 2.877944858461771815e+01
-1.519893153054638901e+01 8.406880423117433665e+00 2.150349846354269445e+01
-1.733586306098791852e+01 3.752627760801990231e+00 2.428260006914898739e+01
-1.735337931283950752e+01 3.210519921874999572e+00 2.458491474301631641e+01
-1.604374972286806411e+01 -1.646367135405731430e+00 2.935508489776071883e+01
-1.648356138951796623e+01 -7.506418416167636165e-01 2.917273387775470539e+01
-1.710622644471717990e+01 8.590160834464296569e-01 2.882491824954796655e+01
-1.739936344974668359e+01 1.806279396234835577e+00 2.763767261320585789e+01
-1.731891081940058186e+01 1.914855721844872072e+00 2.677618560367417189e+01
-1.109731077948065270e+01 9.909293142555592127e+00 2.101083477641499542e+01
-1.159645014781816386e+01 9.540397715720771998e+00 2.087541450641293750e+01
-1.265698787980667817e+01 9.365082840939971121e+00 2.093733387887456843e+01
-1.561690055339818528e+01 8.225670552532861279e+00 2.164814322190259688e+01
-1.731824969396886615e+01 4.294113769985068885e+00 2.398063393973681556e+01
-1.730349680078125374e+01 4.836303515624999605e+00 2.367827495685813588e+01
-1.748731140907872827e+01 3.252922852140150312e+00 2.544277375660549723e+01
-1.749875195047640020e+01 2.681138143265063611e+00 2.653595759804558440e+01
-1.518314964430971514e+01 -3.186254587284027995e+00 2.961075033449948890e+01
-1.668097653355827958e+01 -1.291724089752374627e-01 2.995067801761888049e+01
-1.699228340695140460e+01 6.763392805179342382e-01 2.977497821943514822e+01
-1.739362259344094142e+01 1.755816140489535382e+00 2.857635765827467011e+01
-6.720832127547702761e+00 1.063378992400599188e+01 2.128279950170184165e+01
-1.059824101562499976e+01 1.027811484794174213e+01 2.114624291876496898e+01
-8.016298801625175940e+00 1.069327638507849798e+01 2.133335288895560922e+01
-8.771011010557515419e+00 1.086351771102207486e+01 2.143378993051570447e+01
-1.638665276929370052e+01 6.969770239376435583e+00 2.194658886677294873e+01
-1.354521005084730412e+01 9.523202048202989545e+00 2.132809735692856634e+01
-1.437274540223212682e+01 9.087994016897814831e+00 2.141279797172792954e+01
-1.702126552734374698e+01 6.301232031249999643e+00 2.286883989471398948e+01
-1.711539634394991793e+01 5.812643662689986002e+00 2.313880065859625290e+01
-1.720942990302961206e+01 5.324558682603250936e+00 2.340848757022990512e+01
-1.751943460977492606e+01 3.778619441330115958e+00 2.499916355281905567e+01
-1.537081276711072242e+01 -2.691677090076990631e+00 3.044764771901790823e+01
-1.580101386360451698e+01 -1.921845795286419190e+00 3.032147028920513421e+01
-1.613099898450456848e+01 -1.249655138319028191e+00 3.018214745464638327e+01
-1.006151877412641760e+01 1.065626044327518862e+01 2.134039932846100740e+01
-7.365662060420296697e+00 1.051736843671767119e+01 2.123035186046604039e+01
-1.676488429712800610e+01 6.971167301453489173e+00 2.258469775598807772e+01
-1.487077587407234525e+01 8.798134689716533785e+00 2.152731298998711651e+01
-1.570417148437500110e+01 8.936368042892219421e+00 2.202704219881772829e+01
-1.650836192661641277e+01 7.641471268338086098e+00 2.230049513586950027e+01
-1.610628210074011335e+01 8.288222999449835982e+00 2.216372982344227793e+01
-1.753124775019465176e+01 4.414859263585016791e+00 2.476586614791656515e+01
-1.768257815234535002e+01 3.915309864603346846e+00 2.592554654188476349e+01
-1.762098230318402159e+01 3.295303105166695001e+00 2.630017505299937142e+01
-1.757853194918638806e+01 2.573918931183413861e+00 2.739781028449784017e+01
-1.735156198296073526e+01 1.797378565274625029e+00 2.946087501211598081e+01
-1.621824792837219675e+01 -8.529437657480213320e-01 3.101006640879947085e+01
-1.757282487009875993e+01 2.523567617319588230e+00 2.833774351110887579e+01
-1.117603861448397495e+01 1.061574625684219164e+01 2.142657613588124832e+01
-9.525723355267583514e+00 1.103373707348773003e+01 2.153422696303942985e+01
-1.194810695729917249e+01 1.027318817458609423e+01 2.134823205703358795e+01
-1.219895556129641889e+01 9.663903687978313783e+00 2.103796594232966655e+01
-1.722029952397766905e+01 6.568882125192562427e+00 2.346919205574388911e+01
-1.754490097600581677e+01 5.051397561952723159e+00 2.453299519333698342e+01
-1.768756021491076780e+01 4.346127009395104324e+00 2.541299243039363631e+01
-1.775758093359375067e+01 3.337686718750000114e+00 2.715762789896929874e+01
-1.588811122730491654e+01 -1.525532624493772582e+00 3.114939539703274818e+01
-1.730950164152264037e+01 1.839797097227254596e+00 3.035148658137829969e+01
-1.687832968749999552e+01 4.918432421874999738e-01 3.073174111533229436e+01
-1.654818863702627496e+01 -1.807543968043406057e-01 3.087090782597861249e+01
-1.068857642413029296e+01 1.079738130091670101e+01 2.147436957930426615e+01
-1.015227131411148775e+01 1.117494097826802424e+01 2.166819639844460355e+01
-7.451730194265292262e+00 1.101552560392119240e+01 2.149636086318419714e+01
-1.272017652129872545e+01 9.929089180378268154e+00 2.126989872922803926e+01
-1.709321375605050264e+01 6.977607241302437480e+00 2.326746153342274681e+01
-1.443434369874430345e+01 9.667316516984044483e+00 2.173168014911848900e+01
-1.732617255949077162e+01 6.019740017348929051e+00 2.377285579496327728e+01
-1.743208778376362389e+01 5.471084921133955170e+00 2.407666458773950424e+01
-1.784746206578769545e+01 4.052211758416396137e+00 2.685194253719914670e+01
-1.793733557282530455e+01 4.766676058152352624e+00 2.654628012718648478e+01
-1.575683407036893691e+01 -1.013855987498841538e+00 3.172768232907186814e+01
-1.608664831318133182e+01 -3.415690732422542175e-01 3.158854366784785128e+01
-1.756711802142401524e+01 2.472555703425109996e+00 2.927590182158145282e+01
-1.752503860729660801e+01 2.512635545963702199e+00 3.016154964119710513e+01
-1.709386706014369750e+01 1.165811798753413120e+00 3.054160921057443900e+01
-1.641646289844381457e+01 3.307180199524413777e-01 3.144952672257141657e+01
-1.402043882801605967e+01 9.884839345998123861e+00 2.168936739701613092e+01
-1.530175214131332950e+01 9.372980796815456372e+00 2.203497156681268976e+01
-1.770071818203086877e+01 5.938340281911146157e+00 2.500289929866970340e+01
-1.601251064837591898e+01 9.442236099799220739e+00 2.266470524142334497e+01
-1.653874072668795137e+01 8.346325409102760773e+00 2.271110744527955916e+01
-1.677529135363372959e+01 8.095908651126816125e+00 2.302122794333307354e+01
-1.778605473987636287e+01 5.266268709626920064e+00 2.538684424348720370e+01
-1.775188535165689530e+01 3.287701504677796205e+00 2.809825023306440883e+01
-1.785738463326249104e+01 4.913632651991491684e+00 2.582683990028868593e+01
-1.696453078297818351e+01 1.731927411738932721e+00 3.106905776641244898e+01
-1.674887259627691449e+01 1.058125484064281530e+00 3.125965094572305958e+01
-1.774619212755413145e+01 3.237736983283348025e+00 2.903787132868200871e+01
-9.726709722980658057e+00 1.169328517717293181e+01 2.195741188990450965e+01
-1.175413149064179485e+01 1.095194048224344208e+01 2.170705381716889448e+01
-1.334377856279993146e+01 1.037692471058282528e+01 2.172980384043725621e+01
-1.278337963191186333e+01 1.049333028690651659e+01 2.160254964651000975e+01
-1.741938847701659654e+01 6.836606043023291335e+00 2.406976244788222985e+01
-1.756043606025618686e+01 6.104666841467459193e+00 2.447434141414273512e+01
-1.788938047292080213e+01 3.948366991888026867e+00 2.763454239602617335e+01
-1.806701457712608772e+01 5.069490010980709727e+00 2.764641541933077917e+01
-1.562531100144807183e+01 -5.024829711359148909e-01 3.230469364238645369e+01
-1.718005344913779098e+01 2.405756438674678144e+00 3.087899498769626661e+01
-1.595520296217289591e+01 1.698030749423843078e-01 3.216681161779481357e+01
-1.683506859298192992e+01 2.296734001924718438e+00 3.159692187806282604e+01
-1.661955981819809836e+01 1.623770743747910750e+00 3.178729740458894071e+01
-1.077882022681627383e+01 1.131612070735240394e+01 2.180216503687199392e+01
-1.030282676056799751e+01 1.169916662814233987e+01 2.200387229685832580e+01
-1.231656460657875485e+01 1.078955362577830179e+01 2.170054520392011099e+01
-1.449600204851102170e+01 1.024734653932159745e+01 2.205089481785276462e+01
-1.571089880273348705e+01 9.505661663677066997e+00 2.236835963178988251e+01
-1.802106646214927821e+01 4.558521233283856944e+00 2.811104484104979662e+01
-1.802720898437500097e+01 5.481139843749999407e+00 2.624072058744249247e+01
-1.774050017187499861e+01 3.187783593749999866e+00 2.997403882588898227e+01
-1.739560125303071914e+01 3.079838998254750493e+00 3.068893154909950383e+01
-1.628738172548534635e+01 8.967868552878235366e-01 3.197717254306510526e+01
-1.705060581975807921e+01 2.971691212679603122e+00 3.140659397945765008e+01
-1.284657438786202910e+01 1.105759262070455229e+01 2.193516528195299742e+01
-1.716506400326289139e+01 7.653054777622859461e+00 2.366553775593558484e+01
-1.489902833168585339e+01 9.809918016485463355e+00 2.204292601410259422e+01
-1.396719655189469123e+01 1.070520781134656296e+01 2.212318466706268794e+01
-1.795715004835680517e+01 6.111204643235116585e+00 2.591698257702174857e+01
-1.768873419277846537e+01 6.738001541139445827e+00 2.487192413539617064e+01
-1.656903900798664608e+01 9.049300280645759642e+00 2.312064734576200209e+01
-1.789953139818762651e+01 3.969594225535237886e+00 2.872265730460246047e+01
-1.811296252558819475e+01 5.580458369848438238e+00 2.718187783288718506e+01
-1.549409187186754977e+01 8.940897052389498723e-03 3.288035771919070527e+01
-1.153630274602535799e+01 1.173450329815166882e+01 2.215492025834242185e+01
-1.031060299026989568e+01 1.208300548655872930e+01 2.224203873316663049e+01
-1.233163765255008570e+01 1.128633314109765884e+01 2.198724663427034898e+01
-1.343859802878475485e+01 1.116325392149089879e+01 2.219544673297407300e+01
-1.788709126985887465e+01 6.741270469086029671e+00 2.559327746518605551e+01
-1.571763025262548830e+01 1.007523353979383174e+01 2.270989717448619416e+01
-1.704185214131570092e+01 8.549718798088461469e+00 2.374099042509811142e+01
-1.815270781743362249e+01 5.168468484600878377e+00 2.858745204647062721e+01
-1.787650457225230483e+01 3.835637382722140387e+00 2.974903333720615706e+01
-1.615819540617306771e+01 1.463279999776604612e+00 3.250225328855518114e+01
-1.582609520753706533e+01 7.363660167491834496e-01 3.269152527524390450e+01
-1.649021880426385067e+01 2.187915324176275433e+00 3.231276709567274708e+01
-1.670560468054257086e+01 2.861945364503188483e+00 3.212384918430577585e+01
-1.732317087396059208e+01 3.682014328529038760e+00 3.117652752917197390e+01
-1.086904518061190217e+01 1.183475128138377386e+01 2.212989297047708703e+01
-1.490977969247598800e+01 1.075978842737348806e+01 2.261220756447565350e+01
-1.761830309741350220e+01 7.104096082200563878e+00 2.466989197253742816e+01
-1.742761526694612684e+01 7.716143429866744619e+00 2.436665902942911899e+01
-1.766812428215000708e+01 3.790599534575960217e+00 3.045968341311144201e+01
-1.810234026112370032e+01 6.146789242935445152e+00 2.668642207464149863e+01
-1.632088777219582454e+01 9.949510033333542225e+00 2.330244273988670756e+01
-1.803727981156053062e+01 4.617256747681073747e+00 2.883744603805646634e+01
-1.819871531391762076e+01 5.679776756973173413e+00 2.812307587187917335e+01
-1.697812645305952017e+01 3.573785333755563176e+00 3.189351172052232286e+01
-1.536446094103685667e+01 5.749949591955194617e-01 3.340570764431235773e+01
-1.290975976562500094e+01 1.162185823171235377e+01 2.226773914233795537e+01
-1.401785331955752234e+01 1.118917105387654765e+01 2.245328219918631163e+01
-1.228955850442074116e+01 1.203940473652990306e+01 2.244052429652398573e+01
-1.723689413228381184e+01 8.328305964113164706e+00 2.406349978733722139e+01
-1.449551089962345607e+01 1.079841343649567342e+01 2.240248091808488695e+01
-1.687647088031809872e+01 9.289718815338252611e+00 2.380833191671232640e+01
-1.806983382506610525e+01 6.958900817079779699e+00 2.657477456467539056e+01
-1.781703164512846271e+01 7.371335454082863947e+00 2.526960541105567515e+01
-1.659937719362614317e+01 9.753207895485687118e+00 2.353075448537051528e+01
-1.801243253746033801e+01 4.483127068224369793e+00 2.952164119095032646e+01
-1.820062195073003863e+01 6.357094809709521677e+00 2.770230834322928715e+01
-1.780413520741991817e+01 4.437900118011936179e+00 3.023331912551308776e+01
-1.725074210196456193e+01 4.284191229621137964e+00 3.166220166748405163e+01
-1.663312245115636756e+01 3.464906911279831636e+00 3.260825513199876724e+01
-1.569698646476319404e+01 1.302930363862104368e+00 3.321624128065761283e+01
-1.602901085213838073e+01 2.027396615727599993e+00 3.302706176894416501e+01
-1.095934134104287239e+01 1.235379067096003602e+01 2.245787999645219912e+01
-1.390039386129330445e+01 1.165794724455736997e+01 2.270370794842903450e+01
-1.330576968403354421e+01 1.196681266360567797e+01 2.265326161272334105e+01
-1.764769178724386478e+01 7.915373522833856867e+00 2.500032848432323718e+01
-1.747834784142183295e+01 8.459425695617740715e+00 2.473119010063334855e+01
-1.759583752962698000e+01 4.392672363935389512e+00 3.094748332054647832e+01
-1.817747125964108434e+01 6.812438628737604418e+00 2.713295907308813071e+01
-1.798726579171663076e+01 7.628802734684175135e+00 2.618819698143698105e+01
-1.606311535099799315e+01 1.036421369088941624e+01 2.326091433427989941e+01
-1.814844550735346829e+01 5.131021674722224368e+00 2.929317379074370820e+01
-1.794014468790692618e+01 5.085643225262242773e+00 3.000651342122449705e+01
-1.828450446149803099e+01 5.779135836814927707e+00 2.906483016215813464e+01
-1.636073281250000022e+01 2.752907814658149377e+00 3.283805422265624685e+01
-1.690564687488943463e+01 4.175708119018488595e+00 3.237652582710151705e+01
-1.166956782931992898e+01 1.245786580619899730e+01 2.261324785191173348e+01
-1.040090659789701810e+01 1.260210900257230549e+01 2.257006611882108160e+01
-1.449501956710768091e+01 1.134961883649714665e+01 2.275415038320111805e+01
-1.289902021355204731e+01 1.212646171978671461e+01 2.263062240371471390e+01
-1.730878782470338351e+01 9.004167822908422991e+00 2.446181860199543223e+01
-1.572437281863440184e+01 1.064584077727058897e+01 2.305202098077878148e+01
-1.767434056283063626e+01 8.605197298901856584e+00 2.544123730212051981e+01
-1.590518022671047760e+01 2.594126136931535598e+00 3.356592675585374508e+01
-1.557316926238918953e+01 1.868282390998794673e+00 3.375524021340068259e+01
-1.752351941535645352e+01 4.995003438707892762e+00 3.142904126588836178e+01
-1.524092685584730233e+01 1.143761644555845169e+00 3.394475706010121030e+01
-1.662973303784796286e+01 1.045755707772826604e+01 2.394114433463771263e+01
-1.807629111376872899e+01 5.733672551297592790e+00 2.977819122144244446e+01
-1.717837713814242662e+01 4.886299614678212500e+00 3.214410185215543692e+01
-1.626933883130092084e+01 3.366815785069601663e+00 3.333804212788398047e+01
-1.532383435073972677e+01 1.127299218959898930e+01 2.317390159313581321e+01
-1.784368295312499697e+01 8.061152441406250091e+00 2.571075982562936346e+01
-1.685587373830530922e+01 9.973547105023126136e+00 2.411441668139415384e+01
-1.708231076988725761e+01 9.488900856598361244e+00 2.428801427639043808e+01
-1.773181673469723663e+01 5.040281698509174291e+00 3.071861843219959098e+01
-1.654174642862037814e+01 4.079648160205726626e+00 3.310679316088354796e+01
-1.681431642812298222e+01 4.789535649500058945e+00 3.287467424948992800e+01
-1.831332532800806590e+01 7.355614534884918676e+00 2.837096207108884727e+01
-1.511702374450548092e+01 1.709227368322602691e+00 3.448397633317870259e+01
-1.815749980984586642e+01 7.886270312190822196e+00 2.710661693398129302e+01
-1.825260192716215002e+01 7.478087801523702005e+00 2.757869785285870634e+01
-1.829891707407636403e+01 6.567490933764365657e+00 2.871835537955081463e+01
-1.104965913755931695e+01 1.287295294295118886e+01 2.278594504443619684e+01
-1.449452890861755350e+01 1.190136433002933636e+01 2.310615933082679518e+01
-1.370177589097670179e+01 1.231220056379833316e+01 2.303878578439290692e+01
-1.227180526082607059e+01 1.288005090846864853e+01 2.304521193274167956e+01
-1.498215671177495167e+01 1.163704924539321439e+01 2.321315682610127595e+01
-1.746263742881623315e+01 9.286028058345161540e+00 2.510495697423897354e+01
-1.729746977183038936e+01 9.699752969569320982e+00 2.491654560855392120e+01
-1.800545011381929328e+01 8.592198675789157747e+00 2.671515400541548146e+01
-1.581359735499388286e+01 3.207653817250920358e+00 3.406646023520789157e+01
-1.765949896377405537e+01 5.642663055260694449e+00 3.119873181592325295e+01
-1.786785597773194212e+01 5.688158777288702339e+00 3.049128874435745118e+01
-1.544935218839125923e+01 2.435305252731085002e+00 3.429441573361953743e+01
-1.478487013528629390e+01 9.841540923086535830e-01 3.467326815666383766e+01
-1.618380274190620938e+01 1.112204307078970622e+01 2.383832680027953543e+01
-1.827223008807930427e+01 6.404451089964389610e+00 2.953694168235415773e+01
-1.288828025849051784e+01 1.263115278900586880e+01 2.299356349196892779e+01
-1.787033387500000359e+01 8.750969335937499594e+00 2.615246359758758388e+01
-1.774334767076325292e+01 9.159313412213750283e+00 2.595015562639107998e+01
-1.704277364334567224e+01 1.024471238767530856e+01 2.472092522774893908e+01
-1.645048076852882701e+01 4.693095705724032563e+00 3.360472009625598133e+01
-1.617784535291770709e+01 3.983064628581102440e+00 3.383698288772490770e+01
-1.745121999609375152e+01 5.597184374999999434e+00 3.191221643925452511e+01
-1.708682472790972895e+01 5.500200200926588678e+00 3.264332763526180514e+01
