4.544291081698622614e-01 -9.924601294805414753e+00 3.423224176686324682e+01
1.230663664465478035e+00 -1.023773672670833079e+01 3.414968979437271202e+01
8.302447673359774072e+00 -8.035247611662320821e+00 2.480097584566262015e+01
6.773721278487135677e+00 -1.018649356514283610e+01 2.695432681936195252e+01
7.071195523564253627e+00 -9.691044153611061418e+00 2.617311680111552619e+01
8.706473528384735872e+00 -7.547631728811319718e+00 2.458130449081861357e+01
9.211863244612665369e+00 -5.382548918667350968e+00 2.361214348242917538e+01
9.278976446530949218e+00 -5.929011640913608439e+00 2.387178613690786122e+01
9.838780131387812489e+00 -4.268433366877250279e+00 2.376587513219032743e+01
3.837817978470640767e+00 -1.152873848778489041e+01 3.119287529530756942e+01
5.615630632897833152e+00 -1.110323175080872815e+01 2.851434699865257016e+01
4.140837934682404686e+00 -1.160435106371149772e+01 3.040084037280279716e+01
4.366087756712685675e+00 -1.162834241245321465e+01 3.021992680570181022e+01
6.260721516236866790e+00 -1.043027047141246122e+01 2.720480191551820681e+01
1.746364275930135879e+00 -1.073774585243271318e+01 3.310407323718803951e+01
2.351059402146150834e+00 -1.106850501994911085e+01 3.242277754549165536e+01
7.355825839601211058e+00 -1.004699864575476909e+01 2.693947907813368658e+01
7.629445070653782857e+00 -9.652100579804960390e+00 2.640441682788083710e+01
7.852977478669004974e+00 -9.343537898148742471e+00 2.609404117456489303e+01
8.940766275131551311e+00 -7.322331240286142240e+00 2.452537231553334962e+01
9.784086476820215594e+00 -4.653729317417973022e+00 2.379815863147968713e+01
9.695401346112427987e+00 -6.177905625000000178e+00 2.427872317401473268e+01
1.009128517583551066e+01 -3.317820519775549037e+00 2.385030779471684070e+01
1.000472383664807019e+01 -3.846843168731626239e+00 2.385593990676334641e+01
3.186435175202315673e+00 -1.135915222703777694e+01 3.177554552665860399e+01
5.401290786942455568e+00 -1.139568216370773612e+01 2.923902412707107956e+01
6.134670239717747720e+00 -1.078075198800257084e+01 2.783680422145571143e+01
5.136664248811741551e+00 -1.157646470461638977e+01 2.999402331215686246e+01
1.622225835904863800e+00 -1.057424284212670251e+01 3.356919787809118105e+01
1.537086663765443673e+00 -1.046129881559883756e+01 3.387480232424902482e+01
8.076518504043782798e+00 -9.034976907169603777e+00 2.578379973711723139e+01
8.390091286834167050e+00 -8.549850278757110900e+00 2.534308653901151587e+01
9.601906935438313084e+00 -5.564971112883124960e+00 2.397405420700151524e+01
9.420931091517058320e+00 -7.004133579115854324e+00 2.464960612436619058e+01
3.762609340642383504e+00 -1.144869901539617807e+01 3.184638513122746772e+01
2.874952448007158434e+00 -1.121702471644553256e+01 3.237666763036937567e+01
3.131662126847148730e+00 -1.132196592745847497e+01 3.209828455572520767e+01
6.200132748640556635e+00 -1.097445571126929487e+01 2.840593499572132430e+01
4.852032428960655785e+00 -1.166011422397722974e+01 3.056796049893587153e+01
4.401234944599558219e+00 -1.161213102553703536e+01 3.092995579002425188e+01
9.479191972119559439e-01 -9.974413414092813568e+00 3.458818032111062735e+01
2.381552569799255004e+00 -1.097186380022735364e+01 3.299945480257457575e+01
8.929231076437432080e+00 -7.899881920948463865e+00 2.505037397107229324e+01
7.055676038595660948e+00 -1.038162147248889333e+01 2.746289969582073454e+01
1.015346547363536622e+01 -4.967546761232028096e+00 2.423176213949036040e+01
9.901365684142723111e+00 -6.686062648448103829e+00 2.477400808485278105e+01
1.029387459108817637e+01 -5.886262712927393004e+00 2.468907457786387383e+01
1.052290172518332234e+01 -5.281354293137179745e+00 2.466537676194870699e+01
1.026293681912353506e+01 -4.197063660671363827e+00 2.416719623774501713e+01
1.038910131016375793e+01 -3.721896698324574260e+00 2.420929263708094581e+01
6.265697874139527279e+00 -1.116836632052806877e+01 2.897578262244512004e+01
6.609679225358344290e+00 -1.087747905930797465e+01 2.827237598369410065e+01
2.215913251241750981e+00 -1.075386697958606064e+01 3.361953596990061044e+01
5.452126177347876856e-01 -9.722818322353385057e+00 3.487498484062614068e+01
2.045512407346363304e+00 -1.052787937911276828e+01 3.423083807784080079e+01
1.432513059148817769e+00 -1.008065878519681213e+01 3.478082124601966996e+01
3.139263793351775966e+00 -1.116505744686899426e+01 3.304847277289354679e+01
8.071346568309088809e+00 -9.870483450621691190e+00 2.701769759465561904e+01
8.187937910524045293e+00 -9.613170699871128377e+00 2.663621447307150447e+01
8.411726708170444766e+00 -9.304736821608722508e+00 2.632633829108810986e+01
1.009273470389953964e+01 -6.377096259695731462e+00 2.471668892076734281e+01
1.038393235778547918e+01 -3.152176742268343101e+00 2.425348006052103855e+01
4.376170623091367062e+00 -1.157824554624523827e+01 3.159067523661498100e+01
3.653164455386973319e+00 -1.137429540166147746e+01 3.249215162460831152e+01
6.755527217968299247e+00 -1.071624328964935025e+01 2.798633483866046490e+01
5.898902986935605774e+00 -1.147604297892397440e+01 2.967755382891017746e+01
1.953779785008296077e+00 -1.029038289753477819e+01 3.476820769812104572e+01
8.646828848916916499e+00 -8.940803696210299023e+00 2.599563812880187541e+01
9.151900248815040939e+00 -8.251909384757807331e+00 2.551915820169672244e+01
7.777796635352420829e+00 -1.020549129460898818e+01 2.743862023148723139e+01
9.397935277688041822e+00 -7.449102043386567118e+00 2.493831725891462625e+01
9.453893050824266453e+00 -7.878841174850796492e+00 2.537066098523622770e+01
1.010737387592369352e+01 -7.194591423296691879e+00 2.526944564333163257e+01
1.078980963720477426e+01 -4.860186313792839385e+00 2.483372524216829547e+01
1.075364963030133936e+01 -3.372564749868308454e+00 2.472421868111127807e+01
4.657562454808362062e+00 -1.161991163203512123e+01 3.145902510422642706e+01
4.338333771467144828e+00 -1.153820082835616923e+01 3.191719370744760198e+01
6.331326165436697018e+00 -1.136236641667345815e+01 2.954595960138668786e+01
5.338153921503613120e+00 -1.169189133887581988e+01 3.091605130358373188e+01
1.089854618424201504e+00 -9.823260699670276708e+00 3.514339693778214979e+01
2.892933536394015626e+00 -1.104261069640026882e+01 3.336014968598072983e+01
8.881950578387669992e+00 -8.576874106777726325e+00 2.566525257899054324e+01
7.376997777390061017e+00 -1.065170550248070924e+01 2.813625498395551006e+01
9.855627316283726458e+00 -7.575997036111246530e+00 2.535158843884540758e+01
1.049001810528752188e+01 -6.576102737953842592e+00 2.515449284710985367e+01
1.089276713997535140e+01 -5.595470991847825815e+00 2.509943833383147549e+01
1.068697023388279987e+01 -4.126007757973127354e+00 2.456830772972417520e+01
4.913834403931862660e+00 -1.162769244566813498e+01 3.198799727874162357e+01
7.084967534537751632e+00 -1.097421376677788096e+01 2.870817527724023321e+01
5.766366492077048100e+00 -1.156644380894318047e+01 3.005516406620937531e+01
6.886125906263730556e+00 -1.125549851239134291e+01 2.943424139010481255e+01
5.795222221369654925e+00 -1.164505539329869244e+01 3.065967361452256768e+01
2.595291605826686165e+00 -1.073875819330701198e+01 3.411777853416903383e+01
1.634240737046473768e+00 -9.923652732522990405e+00 3.541168895246625681e+01
1.053139932195809259e+00 -9.668674625625383712e+00 3.548034574099123262e+01
2.809878210102563223e+00 -1.093358611482502063e+01 3.366993049083249900e+01
9.374629486337218154e+00 -8.603948367397357799e+00 2.598796660187057483e+01
8.746772127219323067e+00 -9.574246153695961326e+00 2.686839656102011631e+01
9.060650869581287736e+00 -9.089150616559800611e+00 2.642799045937467284e+01
4.544231463120124381e+00 -1.152713468853314005e+01 3.243699075004617072e+01
3.789111747096813421e+00 -1.126995958381659158e+01 3.330313250097005806e+01
5.299861317117394499e+00 -1.167091737795706052e+01 3.157410919220815515e+01
6.397014564246918056e+00 -1.155644337972012714e+01 3.011640559490978930e+01
4.719534552678136263e-01 -9.413629177982558716e+00 3.554906265726747705e+01
3.403596875000000299e+00 -1.111324108504420849e+01 3.372033947689349986e+01
1.100924443289116361e+01 -4.075147562551306279e+00 2.502068536961749601e+01
8.199769131792479016e+00 -1.036391502353014360e+01 2.793769384846523707e+01
8.705292528553604470e+00 -9.890155914803399284e+00 2.739103054188658248e+01
8.265606677903106103e+00 -1.008188831347687753e+01 2.748638148644216272e+01
9.844008922052438493e+00 -8.153252907715550890e+00 2.587613159765006188e+01
1.031328354110512180e+01 -7.702871217606706900e+00 2.576468764628418739e+01
1.131791494548894406e+01 -4.657354315301162728e+00 2.541643927583087148e+01
1.102387809432008403e+01 -6.055411430807657425e+00 2.541025613906035119e+01
4.174628011376739778e+00 -1.142662510647532592e+01 3.288600192935712130e+01
7.560580164673116776e+00 -1.107097112553523210e+01 2.914420252554826618e+01
5.824435202223711805e+00 -1.172367429967323993e+01 3.126419284519089459e+01
3.185543896845610679e+00 -1.083555477356658869e+01 3.446128028298835488e+01
1.109923759226683160e+01 -3.603076590417983560e+00 2.518535387936473313e+01
1.109822043595096375e+01 -3.070348849792086554e+00 2.522856211040486585e+01
1.100231150144496794e+01 -4.391586637133735316e+00 2.499221633211682558e+01
7.999863294367273170e+00 -1.058705588930587282e+01 2.828673333718185035e+01
1.088822507717912913e+01 -6.775521910039776330e+00 2.559321194231572250e+01
1.142133537776422791e+01 -5.392095562220458049e+00 2.568268590881630331e+01
1.124291782259609818e+01 -5.818106785268756909e+00 2.553797337249510946e+01
5.511927808982733268e+00 -1.167550160935387105e+01 3.206813111722917853e+01
5.188677324203043284e+00 -1.161299262548184785e+01 3.268091090383827435e+01
4.696136162751045617e+00 -1.147924158795283667e+01 3.327990245438027728e+01
3.987104757251097809e+00 -1.123104971378068484e+01 3.380697089671403432e+01
7.044621027457516504e+00 -1.150771078934387681e+01 3.020061524687907806e+01
7.628982214101714732e+00 -1.082805709741839451e+01 2.864230971219489774e+01
7.389868837921354405e+00 -1.129109462671616804e+01 2.970724514086790435e+01
6.221228478211796364e+00 -1.167287706858733998e+01 3.096436305461669392e+01
9.689768467734795721e+00 -8.889329326845572865e+00 2.653142681350957943e+01
9.270827396852997282e+00 -9.536423396824764254e+00 2.711843724782993448e+01
9.115160127795125078e+00 -9.707486943200713370e+00 2.728779851050998673e+01
1.079964117708666649e+01 -7.339119626921637440e+00 2.589790792543798048e+01
9.815133539125008966e+00 -8.664675080489571357e+00 2.635172913047447452e+01
1.133178349731373302e+01 -4.024311187191106143e+00 2.547336076846845287e+01
5.451272027223374117e+00 -1.166745261098030362e+01 3.239895494274983179e+01
6.871746012441975360e+00 -1.161489182094123507e+01 3.049117043219252920e+01
3.903193327140106916e+00 -1.115754805282295870e+01 3.410784568189517785e+01
3.629401085623547019e+00 -1.100704860675141994e+01 3.436565956895807261e+01
8.036524121081640715e+00 -1.116775802194826639e+01 2.958044488699094288e+01
1.137642679081378461e+01 -3.521939798979643932e+00 2.557747107427486455e+01
1.000547804915546735e+01 -9.175141670764043411e+00 2.707572052030679544e+01
8.663810002909599461e+00 -1.020614232319841008e+01 2.791385316703965458e+01
8.098771587669645555e+00 -1.082974274797394898e+01 2.886667822868535538e+01
8.622288016825093493e+00 -1.052247888185786096e+01 2.843729865309045834e+01
1.058814744863915536e+01 -8.084243860233806700e+00 2.632420021859398318e+01
1.115481493638884203e+01 -6.514802798537213668e+00 2.572066980265125480e+01
1.163372757715629646e+01 -4.923266953142691804e+00 2.584090563450472189e+01
6.310861351526284579e+00 -1.175546369609264552e+01 3.161237572367843285e+01
6.618743703933553491e+00 -1.162210364251692063e+01 3.066454043130744367e+01
4.570469761294445377e+00 -1.134884173311795053e+01 3.389363166972177055e+01
1.165460917264736729e+01 -3.973493614458689205e+00 2.592636914829379435e+01
9.484225195035385525e+00 -9.840937035511590381e+00 2.770785659821853386e+01
9.061324759555390074e+00 -9.987620025452853767e+00 2.774241213641774095e+01
9.796156511952419876e+00 -9.498549599260272203e+00 2.736912749047154136e+01
1.072825586218756300e+01 -7.808367345663707049e+00 2.616458030263815360e+01
1.128574446428571321e+01 -6.974549999999999805e+00 2.603107606241882976e+01
1.159292534253439122e+01 -6.040602268099045880e+00 2.597630624570314950e+01
1.180226102332184723e+01 -4.581759459642998245e+00 2.609606445741303204e+01
6.840483681983403841e+00 -1.168775734670244226e+01 3.121263314544037470e+01
5.217198935953073935e+00 -1.153200811113866031e+01 3.367347915584491602e+01
6.100931458620662440e+00 -1.172332689299441810e+01 3.214830355519015370e+01
5.988468901427839164e+00 -1.170719949442280772e+01 3.280977302469396051e+01
5.463576974670965036e+00 -1.159829437928071449e+01 3.337396665318497213e+01
7.692535470781757034e+00 -1.145898594596801701e+01 3.028491474002536066e+01
7.346522624198026818e+00 -1.167335504978549565e+01 3.086599508349904397e+01
1.158578827151159274e+01 -2.711010619149020417e+00 2.587358266218044633e+01
1.025612327163450921e+01 -8.725472409930993933e+00 2.671577510492967278e+01
1.032105473849689581e+01 -9.460751521181309798e+00 2.761963390756877246e+01
9.297412377182350696e+00 -1.017751553734853331e+01 2.819109712977004634e+01
1.194974045731323997e+01 -5.189317360213653529e+00 2.626560377122181933e+01
1.188706773155410268e+01 -3.583058174305676413e+00 2.624017576241681837e+01
8.341179072967998209e+00 -1.141023314481492967e+01 3.036936460005102845e+01
8.744668704877030407e+00 -1.080214676412515118e+01 2.910946282157377851e+01
1.173642794717993354e+01 -3.147026257364222701e+00 2.605686074892464532e+01
9.853075348382001053e+00 -9.974279789462109136e+00 2.812756516145135777e+01
9.277835623017534061e+00 -1.042869775961603374e+01 2.861355004816020298e+01
1.151481124414353374e+01 -7.359533430146294464e+00 2.647512030692599083e+01
1.199847798043521330e+01 -4.096190067143909985e+00 2.636224754062619979e+01
6.797416275178256306e+00 -1.178726039383071189e+01 3.196059440335293544e+01
7.821286842899992209e+00 -1.173182844770134459e+01 3.124082868032119009e+01
8.513323147546097758e+00 -1.126468513078501665e+01 3.001737244138105254e+01
1.069696765250785297e+01 -8.786259214291963104e+00 2.707959125450979698e+01
1.086306048434583360e+01 -8.465579885822730688e+00 2.688373192947548063e+01
1.072970918689529363e+01 -9.153810757804606624e+00 2.753146683220564839e+01
9.055624151769695374e+00 -1.061076373701217435e+01 2.883847673389166033e+01
1.114306794722099525e+01 -7.913838779942103940e+00 2.656421516763356649e+01
1.212136830678432098e+01 -5.837882749076986677e+00 2.655936969205962939e+01
1.211282201908280243e+01 -4.569561548948354535e+00 2.649361662473427614e+01
1.178925425464551857e+01 -6.729446076231321960e+00 2.644189212870761807e+01
1.194291637218558755e+01 -6.263036944857270250e+00 2.641459241703339345e+01
6.691896738731457184e+00 -1.177118119318881462e+01 3.222853962925056948e+01
7.062263829147481076e+00 -1.175341107859497569e+01 3.176073461849037471e+01
8.402479631645018543e+00 -1.157100256007969463e+01 3.092713561886670348e+01
8.867142203996369432e+00 -1.108178646631712994e+01 2.978156387786388848e+01
1.196866255614249752e+01 -2.756877063817388507e+00 2.637049200504538149e+01
1.045602885598515641e+01 -9.850833132873885845e+00 2.829320114106506878e+01
1.170675084296157742e+01 -7.151307457351483876e+00 2.652053442914728620e+01
1.233784455405358571e+01 -5.379217279406740992e+00 2.676830957393444166e+01
1.229261736761608148e+01 -6.485234561138250697e+00 2.685248658455781978e+01
1.223102448906732853e+01 -3.705852148242108068e+00 2.667619884004982822e+01
1.179068344864188411e+01 -2.311741942923628557e+00 2.616894358594691283e+01
1.211950989094289710e+01 -3.192789096353692901e+00 2.655402097636389769e+01
7.552438069894511941e+00 -1.177542449100598354e+01 3.177481589737880441e+01
8.989756388974663892e+00 -1.136150908718630426e+01 3.045386531380751904e+01
1.073882343345973034e+01 -9.546078575848611081e+00 2.800809260494548170e+01
1.022202163253599672e+01 -1.010762742023425531e+01 2.854727862086783574e+01
9.489626601854855181e+00 -1.069917676482944380e+01 2.924022129217384958e+01
9.934211269263158783e+00 -1.033484729575692285e+01 2.879015043016066144e+01
1.113819057460140804e+01 -8.847111758296147599e+00 2.744361506006534768e+01
1.174406550958133444e+01 -7.742349860536145378e+00 2.691956697003974242e+01
1.234253796504507150e+01 -4.218948758922811848e+00 2.679838591808766068e+01
1.231007295516856637e+01 -4.947348119495435625e+00 2.673403836796908806e+01
7.284089882401515226e+00 -1.181906475588146677e+01 3.230884059622338356e+01
8.296060605394385945e+00 -1.179031691190859554e+01 3.161567973093250572e+01
9.394991396457628596e+00 -1.093459975255693450e+01 2.971131963691687261e+01
1.155595726337554474e+01 -8.485607579090993724e+00 2.740350141572156062e+01
1.155830759374856775e+01 -8.019445643369380150e+00 2.696416466296912873e+01
1.272594008010774225e+01 -5.569098890894573550e+00 2.727099087593323645e+01
1.212918650802778586e+01 -2.316900062103652402e+00 2.661071931098469179e+01
9.172576439171567841e+00 -1.151268596552577250e+01 3.102592508395729354e+01
8.778945267587017653e+00 -1.166922003672051034e+01 3.139668534243099884e+01
1.142301404403357701e+01 -9.165442383987967290e+00 2.802018466895697912e+01
1.059104988403787218e+01 -1.024097880578668729e+01 2.896698827293757361e+01
1.115699187129849257e+01 -9.631487372694154558e+00 2.839686198355904878e+01
1.212764189715256968e+01 -7.327995433173840389e+00 2.700980174130966560e+01
1.267036300454938313e+01 -4.705522405520114582e+00 2.720239066224075586e+01
1.257825973768405170e+01 -3.357446542132175082e+00 2.713557111213481932e+01
1.249276465116584411e+01 -3.844618878155984021e+00 2.700616908573419295e+01
1.235186045414159750e+01 -2.802807950507403945e+00 2.686779654376406867e+01
1.190637316317804917e+01 -1.830685201718846633e+00 2.635348049392221270e+01
8.770874844492755784e+00 -1.184882649310886293e+01 3.199056320474478454e+01
1.160293018864628500e+01 -8.918927293510368060e+00 2.787116136541591871e+01
1.025692390496124418e+01 -1.051420014034235706e+01 2.930400225205389120e+01
9.922847399410157365e+00 -1.078742621023697446e+01 2.964119285488781941e+01
1.268659288542533758e+01 -4.341701131712016881e+00 2.723453220597954783e+01
1.197306562982352318e+01 -8.124969705882353566e+00 2.736355893437533027e+01
1.269533933542185977e+01 -6.306037515958699657e+00 2.732654910225297940e+01
1.242068404732744824e+01 -6.994266383615482141e+00 2.717584062177285986e+01
9.518616167948579232e+00 -1.141729547875713102e+01 3.088111944038113776e+01
9.735430394937818477e+00 -1.103579643259634580e+01 3.009623201533553782e+01
1.222946705927603617e+01 -8.377486017493758652e+00 2.781151898402240619e+01
1.170782079822970623e+01 -9.483725710694194788e+00 2.859675716195861384e+01
1.206760780842179059e+01 -8.990740341460131901e+00 2.829859879345523055e+01
1.266151626241987138e+01 -6.683357731774812294e+00 2.733702926142604994e+01
1.273969545749390342e+01 -2.805988625881294496e+00 2.732045673062807012e+01
1.280422897959775241e+01 -3.911041518367137204e+00 2.740283787512072067e+01
1.290034807946333117e+01 -3.307088375929283064e+00 2.751114168583234232e+01
1.226361220388988826e+01 -1.833773836131737722e+00 2.676887301942370456e+01
1.263375579482597288e+01 -2.258892644190770849e+00 2.719765199083686014e+01
9.355238524520736121e+00 -1.166374133568873717e+01 3.159744187847796226e+01
9.548036893738716557e+00 -1.128416655495648691e+01 3.055133022201762572e+01
1.129151669892920928e+01 -1.002165172175812913e+01 2.907020212540415116e+01
1.080168841094283749e+01 -1.051142190898660367e+01 2.959274519129599312e+01
1.035615363917576914e+01 -1.087569133221488826e+01 3.004219499719432562e+01
1.157490229350698918e+01 -9.716844217708159093e+00 2.878533203140331764e+01
1.254880097738977618e+01 -7.504775000000000418e+00 2.749932489952502479e+01
1.318691132145472622e+01 -4.958806055694759074e+00 2.787141234653839561e+01
1.311337024903467707e+01 -5.758639356191279646e+00 2.777279634866243896e+01
1.106935144258328130e+01 -1.031364680842123072e+01 2.939637198985414557e+01
1.238750765112852648e+01 -8.171358959982322645e+00 2.779187180176896987e+01
1.248562568324796196e+01 -8.629779640955096198e+00 2.825904258210227127e+01
1.309800160243597844e+01 -6.127001633964883176e+00 2.780050016725904882e+01
1.303002723204565605e+01 -4.464229747986774299e+00 2.766990318066226351e+01
1.303054063975877597e+01 -6.881507285981439459e+00 2.782172014368496704e+01
1.312693786369824522e+01 -2.809171127554750402e+00 2.777248479362081213e+01
1.323575709572504877e+01 -3.430968659059733916e+00 2.790340585336747736e+01
1.253121469871170746e+01 -1.388341999856539388e+00 2.708184601090624000e+01
1.010680481432502908e+01 -1.120677667691804835e+01 3.064895899924679412e+01
1.004790034511196417e+01 -1.147315237483487316e+01 3.130875602092868348e+01
1.101234448264037091e+01 -1.078187475363957937e+01 3.021855588607335008e+01
1.253258838415952603e+01 -9.062604870455286843e+00 2.872626118479702839e+01
1.280199048618503710e+01 -8.217798614800383206e+00 2.822018485905531904e+01
1.290990686991246505e+01 -7.774200460341625707e+00 2.802556184610707746e+01
1.199283076631259526e+01 -9.802206697459585172e+00 2.917376164946118422e+01
1.295561570666439799e+01 -7.428708778445341387e+00 2.793018916169398835e+01
1.334379419839144099e+01 -5.453424878797777708e+00 2.807291996597228945e+01
1.315719514737586060e+01 -2.329675006306985541e+00 2.780861054680930877e+01
1.334457569016106682e+01 -4.052791139469995585e+00 2.803434787912489412e+01
1.291519457159389894e+01 -1.715912707719170704e+00 2.752712171960087417e+01
1.078952060427526050e+01 -1.096396645941040049e+01 3.044320065492562222e+01
1.154828253639352731e+01 -1.038643247405545544e+01 2.982629259988589254e+01
1.249498338047311741e+01 -9.468669146418235982e+00 2.916395456593604152e+01
1.274184853898064596e+01 -8.882139665182975818e+00 2.870666609200995723e+01
1.356310288115218832e+01 -5.013255654937013084e+00 2.831748356952811463e+01
1.340620202866927890e+01 -4.518696906895040222e+00 2.811595353922687224e+01
1.350067712970711220e+01 -5.948103295051966555e+00 2.827442766595939005e+01
1.287782554267929669e+01 -1.135098080400696929e+00 2.748604121177482895e+01
1.066504190137736785e+01 -1.112948319550193865e+01 3.074657857153501794e+01
1.336215291249668624e+01 -7.352840643700039536e+00 2.836074756466533486e+01
1.327083101597053627e+01 -8.043371333720832794e+00 2.855155901703181698e+01
1.339951420837015839e+01 -7.079570071394580388e+00 2.830632664338411431e+01
1.363481277581340301e+01 -6.612575197158420792e+00 2.853292424107495862e+01
1.351403345505127973e+01 -2.812360089525270279e+00 2.822439717375591428e+01
1.365916440579524505e+01 -3.641365674473989511e+00 2.839895843156003252e+01
1.339906787076387573e+01 -1.720395708992647821e+00 2.809211458361037472e+01
1.319640666408529484e+01 -1.173425076957542057e+00 2.785647461649068291e+01
1.090014695866409333e+01 -1.129065549473165575e+01 3.129034549887980532e+01
1.202656471360902479e+01 -1.045914426389854412e+01 3.025560231289282953e+01
1.122295459527054007e+01 -1.105225521401441213e+01 3.084421768216080650e+01
1.224050425389523333e+01 -1.000275111734752365e+01 2.965876646744173684e+01
1.299814380636449940e+01 -9.134566826405389861e+00 2.915440297875468900e+01
1.321686728914350617e+01 -8.264347318449720703e+00 2.864886566650751476e+01
1.244998808846091087e+01 -9.835403131095780793e+00 2.957558387252538878e+01
1.385321036240525672e+01 -5.645196605969724502e+00 2.868084691109930873e+01
1.367099125153163008e+01 -4.132987993420841555e+00 2.842207471064134339e+01
1.378242294772064902e+01 -4.573167937382225823e+00 2.856211270497079369e+01
1.369849310407354359e+01 -2.268612307543873996e+00 2.844074841138329290e+01
1.331464136743630533e+01 -8.722711621023400141e+00 2.911588274714363678e+01
1.370037373937171310e+01 -7.794524232142338249e+00 2.893452175499508172e+01
1.386327523964999386e+01 -6.040745994124931073e+00 2.871815897577160115e+01
1.386817202417736539e+01 -5.072576353045514352e+00 2.867975807172090086e+01
1.388295685548345837e+01 -1.724897270109287062e+00 2.865720588403544511e+01
1.397373429096595920e+01 -3.230032344846902159e+00 2.876365987264706447e+01
1.307471241046809673e+01 -6.762704512985862060e-01 2.771701902212294399e+01
1.248812759277346984e+01 -1.020325337864167636e+01 3.014370526257411598e+01
1.331878349467322842e+01 -9.343102043470357998e+00 2.966181526221836862e+01
1.363161717000181028e+01 -8.310968991421983532e+00 2.907737445504760387e+01
1.376911087588053739e+01 -7.277878245640143184e+00 2.879173399707207182e+01
1.406618427627272006e+01 -3.928806155956821478e+00 2.888597210046545882e+01
1.390114022267819927e+01 -2.815557489187297424e+00 2.867637475405361869e+01
1.408562950773394817e+01 -2.271833086741308794e+00 2.889283330102057690e+01
1.368028673066991097e+01 -1.177962205816602381e+00 2.842158681518645835e+01
1.347761112317184562e+01 -6.310095144289580293e-01 2.818596730589171173e+01
1.343143025058714635e+01 -9.126939447819532703e+00 2.954882011437033285e+01
1.290756322574400983e+01 -9.868671834337487070e+00 2.997775456650334291e+01
1.422595249742245826e+01 -6.133398341044593138e+00 2.916203260581315604e+01
1.420576548591844457e+01 -5.342350434590340313e+00 2.908737365900378791e+01
1.415863537973963027e+01 -4.627633503508656432e+00 2.900831186052377930e+01
1.401499047920858665e+01 -8.507485164498607588e+00 2.958969523111079880e+01
1.412188617633113097e+01 -7.417490177658737416e+00 2.921469719986995628e+01
1.410743391956807002e+01 -8.229234284853113479e+00 2.953522257428457820e+01
1.415542120998622977e+01 -7.061491500838935842e+00 2.921735007238881465e+01
1.428830375109999906e+01 -2.818768585701862506e+00 2.912846748750179415e+01
1.449591471196026760e+01 -3.457910262478057106e+00 2.938595177416208060e+01
1.411412236213307025e+01 -1.147980808054890334e+00 2.889809930738133303e+01
1.432693220301175963e+01 -1.722413549023746882e+00 2.914548097213151223e+01
1.386491567467242270e+01 -9.119355376100800825e+00 2.994341839424810914e+01
1.363965788889462871e+01 -9.551808744195804834e+00 3.016968373459991071e+01
1.470351982289131065e+01 -4.097045395707677784e+00 2.964343220664159517e+01
1.454987320275809459e+01 -2.324250563229263822e+00 2.940464873234147092e+01
1.447509561492581476e+01 -7.557821154577575307e+00 2.963823151330537087e+01
1.454221754893379703e+01 -6.844833223683266077e+00 2.964355910007536465e+01
1.457386253021141798e+01 -5.632759809026181230e+00 2.955042420103577427e+01
1.455847209180160995e+01 -5.039454467345739985e+00 2.949414838502956826e+01
1.453485700396990588e+01 -4.682097653960234140e+00 2.945456830421603200e+01
1.470851358795898101e+01 -2.802460713654163271e+00 2.959455854450077439e+01
1.458275643478150840e+01 -8.145955354560522110e+00 2.999263548766821330e+01
1.439844254930403622e+01 -8.704070724331925746e+00 3.010219343888260113e+01
1.458925435580123242e+01 -6.226196739296955052e+00 2.960671194565406594e+01
1.491624537032151210e+01 -3.441545265499923456e+00 2.985215024187584021e+01
1.479586614130696454e+01 -7.157560776505085265e+00 2.996932411026433840e+01
1.482808687583237450e+01 -7.698410061470235988e+00 3.006155078315934759e+01
1.491124720517742119e+01 -4.736582873525242654e+00 2.990106765983255954e+01
1.492882874894242029e+01 -6.628320698510924203e+00 3.006961155531110919e+01
1.487124268352407874e+01 -5.827019654806306903e+00 2.992197117888673574e+01
1.504594289357582504e+01 -5.294333742583443581e+00 3.009919188438356841e+01
1.511287659264922567e+01 -3.847923032247350328e+00 3.008764427597996871e+01
1.505800154581184636e+01 -8.062692660224291430e+00 3.045000510664646143e+01
1.495229632173052181e+01 -6.318914133291399615e+00 3.005111067539917613e+01
1.520727189742839336e+01 -4.336667460635714733e+00 3.021302562308191852e+01
1.518093016310498378e+01 -5.853359102288513860e+00 3.029774492031380007e+01
1.531614776596165406e+01 -3.361475696481591502e+00 3.029309973676678780e+01
1.531956014812550215e+01 -4.760922148405459353e+00 3.036299006378768439e+01
1.531573153466709414e+01 -6.411710772578850026e+00 3.049602463214247905e+01
1.545438274596953754e+01 -5.319213432165643241e+00 3.056130108084338559e+01
1.550332447777462086e+01 -3.936792663048495733e+00 3.052516157790940454e+01
1.572783676116880791e+01 -4.785251038848580052e+00 3.082496611107945128e+01
1.572506513148147000e+01 -6.023089290038857513e+00 3.092475898557082559e+01
1.581797047219453667e+01 -5.383962460034017461e+00 3.097628826322109674e+01
1.595697851772660414e+01 -4.132246976695292062e+00 3.104783585484286235e+01
-4.509080449965144233e+00 5.757057329649398980e+00 3.871691323518898997e+01
-5.038386285521228025e+00 5.872734867089782540e+00 3.816400307595435493e+01
-4.717658618762422762e+00 5.331222222454872650e+00 3.848737904721462399e+01
-4.682977998896186378e+00 6.310306732625042159e+00 3.854802976896197464e+01
-4.016858666897250352e+00 5.601559491976227712e+00 3.910525748476942454e+01
-4.190464445264568738e+00 6.154630967635362992e+00 3.893646305303769140e+01
-5.160630761217560369e+00 6.468390737166496152e+00 3.805075221660897000e+01
-4.856657409419180560e+00 6.862861078402138659e+00 3.837974835707775867e+01
-4.364267442675170194e+00 6.707636226757172970e+00 3.876769284444705477e+01
-3.871790789389504273e+00 6.552111367804313247e+00 3.915606723416999557e+01
-3.697959407740844195e+00 5.998988951042955264e+00 3.932502187130202742e+01
-5.334505707620095905e+00 7.020990362320969957e+00 3.788084321972500845e+01
-3.379180108183815090e+00 6.396269595253420093e+00 3.954470720037182474e+01
-4.537863618219148520e+00 7.260326563886964735e+00 3.859950826952534442e+01
-5.030459417810702938e+00 7.415802559903087676e+00 3.820856817594540900e+01
-4.045557365476883938e+00 7.104969978891650939e+00 3.898735967049437079e+01
-3.553118227153873931e+00 6.949592819142853983e+00 3.937567441232089038e+01
-5.474482748282384570e+00 7.526850317629715903e+00 3.783068633922103174e+01
-3.737995216166873025e+00 7.427443795346790445e+00 3.923410448763021208e+01
-4.127864709859631276e+00 7.690243243717983290e+00 3.892864308009350083e+01
-4.619927222542258960e+00 7.846059049048526468e+00 3.853388796088104584e+01
-3.060020918882349505e+00 6.794026873727299964e+00 3.976465751925999115e+01
-5.315055474479380315e+00 7.892607623228812486e+00 3.809742192822793783e+01
-3.245373771777566141e+00 7.272328089827476028e+00 3.962251087810705741e+01
-3.430444365438215737e+00 7.749918979763022797e+00 3.948087317783045336e+01
-3.615449380066162455e+00 8.227359217786151646e+00 3.934017990198891113e+01
-4.210170504754018772e+00 8.275528807071522053e+00 3.885881084793139451e+01
-5.705178738068393152e+00 7.959988553884774554e+00 3.775636055656549672e+01
-5.919163140323661310e+00 7.638069183869984791e+00 3.745277817748266358e+01
-2.688951837062448114e+00 7.224025863434897055e+00 4.010020512924557323e+01
-4.802277667850425757e+00 8.429600615204785541e+00 3.850447481564430063e+01
-5.599549848234707916e+00 8.369241767890221340e+00 3.798790900776514690e+01
-3.152071888929256716e+00 8.072189100928644834e+00 3.973261891654104261e+01
-5.292085378786513417e+00 8.691190348023052792e+00 3.823236940291358366e+01
-6.123462044799556914e+00 8.297243600245742812e+00 3.747756521235315574e+01
-2.781328219150966508e+00 7.809234281769938946e+00 4.004210926463301234e+01
-3.337225348832148164e+00 8.549731607832200098e+00 3.959202790150162343e+01
-3.800500576285965160e+00 8.704930565637592821e+00 3.918389745399203150e+01
-6.363224161150536240e+00 7.749140103710425720e+00 3.707586917397645720e+01
-4.392320721059329358e+00 8.858970354855328466e+00 3.883018191062164703e+01
-4.984631254336142625e+00 9.013143094882124728e+00 3.847696510667759640e+01
-5.883745642667457254e+00 8.845371536420854497e+00 3.787994820903765714e+01
-3.395148420873035366e+00 8.971437276994125298e+00 3.952832142649344149e+01
-2.317837958555595712e+00 7.654091824595573357e+00 4.043580264341753860e+01
-2.873703957554705202e+00 8.394460233479925648e+00 3.998437239996376036e+01
-5.576628564824789080e+00 9.167234901505716849e+00 3.812460865800455423e+01
-2.931789797023875099e+00 8.816175820580081535e+00 3.993737009053145215e+01
-4.180531198960829364e+00 9.229585299921438946e+00 3.910804042136166458e+01
-6.528678729142402659e+00 8.871644308265549839e+00 3.729163609215162722e+01
-3.848164551020303303e+00 9.434143331503703322e+00 3.938668359256853080e+01
-2.410520664466536456e+00 8.239309341964219158e+00 4.037744947470816470e+01
-4.716625812918594285e+00 9.327862877918175144e+00 3.877411420965712097e+01
-5.167150009100319075e+00 9.486143050964651380e+00 3.852128976181415965e+01
-6.167690400650360338e+00 9.321087979057644191e+00 3.777589328759233211e+01
-3.400382530647457990e+00 9.411771669897024850e+00 3.966599874268455039e+01
-2.989881929868410726e+00 9.237901757974571026e+00 3.987294578480534568e+01
-2.372041571118279624e+00 9.030998933658462846e+00 4.041646055642565472e+01
-2.584577620476736559e+00 9.504407013149331007e+00 4.021795617533192768e+01
-1.946866006741239996e+00 8.084007662852924270e+00 4.077128130936320360e+01
-4.560553842782221423e+00 9.754224580580464377e+00 3.903499137884855941e+01
-5.758806068075180917e+00 9.640003385266298963e+00 3.817260411578911317e+01
-3.527291242710955288e+00 9.814179851819073264e+00 3.971533091820839445e+01
-2.159555550705565707e+00 8.557722648715511582e+00 4.059308880568190148e+01
-6.790513499082777571e+00 9.447220747475633118e+00 3.733539670327364490e+01
-3.055528614304109603e+00 9.659159629457693796e+00 3.996662884267267657e+01
-3.998691830119187163e+00 9.969080125744344656e+00 3.946459257403736842e+01
-1.691847034403271888e+00 7.525175353173610304e+00 4.086531054139646102e+01
-1.485175656304398295e+00 8.735222539026791466e+00 4.078909576065770182e+01
-1.824603185129326954e+00 6.964240916241855039e+00 4.068020782520932244e+01
-1.436932830054150623e+00 6.966617988482807000e+00 4.095941469362364984e+01
-5.349673617390108049e+00 9.959143343682940852e+00 3.856993140119463703e+01
-6.525413461872105358e+00 9.728147497086109041e+00 3.771249000025412101e+01
-3.595134315800530445e+00 1.029016756033458080e+01 3.962845621879724689e+01
-2.018914791510455942e+00 9.410149683524034359e+00 4.044726330598897590e+01
-1.437391191175724448e+00 8.071005180124069867e+00 4.092642356307768381e+01
-1.398625124758537286e+00 8.321432266921970466e+00 4.091018569422613638e+01
-1.858796019311080627e+00 8.978761603285171589e+00 4.060582462529845316e+01
-6.089540257667596101e+00 1.015217840019649209e+01 3.817060666673724256e+01
-2.803051557991092402e+00 9.955985590971334176e+00 4.005755719565723183e+01
-1.897391590757847135e+00 9.709377725533780534e+00 4.038503308757277921e+01
-8.258668564984205096e-01 7.392722937370945324e+00 4.113242305400578402e+01
-4.469458143026165509e+00 1.012377187953358870e+01 3.921618166519602511e+01
-4.940309679998363457e+00 1.027849120757596957e+01 3.896790381736583697e+01
-3.021458344379091443e+00 1.040742462034725513e+01 3.989925529274653826e+01
-3.807365725033951875e+00 1.066565513047641822e+01 3.948461469314612771e+01
-9.280891958965467037e-01 8.058007670017710566e+00 4.108155076234709924e+01
-1.453280257228048544e+00 9.315900150190422835e+00 4.067370174678273997e+01
-8.509682828012351541e-01 8.558608531469301894e+00 4.104894502591342587e+01
-4.373730383959760104e+00 1.047210826011043316e+01 3.922622977087321061e+01
-5.472270556911470685e+00 1.041300437793275435e+01 3.867908154586628910e+01
-6.883821744113863161e+00 1.013599386209454067e+01 3.764908728752116929e+01
-8.873620986118253562e-01 9.221607563311398081e+00 4.089081812146636707e+01
-6.004404674441598644e+00 1.054756308926511288e+01 3.839007968138869131e+01
-6.536284324090916975e+00 1.068205817141223513e+01 3.810114662644483730e+01
-3.240166345707351070e+00 1.085949136802351234e+01 3.974357285299519305e+01
-2.153727227597184601e+00 1.056340373395446619e+01 4.013150542680123323e+01
-2.696852635241115070e+00 1.071142166451159916e+01 3.993685259642183638e+01
-1.210508937182888545e+00 9.914260839136659342e+00 4.055203833178470774e+01
-4.184121637599473864e-01 8.045002313780674541e+00 4.123681657459916039e+01
-5.355817231996651273e+00 1.075438159808978611e+01 3.888811851862258351e+01
-4.855265973001018587e+00 1.089957727071954174e+01 3.911196593479871808e+01
-1.609937366926221136e+00 1.041520474670066498e+01 4.032682301881636988e+01
-3.217018073901989905e-01 9.127358747440649012e+00 4.110844416556174963e+01
-3.829523346151625596e+00 1.102895512245931364e+01 3.954088923790143895e+01
-2.599728113156972942e+00 1.097042670355877902e+01 3.989935225980738664e+01
-1.066866778458647413e+00 1.026720178748943724e+01 4.052247438580052830e+01
-3.036625481743018273e-01 8.795637114570739712e+00 4.118761838746638659e+01
-5.236164280067607812e-01 1.011914934312532743e+01 4.071904815997731930e+01
-6.157538470480059090e+00 1.103795333827329195e+01 3.848453179464470963e+01
-4.419174843341826531e+00 1.119850670961682582e+01 3.933797710249192647e+01
-1.959261552749222091e+00 1.108136824209301707e+01 4.005627389309491804e+01
-1.052850945998987431e+00 1.083484996467717743e+01 4.038056089123479353e+01
-2.674697696363504407e-01 9.756936793926934470e+00 4.093104495302043944e+01
-5.771383108623716396e+00 1.123035668638950035e+01 3.880843287803278230e+01
-5.008517294592910396e+00 1.136797418218373146e+01 3.913505913518870472e+01
-3.566990993631801388e+00 1.126500701857870190e+01 3.965719540568885293e+01
-3.058900355930578296e+00 1.172190528035143231e+01 3.977613136941614158e+01
-7.883391407039501697e-01 1.047714230406422153e+01 4.054892632737109182e+01
-1.317363240066459440e+00 1.119255889932366266e+01 4.021356268686714230e+01
-3.380197900307665981e-02 8.470135057009153812e+00 4.130534036013005306e+01
2.444692640900724412e-01 9.033027692278704279e+00 4.132650412678974305e+01
-1.157667066099415942e-02 9.395088295627457953e+00 4.112821859305049799e+01
-2.478689848194061796e+00 1.154554792457935974e+01 3.992185670855163693e+01
-7.198391673785791145e-01 1.109834224451802775e+01 4.038517343153895212e+01
2.220244755981370943e-03 1.008332212186531684e+01 4.090182414762007568e+01
-3.229541953101070506e-01 1.056163877638302395e+01 4.063867455278946750e+01
2.563834855870444907e-02 1.026985003820792031e+01 4.081182520219885390e+01
-5.597980712584950780e+00 1.153748097671698858e+01 3.893199988895943164e+01
-3.893374117802208101e+00 1.166998051868407771e+01 3.957099478405647375e+01
-6.187535252016608922e+00 1.170701790099982986e+01 3.872882028773967278e+01
-4.875278252343045793e+00 1.195217590176677724e+01 3.923329336090770880e+01
-1.898458755107814033e+00 1.136918461089743460e+01 4.006759643535619375e+01
5.274868622305330934e-01 1.004753817492233559e+01 4.107483369765147074e+01
-5.531069708784119854e+00 1.182965955376506528e+01 3.898128609052798055e+01
-3.639194869105774721e+00 1.189828842637136219e+01 3.963039398973421612e+01
-6.658235905177797065e+00 1.145510035030107865e+01 3.832693906601510037e+01
-4.219536233244502554e+00 1.207468643041823775e+01 3.948493926828741252e+01
-1.818728421899308501e+00 1.167949206084103864e+01 4.012551790942655572e+01
-6.597945646239677941e-01 1.131855947306877219e+01 4.030785980986724581e+01
-1.222917771292967304e-01 1.100412829784342073e+01 4.055845795379196517e+01
4.757829544146128797e-01 1.090983644275462083e+01 4.073540966697363785e+01
5.744672357535646201e-01 1.042044017864037464e+01 4.090006767293481715e+01
-2.953435773084436278e+00 1.213587013767870282e+01 3.985325129966394542e+01
-5.420077934537887998e+00 1.253385699148254240e+01 3.896863744058745027e+01
-2.320148739029237905e+00 1.216647884366079779e+01 4.003767080145774315e+01
-3.586314531583515208e+00 1.210528554020255143e+01 3.966899071622468398e+01
-5.854367627255123274e+00 1.225445025194349213e+01 3.881584143009075660e+01
-1.129999315406564175e+00 1.192833942772875844e+01 4.022131120100190316e+01
-2.169170010390020220e-03 1.144459156548764867e+01 4.040720512694299771e+01
1.122921631354262040e+00 1.057093230074632118e+01 4.098305523199921652e+01
1.073630897216474533e+00 1.081558624730080886e+01 4.090156775394608957e+01
-4.819594176235050043e+00 1.230417378708369824e+01 3.922532029687247501e+01
-6.532197574949990759e+00 1.221218547000067289e+01 3.854905507354141037e+01
-1.725136065850737088e+00 1.204741772012125445e+01 4.012852802464430368e+01
-5.353984776964098025e-01 1.180937448147597024e+01 4.031551918724833428e+01
-2.924313952981747455e+00 1.237666619924432609e+01 3.985194918042078882e+01
6.567124919076128275e-01 1.157088316255631000e+01 4.048881411302006939e+01
9.950124574778715925e-01 1.128760416937947042e+01 4.068143836638700606e+01
-4.966467401707016727e+00 1.283640824560096760e+01 3.923460255615074033e+01
-6.020855116325959600e+00 1.276368062133954417e+01 3.871463584851609596e+01
-3.529168440979828958e+00 1.258710959467956414e+01 3.967080919968144315e+01
-2.868947909304272237e+00 1.265629142999588375e+01 3.998096263676580264e+01
-4.592789048537841978e+00 1.245531956501516824e+01 3.936106841262406419e+01
-4.132764909344954773e+00 1.279713233044655496e+01 3.947822482518667186e+01
-1.717399970097427397e+00 1.223527457995232659e+01 4.011928143721670637e+01
-2.255600340257505554e+00 1.283718312935821082e+01 4.004362720224301597e+01
-1.114259355184544109e+00 1.230415539884021214e+01 4.018327453234626034e+01
6.025893925570624532e-02 1.169020525370218166e+01 4.040180009054897425e+01
1.671201943827307135e+00 1.072138447623501456e+01 4.106646972809058838e+01
1.333147819847104287e+00 1.100446165501079498e+01 4.087397427450461151e+01
-1.674319200624318160e+00 1.268259781037381018e+01 4.011209311629923491e+01
-5.105879778535726832e-01 1.237313464644891425e+01 4.024922407884653097e+01
7.264606895366532147e-02 1.197229365917010924e+01 4.036871072371131675e+01
-5.339794653627191856e+00 1.321716464968152849e+01 3.909609587689184451e+01
-5.967054968588284325e+00 1.321916297321252820e+01 3.879187898627469622e+01
-6.877127592398813327e+00 1.271778761121465351e+01 3.837485947726219848e+01
-4.736324356182000983e+00 1.300715578980302745e+01 3.928691845331497490e+01
-2.836694504810033379e+00 1.299172578947114687e+01 3.997521048458757065e+01
1.127520939174857961e+00 1.173379377425287906e+01 4.059631979510668032e+01
1.465637837549566225e+00 1.145054827799167896e+01 4.078893435157296921e+01
-3.417990816244147023e+00 1.314632852608519542e+01 3.990680507990434478e+01
-6.621325818308200439e+00 1.299341438994373910e+01 3.844870690403012503e+01
-4.058996578953209422e+00 1.316992870748517142e+01 3.963630881912745707e+01
-2.910064849324334624e+00 1.318721547565627361e+01 3.992356455842504204e+01
-1.092259380855238327e+00 1.252781169266726735e+01 4.018067257908661105e+01
1.960828828623032649e+00 1.122180777800210727e+01 4.101758379249925923e+01
-6.594821757111778204e+00 1.322118337009287536e+01 3.848749144670244959e+01
-4.699486718466139301e+00 1.319353712170609505e+01 3.936611805614753479e+01
-2.402140066421049713e+00 1.322823843716827774e+01 3.994113497206080865e+01
-7.293983961253269754e-02 1.248429466413121958e+01 4.036463668072066469e+01
8.512622820420436831e-01 1.198656986113542011e+01 4.056222340870184695e+01
2.172374236407841774e+00 1.094285940892115327e+01 4.114965227645048174e+01
-5.970716616423935363e+00 1.369400777603821773e+01 3.853303619386664280e+01
-6.513856119919221754e+00 1.367986295266445573e+01 3.827843369198662771e+01
-4.012863555947239647e+00 1.341243110700412622e+01 3.952805525057642200e+01
-1.894585041903476430e+00 1.326935601763493189e+01 3.995893314792513706e+01
-1.202824409539368089e+00 1.282135532173839820e+01 4.010376987177388486e+01
-4.228238580541410219e-01 1.274767851803362717e+01 4.032792526155398605e+01
1.598128554338315244e+00 1.189665031134216200e+01 4.070447853919949921e+01
-5.202080466834246408e+00 1.394468349425830134e+01 3.877250481451122255e+01
-5.865851883572132053e+00 1.384736786393369101e+01 3.855632744739784812e+01
-3.011516023404587461e+00 1.367820497785737466e+01 3.957084398288404969e+01
-3.569629438898432205e+00 1.388249831784463417e+01 3.937693039980867837e+01
-2.452796205366334359e+00 1.347368741178912188e+01 3.976497428577461335e+01
3.645353747011393919e-01 1.259543339945931351e+01 4.048025163394204640e+01
1.045673704632274603e+00 1.240202524212102730e+01 4.063692569440432578e+01
2.250485584803793238e+00 1.172230903070104624e+01 4.096949183397590133e+01
-4.607267630049339147e+00 1.367842195145180639e+01 3.915028225189917066e+01
-7.018608839644588038e+00 1.401401004708726639e+01 3.785413742147596849e+01
-7.221923190470417531e+00 1.322322309081987513e+01 3.818354275482469262e+01
-6.601772878060271132e+00 1.417118778361622233e+01 3.797036227795685193e+01
-4.052658958343696050e+00 1.371869501144181136e+01 3.944704711737387015e+01
-2.616151344688502967e+00 1.378968014675134945e+01 3.961594645958973615e+01
-8.373392179095304755e-01 1.307958784274066133e+01 4.025013641897358241e+01
2.673707801931132000e+00 1.116441107699344570e+01 4.123334060547799140e+01
-7.435448408402482556e+00 1.385683311870219114e+01 3.773792704009063925e+01
-1.345833393164377556e+00 1.334507623692679701e+01 4.013699663503462745e+01
-3.351539598457256575e-01 1.312200377542307805e+01 4.040929426821367798e+01
2.069127463816091250e+00 1.205965537783713692e+01 4.081302774805536160e+01
-5.256147838822045948e+00 1.435368593334676035e+01 3.866448972423957997e+01
-5.796860202818722385e+00 1.421101132616911578e+01 3.839487904021403608e+01
-6.391604631050442187e+00 1.447739403968576610e+01 3.801735886037580769e+01
-4.128602494212707974e+00 1.408710843487853559e+01 3.918272148515698206e+01
-3.788623776359892670e+00 1.430473078688370059e+01 3.917778250679329233e+01
-1.870574305604601806e+00 1.363111283829649878e+01 3.992324023478352757e+01
-3.339247504927082666e+00 1.431134981608780699e+01 3.927246097201988562e+01
8.025110105751642742e-01 1.270672328276353547e+01 4.059614550608587535e+01
1.890820330079655553e+00 1.252000339537252316e+01 4.081698730307780920e+01
2.491962442356125962e+00 1.067049014825560604e+01 4.138099479272090520e+01
3.107937949592406657e+00 1.191489610510547159e+01 4.116145371705668055e+01
-4.687696522731656046e+00 1.429176187416524435e+01 3.898847543616083300e+01
-7.649110737061475263e+00 1.449094186900573966e+01 3.729219096002086786e+01
-7.232245156672186148e+00 1.464812558276767795e+01 3.740839635035500521e+01
-2.311254080856032012e+00 1.400733488500165436e+01 3.970606511536998795e+01
-2.833721015084040395e+00 1.432597869265170765e+01 3.946521026345588012e+01
4.961151072240166937e-01 1.315746905733794492e+01 4.060435927772042675e+01
-7.968245662590049960e-01 1.342085886783728732e+01 4.031595315941030577e+01
1.240292124498861615e+00 1.281798455582624996e+01 4.071377923636703144e+01
2.540030227758092618e+00 1.222264071969080490e+01 4.092171123196216342e+01
-5.823874734891615113e+00 1.441553689792539394e+01 3.834092236046725333e+01
-6.881831249073815826e+00 1.469318854331837620e+01 3.762712562067699196e+01
-8.101126877785645775e+00 1.420968562347493247e+01 3.710823806959398041e+01
-4.238423588813173382e+00 1.429819468040955854e+01 3.908304882270237357e+01
-1.846606899894415177e+00 1.399296442610995683e+01 3.988854882773334509e+01
2.875222387543264979e+00 1.087944905956961961e+01 4.142799085554650418e+01
3.174769155229371531e+00 1.138584778863018876e+01 4.131719885292782379e+01
-5.161150463194803528e+00 1.503165448935023996e+01 3.841672617263618861e+01
-6.013122037276944276e+00 1.512467387759961213e+01 3.793118315029916232e+01
-6.202383059715677938e+00 1.480086722659016552e+01 3.797425147246062238e+01
