3.630938994292913780e+00 4.960559804892276325e+00 2.114404907752117779e+01
5.444732744725715001e+00 1.799904628914037241e+00 2.128436462610358859e+01
4.638436654856401553e+00 4.199298158733812514e+00 2.131752655207941771e+01
9.380740515466442497e-01 7.010879524733121038e+00 2.125472979555075526e+01
3.402900327965408867e+00 5.572300155494558815e+00 2.118930112967298385e+01
5.996628889152507469e+00 1.363993401249759652e+00 2.148130144418535892e+01
5.464449093336238406e+00 2.784727891122018129e+00 2.139920644317475507e+01
5.164736908887990197e+00 3.435405686242188672e+00 2.133771236666158799e+01
5.764162726538800463e+00 2.134050789952607552e+00 2.146070123505452898e+01
2.438444728572648934e+00 6.400199976472447538e+00 2.127530307515175068e+01
2.920621339746142908e+00 5.986293788313704844e+00 2.123230658751869626e+01
1.956173425872054672e+00 6.814187672495301662e+00 2.131830807072785916e+01
2.854691863860759904e-01 7.167100144349259239e+00 2.126806533979961600e+01
4.167637051261870340e+00 4.722513063300964653e+00 2.126867298673687756e+01
1.473996118632864949e+00 7.228094234644043325e+00 2.136130455628761027e+01
3.998309211406612551e+00 5.269210750163153989e+00 2.132005665081584667e+01
5.475049521829641108e+00 3.897028009635481460e+00 2.152502467482804960e+01
9.918200000000001459e-01 7.642000000000000348e+00 2.140430100000000024e+01
4.593717509900990592e+00 4.966122220348754723e+00 2.145081214679733961e+01
3.945977738787932676e+00 5.983971568034131217e+00 2.143159376444573638e+01
6.375215934549262720e+00 1.944956386883964772e+00 2.170995748896714161e+01
5.189331958527645838e+00 4.662928240507770994e+00 2.158161282336544318e+01
5.774999115332225763e+00 3.246805419998380238e+00 2.158667311768309105e+01
6.074940291320784169e+00 2.595800481915509828e+00 2.164823269211270684e+01
2.889503946445258986e+00 6.577467970037432998e+00 2.139706211389763624e+01
3.337885148895066489e+00 6.238914609004041267e+00 2.137037785465370732e+01
2.029983320639125122e+00 7.301962217168370017e+00 2.146988216623109480e+01
2.597056572688180243e+00 7.090361153391643079e+00 2.149828260197479679e+01
5.785800476911405532e+00 4.359300148311153755e+00 2.171260130707591784e+01
1.708133395142199085e+00 7.841220595545985717e+00 2.157404759357391200e+01
4.652683848750507778e+00 5.668581153973754283e+00 2.159472094885403237e+01
3.836568697776163717e+00 6.511404859520112609e+00 2.156189634182204529e+01
6.768189457873356574e+00 1.047558438469310182e+00 2.178777255196240148e+01
6.685831979069690512e+00 2.406343135496229912e+00 2.189737813817284362e+01
6.085548761856912847e+00 3.708881846152390693e+00 2.177413950628410078e+01
3.272863047135526227e+00 6.905603560903648130e+00 2.155147490355085083e+01
1.100671969889937873e+00 8.239550716906276051e+00 2.163445660986341323e+01
5.057093689165792050e+00 5.208285769371824081e+00 2.163804176993143358e+01
6.985500000000000043e+00 1.756099999999999994e+00 2.195889999999999986e+01
6.284062332573596699e+00 4.195469925655624266e+00 2.197458892878671222e+01
5.597806696606818733e+00 4.971096412863203362e+00 2.176359003020497696e+01
6.385719286291218211e+00 3.057550870981597946e+00 2.183576493578383548e+01
2.425626369715489172e+00 8.040768683004875683e+00 2.174407350903069869e+01
4.489677666974291270e+00 6.396116237551275674e+00 2.167416448199847423e+01
7.250254949254165027e+00 2.405351830956692805e+00 2.222628837366770327e+01
6.119331085905930223e+00 4.911030861159405347e+00 2.201004281611404423e+01
3.207777287459840476e+00 7.572943332658688576e+00 2.173274871002790221e+01
1.875755874276341606e+00 8.526407412067444014e+00 2.184381263874441004e+01
5.221394431829909699e+00 6.196074479590343742e+00 2.186568354094079325e+01
5.409644492686563666e+00 5.583442487521428355e+00 2.181462487094639613e+01
3.916806028300805487e+00 7.035865292337928345e+00 2.173375031837250049e+01
7.343074967732450276e+00 1.143179362295420942e+00 2.213843732888739879e+01
6.782551134308785201e+00 4.031565387605778206e+00 2.223669593578323500e+01
6.844573393997325006e+00 3.339298556222159764e+00 2.215234447323341627e+01
1.209674371085096123e+00 8.837927925742711466e+00 2.186493053832049327e+01
7.472245431293403684e+00 1.642648722498865288e+00 2.231288989701867820e+01
6.711091912320933162e+00 4.781841924653965847e+00 2.233326003682503114e+01
5.808173093696097133e+00 5.725560553171672673e+00 2.204750301067650753e+01
3.142700014659177921e+00 8.240199988896677041e+00 2.191400000002093762e+01
5.033300447338364236e+00 6.808200225054033439e+00 2.191670031050501422e+01
4.560748502597445686e+00 7.166125391029544822e+00 2.191602514067333729e+01
7.803452302532122076e+00 2.454569664190100031e+00 2.264736071738739653e+01
6.452925925872566637e+00 5.462867185000708226e+00 2.230754148786884627e+01
7.514981310955612059e+00 3.054535911882586774e+00 2.249364812329072905e+01
3.615411990312896506e+00 7.882153810177854325e+00 2.191467538147231053e+01
1.721708599935133588e+00 9.065585087052124180e+00 2.201697997029159737e+01
2.713585552637823639e+00 8.688903690868986729e+00 2.201695040016704397e+01
5.617452086089391727e+00 6.543942309406806324e+00 2.214607647500430332e+01
7.959383662485097766e+00 1.529105955122071370e+00 2.266716546800379462e+01
8.073929026572711720e+00 9.727148561863743215e-01 2.266993968544067428e+01
7.700806670318387503e+00 5.299913867990448946e-01 2.231805342972077710e+01
8.158016607202302595e+00 2.016447727975957616e+00 2.286779933095267481e+01
7.281654649886017516e+00 3.867458729893539005e+00 2.249912616128484188e+01
7.089945485293524641e+00 4.390970124820896103e+00 2.248331236421802615e+01
4.088126978574097237e+00 7.524104439543162215e+00 2.191535041808871398e+01
2.284623276158116223e+00 9.137448486596559505e+00 2.211986437258683580e+01
6.202122332063161103e+00 6.279450346336354016e+00 2.237565645518663260e+01
3.151822061954592691e+00 8.784849578565573580e+00 2.214869940771391299e+01
3.677061205063520966e+00 8.491952238978230483e+00 2.216661862656438942e+01
1.318607458128051135e+00 9.435928510388583490e+00 2.209525934299153960e+01
5.372561669268799633e+00 7.152527265902283382e+00 2.220697235087897070e+01
4.961560685117855307e+00 7.354993558552932242e+00 2.210552187617411946e+01
8.266045191965506689e+00 4.249327598754835122e-01 2.273318553636342187e+01
8.356650262176083643e+00 2.503788463436615430e+00 2.306843361866256359e+01
8.068125156434341250e+00 3.103848598805400982e+00 2.291469022536123745e+01
7.531735657095622649e+00 4.280860106500389506e+00 2.272209481910926243e+01
7.283321156555048859e+00 4.859067011102789380e+00 2.268311882732582774e+01
7.034827225086330849e+00 5.437460770048301306e+00 2.264413073682623434e+01
6.786699554734888729e+00 6.014999813970908882e+00 2.260519973335637900e+01
7.779700000000000060e+00 3.703699999999999992e+00 2.276099999999999923e+01
4.216666849646270698e+00 8.165367709254113038e+00 2.219889727277877611e+01
3.160942904111352370e+00 9.329426326845775108e+00 2.238336743153346120e+01
5.956888941546777616e+00 6.888403871986707117e+00 2.243648498935993274e+01
8.447052688236649232e+00 1.415438470952793626e+00 2.302182695889151631e+01
8.059110303620439453e+00 -8.417759716597084108e-02 2.249795665741550721e+01
4.889827901452793668e+00 7.901739210130528157e+00 2.229432731841564319e+01
4.211482460558866769e+00 8.743732769364070734e+00 2.241926564189927618e+01
1.856088637524506035e+00 9.585546249542653996e+00 2.222267581058864394e+01
5.712145737043222482e+00 7.497181744118917024e+00 2.249752054598269169e+01
8.645728147245060669e+00 1.902580416600646807e+00 2.322247174804278202e+01
8.761804820875603639e+00 6.352396703153986302e-01 2.314327194575778535e+01
7.739050392329792416e+00 4.741756164621767411e+00 2.299952252917576700e+01
7.388377897164735586e+00 5.970852087031457422e+00 2.305167712306882777e+01
6.541740167310686971e+00 6.623369103105468447e+00 2.266599060977105395e+01
2.513041226417953578e+00 9.730028171554746308e+00 2.242045675598502186e+01
6.296327231874721875e+00 7.232865887263758786e+00 2.272689453140261406e+01
8.839496901464295675e+00 2.463197232534972692e+00 2.349795425324198561e+01
8.550803468015132580e+00 3.063327380618514617e+00 2.334407117053862279e+01
8.262139887469368560e+00 3.663355228395344554e+00 2.319019681294561508e+01
7.982777679519852398e+00 4.248072106468818276e+00 2.305687178652486224e+01
7.722762878868075553e+00 5.314959977386753742e+00 2.313591963390299711e+01
6.943559331647131572e+00 6.505157504502619759e+00 2.288695249340407045e+01
4.818089533485351517e+00 8.448522930334194214e+00 2.248314565894421335e+01
3.687744029348683394e+00 9.127579291236376235e+00 2.244053194870047108e+01
3.170073310726983618e+00 9.874587133843963471e+00 2.261828709181172314e+01
5.616443806973376418e+00 8.226039466368300523e+00 2.274918007220684046e+01
8.934599478969857955e+00 1.301799867979130054e+00 2.337639958254184691e+01
8.589069006026070596e+00 -3.109341415702315814e-02 2.291022379973081868e+01
4.746300543354579737e+00 8.995699519391424204e+00 2.267210004813205515e+01
6.051300000000000345e+00 7.841400000000000148e+00 2.278770099999999843e+01
9.128577182030893411e+00 1.862509426319464145e+00 2.365208759863554988e+01
9.033482769864983553e+00 3.022805907356286959e+00 2.377345296590743118e+01
8.416499223151520326e+00 -6.967800450594426875e-01 2.267740055192167858e+01
9.063371538033349495e+00 7.943520735631981466e-02 2.338813893716065451e+01
8.185905122090364472e+00 4.792577608280616630e+00 2.335281607477781662e+01
7.621021436049659314e+00 6.519027853303213327e+00 2.341062178315176467e+01
7.100632976393218776e+00 6.995984322189094939e+00 2.316908980093429449e+01
7.990217189335941050e+00 5.926692309454528740e+00 2.349827400249759890e+01
8.465264054377534819e+00 4.207792359847887909e+00 2.348612409925777200e+01
3.701348285147524564e+00 9.945099026784397722e+00 2.279279221532576827e+01
4.223805354517568666e+00 9.470416276075479090e+00 2.273244811488247308e+01
5.181315156407732658e+00 8.610919927171305943e+00 2.271063500926888068e+01
6.505668915033791855e+00 7.886820181201581903e+00 2.310284306417422329e+01
9.236110057638818205e+00 7.459322943842117137e-01 2.362120519423384835e+01
8.744621856847137664e+00 3.623006742369826227e+00 2.361943102347987278e+01
9.322342381338128092e+00 2.422606096488296501e+00 2.392747391952582348e+01
9.409407462604347572e+00 1.274261563995098712e+00 2.386737620820581185e+01
8.847372877108943712e+00 -7.527070728604430272e-01 2.309682394780677583e+01
6.824039737595045452e+00 7.506892928831987888e+00 2.317356618697363047e+01
6.084304058868462484e+00 8.463376491221117348e+00 2.310113921357645950e+01
9.603326561601676303e+00 1.834661608067236216e+00 2.414296267811758057e+01
8.389130360232728734e+00 5.337346323383071578e+00 2.364890312075240075e+01
8.668685696829946608e+00 4.752103816460682140e+00 2.378229534443730842e+01
8.947933729696257998e+00 4.167359690197455890e+00 2.391551124472343304e+01
8.769011774258771652e+00 -1.210418890855715190e+00 2.297629698194705838e+01
4.723946276100993380e+00 9.539440581552346643e+00 2.295194661954997883e+01
5.649240221234331116e+00 8.848073792110959346e+00 2.306253988833887192e+01
9.227145908986958744e+00 3.582654523466064944e+00 2.404870262858886676e+01
9.537675767920742231e+00 1.899622297224290435e-01 2.386605559742807259e+01
9.710992419770974493e+00 7.183400753544100237e-01 2.411225269613957423e+01
9.516106510198587998e+00 2.982699672429284021e+00 2.420285871905725017e+01
9.407959707731388121e+00 -3.093355082296989078e-01 2.369115025067305424e+01
7.542717680326202156e+00 7.042053138330305551e+00 2.352301682923400961e+01
8.298044083126812964e+00 6.406353885749927812e+00 2.389224407158893726e+01
7.257626382566448875e+00 7.486560597139259698e+00 2.345108305176161068e+01
8.304157243518050180e+00 -1.390838948396434516e+00 2.265920487272644834e+01
9.278243121848369412e+00 -8.086343098729831258e-01 2.351624428546174883e+01
5.214176282301906440e+00 9.232770646174911278e+00 2.302394029832931110e+01
4.190234722776790655e+00 1.028573905967141933e+01 2.315205079420491430e+01
6.959944960225518784e+00 7.932231175708645665e+00 2.341792075081797719e+01
9.797000365657588361e+00 2.394905363873311988e+00 2.441827310940850992e+01
9.884310623647232674e+00 1.246716783828460517e+00 2.435845126946859907e+01
1.007801575975572561e+01 1.807282703293809689e+00 2.463383664215491820e+01
8.872035973844830892e+00 5.296955593668454476e+00 2.407851276476526792e+01
8.592499950370704909e+00 5.882500088293534546e+00 2.394519999107456343e+01
8.003957467495288469e+00 6.929552495342319318e+00 2.383935513036746201e+01
9.709116510008090728e+00 -8.645614338000355836e-01 2.393566773223409783e+01
9.838879191354312326e+00 -3.653400399492068296e-01 2.411061183744620706e+01
9.121482069288090244e+00 -1.723997324837666323e+00 2.327515779187380218e+01
8.645447441225678986e+00 -1.746904841262644004e+00 2.293589875279383605e+01
4.701603854129105642e+00 1.008290703617449857e+01 2.323165216990582138e+01
3.671451862314623504e+00 1.066960645739675861e+01 2.316563332387337226e+01
6.538733808812507320e+00 8.508864982813030053e+00 2.341635269109805151e+01
9.430602037776811386e+00 4.126926791259132976e+00 2.434489710332037404e+01
1.001230417481417057e+01 1.627802273529539434e-01 2.435688969674120941e+01
9.990673610163609553e+00 2.955148886643413242e+00 2.469358292723326187e+01
1.035946826145291411e+01 1.219157640835730971e+00 2.484978952533936791e+01
9.709699999999999775e+00 3.542300000000000004e+00 2.447800099999999901e+01
7.709247850732754870e+00 7.453858610434431320e+00 2.378635386669238017e+01
9.151467529119493349e+00 4.711630136371785404e+00 2.421177577737414666e+01
9.591620295181328970e+00 -1.551126692223238068e+00 2.375492202556497645e+01
8.191772886328079650e+00 -2.085156848838544352e+00 2.264100218176330159e+01
8.891642079182847880e+00 -2.247082407976064733e+00 2.315735594855797430e+01
5.188260956275961178e+00 9.867070503907839907e+00 2.335047265800700700e+01
5.682481790465542915e+00 9.470058779015090522e+00 2.337610337206091415e+01
6.117319917775315474e+00 9.085581533265473908e+00 2.341469243562986691e+01
6.993162851693618620e+00 8.554353622169859506e+00 2.373156578080122259e+01
1.027171986051493846e+01 2.367848201305073452e+00 2.490922088100803933e+01
1.018572725872322771e+01 6.909005722159917706e-01 2.460316558774277951e+01
8.732792746959699315e+00 6.456592161853051515e+00 2.426552910501277438e+01
8.455783264187502368e+00 6.892627968209954936e+00 2.419536836875385433e+01
7.414799986715286728e+00 7.977700018168905949e+00 2.373339999994221827e+01
1.003561837847454008e+01 -1.530784292699715499e+00 2.419449542782701101e+01
8.661800892426905207e+00 -2.770167526991272222e+00 2.303955325046623059e+01
4.679253384427319418e+00 1.062656460556583049e+01 2.351145600393203949e+01
4.163942485260703208e+00 1.091983490401205792e+01 2.347831860113387137e+01
1.048714547013416976e+01 1.350851166364508416e-01 2.484788164145161460e+01
1.055300239735056422e+01 1.780051462910689830e+00 2.512503982971984939e+01
1.013934004687071422e+01 3.648500011585675828e+00 2.493930085032457455e+01
9.273663609524769313e+00 5.254478664321292847e+00 2.444652586026765206e+01
9.103708551664503545e+00 6.038296177323656089e+00 2.445998543580627071e+01
8.378813800747494156e+00 7.600984940723421346e+00 2.438624870761710284e+01
7.884584970743900634e+00 8.171454112248694557e+00 2.418673462160072063e+01
1.031349831631892400e+01 -3.929287288885194851e-01 2.460138568167356610e+01
1.014000000000000057e+01 -9.204900000000000304e-01 2.435510100000000122e+01
9.474022322628981030e+00 -2.237674682845313789e+00 2.357407764919172521e+01
9.244166537206602641e+00 -2.760936294881765729e+00 2.345628038388116465e+01
9.894800780056208112e+00 4.134155100231519775e+00 2.478268723060077505e+01
9.615703462823134373e+00 4.718878944778464479e+00 2.464960538102804932e+01
1.044860194074372117e+01 3.002479240053171239e+00 2.517661950928464165e+01
1.066079750189986264e+01 6.631132756593108857e-01 2.509438448155468393e+01
7.494110303913271487e+00 8.522453401135010154e+00 2.405170108607855539e+01
9.931231825204202224e+00 -2.141110591851261180e+00 2.403388196752731432e+01
5.652705097303060811e+00 1.019463238357182355e+01 2.374902462624279309e+01
6.150299995165435796e+00 9.707100004736798127e+00 2.372790000020524559e+01
5.154652380952888358e+00 1.068261332274657427e+01 2.377016868826006757e+01
6.571531090309172818e+00 9.131001040314886907e+00 2.372973213140913273e+01
1.083460032693540143e+01 1.191599345801218401e+00 2.534110132425163542e+01
9.706446899359711722e+00 5.436992944022165375e+00 2.489352006311622389e+01
8.873044623365293759e+00 7.030517077249880842e+00 2.458576489067510451e+01
1.042460423537873204e+01 -1.384974412291372525e+00 2.465230517288650702e+01
1.036771120817435943e+01 -2.072732193371325415e+00 2.454129317345437045e+01
4.656899960083390688e+00 1.117030003249666592e+01 2.379130000388557775e+01
1.007993872004124469e+01 4.726129018403163684e+00 2.508743462852154238e+01
1.076104910057877007e+01 -4.129851259832910682e-01 2.511953783985135757e+01
1.093490840362136929e+01 1.149959250458725268e-01 2.536627743985933137e+01
1.075793714144541013e+01 2.356391225124440325e+00 2.541400568377414970e+01
1.103946640016097724e+01 1.768521406038080057e+00 2.563007195606913058e+01
1.056890585146212658e+01 3.754681671690899059e+00 2.540052098752050114e+01
9.242856309526684910e+00 6.845022329904704605e+00 2.485767431296627095e+01
7.108826668692459272e+00 9.312554299463050356e+00 2.417812121560124794e+01
9.013296447123117616e+00 7.604444915551924034e+00 2.490600168049535412e+01
8.354429942091506689e+00 8.365233166464296488e+00 2.464012723524140469e+01
1.058718978697137914e+01 -9.409657045555934740e-01 2.487279826765416146e+01
9.826799994138083250e+00 -2.751700181829655811e+00 2.387319903734592330e+01
6.565315731286390566e+00 9.955619744693620987e+00 2.412695070496094374e+01
1.027732508491699015e+01 4.186959213060444718e+00 2.518529984214118045e+01
1.110873290857846740e+01 6.430579664568265574e-01 2.561298349113536688e+01
1.096264970939374450e+01 3.097601515395660421e+00 2.572435865999935700e+01
9.614644512551523192e+00 6.194009651333098887e+00 2.497449649876147149e+01
7.922588594242111704e+00 8.660571720282188579e+00 2.444695013809570838e+01
1.070918320223372611e+01 -1.849417585437511891e+00 2.494948295856663023e+01
1.031090930263786021e+01 -2.760604024354012864e+00 2.443037862118288928e+01
6.176836680697648241e+00 1.022824287923470621e+01 2.402690722349818131e+01
5.695651555987382153e+00 1.092003755041882229e+01 2.416820224062882971e+01
1.126802541489194809e+01 1.279169788036957467e+00 2.582912993072390506e+01
7.573378438638595611e+00 9.066917157577906394e+00 2.436983293187355670e+01
8.728445190877641480e+00 8.041008478699039230e+00 2.482962155025729345e+01
1.026537212983528313e+01 5.319047693876041372e+00 2.539266838626388534e+01
1.003261093966340134e+01 5.842392252384449591e+00 2.528956724409171386e+01
1.103479511101315858e+01 -9.614607212455428265e-01 2.539097656881574139e+01
1.081928621106582611e+01 -1.368865085175527962e+00 2.511165931652673677e+01
1.015717803589268620e+01 -3.133677314076511955e+00 2.424392106154594728e+01
9.417068513682098185e+00 -3.429575664729270112e+00 2.373346603983737779e+01
5.063381154038145482e+00 1.145596913872154232e+01 2.414921161733353472e+01
1.057696730853611022e+01 4.541001054078728671e+00 2.556133859933790831e+01
1.138267141495645696e+01 9.490667036502187237e-02 2.588467332333899407e+01
1.120873287914421290e+01 -4.332769256876816133e-01 2.563782450678181135e+01
1.124415231650530700e+01 2.344935086250982792e+00 2.591878840341203016e+01
1.142365363105143672e+01 1.804692931325635019e+00 2.605814754626403129e+01
1.099848254291008942e+01 3.860866022849481993e+00 2.586175281381602176e+01
9.789996446282362541e+00 6.911365145531456200e+00 2.537480770103949368e+01
9.489321418794201435e+00 7.616582291457299370e+00 2.534055919510820942e+01
8.238409454300395396e+00 9.085411310489726944e+00 2.489080420172013675e+01
1.079471798062348320e+01 -2.769503396309346055e+00 2.498721218417307455e+01
9.807298474053531834e+00 -3.356613999700219342e+00 2.399744205504699224e+01
6.559637286251471799e+00 1.042048829740210358e+01 2.437496309520098592e+01
6.203376172204110084e+00 1.074942914035929498e+01 2.432593963536981008e+01
1.156952210038418194e+01 6.760193892009493943e-01 2.612816053465269661e+01
1.170153144426223157e+01 1.366755652219568518e+00 2.631724961897585757e+01
1.127169964698863325e+01 3.442703977973514018e+00 2.609141657525150038e+01
1.012572548103517889e+01 6.349767113552766240e+00 2.548915351504616922e+01
7.652720180743195044e+00 9.611886496123391410e+00 2.468826019084453449e+01
9.153667065375838519e+00 8.178848897500454740e+00 2.522650621747380839e+01
8.824099354198285283e+00 8.558939422863963031e+00 2.509335025223125726e+01
1.045086171378597584e+01 5.912145099915667501e+00 2.569799443813635875e+01
1.119720946400359196e+01 -1.607968161636398996e+00 2.553331320567005491e+01
1.099379903987641605e+01 -2.313920933043563721e+00 2.524669924737003157e+01
6.980518436916598901e+00 1.020425145337483741e+01 2.452618119164601396e+01
9.787803653382756153e+00 -3.961335347468595280e+00 2.412164596309526132e+01
1.144876966476161684e+01 2.921153951255603509e+00 2.620740791100079292e+01
1.173903072719329188e+01 2.132943895095938291e+00 2.644205192833594964e+01
1.075641444104872946e+01 5.303893189820073850e+00 2.589340746779809876e+01
1.148292611732663104e+01 -9.819792947056339427e-01 2.590976347214234110e+01
1.080611246456463981e+01 -3.333320367741786416e+00 2.498604888694882220e+01
1.048734283378817267e+01 -3.515407357184864079e+00 2.461440367583929145e+01
5.470044185648564650e+00 1.174176619233698915e+01 2.450728343161908995e+01
6.229917107798581988e+00 1.127064320213341020e+01 2.462498801203878784e+01
1.109233401272113362e+01 4.635426193051829458e+00 2.610828688533871400e+01
1.165695756639484237e+01 -4.539401153004314349e-01 2.615670795950462590e+01
1.142818581378192455e+01 3.967081840594080866e+00 2.632312058163842039e+01
1.030073905216883645e+01 7.067285016139473797e+00 2.588921346732562156e+01
9.965346808104166954e+00 7.628720435680468093e+00 2.577511741308420667e+01
9.629700211121575038e+00 8.190582031885742964e+00 2.566093496489543213e+01
8.923479634734421850e+00 9.239704459018588167e+00 2.549132988008693346e+01
1.149567309898899481e+01 -2.187230972614151447e+00 2.583840216438673565e+01
1.127839947253330699e+01 -2.778400052957048949e+00 2.554389939133144338e+01
8.073635779018186298e+00 9.753248035113575298e+00 2.507921542088006106e+01
6.813094777468713836e+00 1.086192856853079647e+01 2.477546506693856543e+01
1.171322124011432919e+01 -1.595317059072310251e+00 2.613327691577596923e+01
1.184363447184941620e+01 1.275214307723329110e-01 2.640002286770819495e+01
1.165331841932229473e+01 3.497180835494043460e+00 2.649593081308646703e+01
1.213449800789810773e+01 1.454233340087715654e+00 2.680476194765667231e+01
1.063640000000000008e+01 6.505399999999999849e+00 2.600340100000000021e+01
1.094173806000808291e+01 5.897448951218938973e+00 2.619865220587267984e+01
9.293899932515104823e+00 8.752700088724999716e+00 2.554669998991254687e+01
8.552566206983080122e+00 9.727360165915197143e+00 2.543588747485156887e+01
7.732087403603108200e+00 1.015702533820023135e+01 2.500678710963827456e+01
7.396272526372602130e+00 1.045321334175114636e+01 2.492594185125658868e+01
1.121305000000000085e+01 -3.528650000000000730e+00 2.544965000000000188e+01
1.207639933197239301e+01 7.527189224632049314e-01 2.669732877897410717e+01
1.196754776564925038e+01 2.824930913570609992e+00 2.676965839188364527e+01
1.124745664192078820e+01 5.288738766647803402e+00 2.639414645184304931e+01
1.193110000000000070e+01 -1.002499999999999947e+00 2.642859999999999943e+01
6.256452602432120536e+00 1.179174636183306291e+01 2.492397292102374706e+01
6.792419025678284150e+00 1.177605045150728813e+01 2.525709762420731863e+01
1.196797776153307957e+01 -2.181652903902819407e+00 2.641784919193009884e+01
1.158049909763276730e+01 -3.213647834523496005e+00 2.591040871672898405e+01
1.168593671736844009e+01 -2.806482739620206779e+00 2.604232494399704123e+01
1.155274023579463538e+01 4.680896449057606823e+00 2.658936288443631213e+01
1.214494241162598342e+01 -4.760263444335914862e-01 2.669881906560541296e+01
1.214346243327179309e+01 3.462169936656148028e+00 2.703323285964212630e+01
1.225306106984648125e+01 2.213906014810970824e+00 2.701834846225638387e+01
1.240118192190498725e+01 1.060909378389368163e+00 2.707780321841635640e+01
1.185789949133818233e+01 4.073299896376093798e+00 2.678449945814455546e+01
1.074155525839429259e+01 7.073033596215835495e+00 2.628829204549004928e+01
1.042353622085545339e+01 7.548523574884681508e+00 2.616105750528240037e+01
9.908499825129510441e+00 8.449268784034053681e+00 2.599877661633528092e+01
9.356231087040786321e+00 9.297938768601296644e+00 2.584771151093373831e+01
1.217598403061877299e+01 -1.474424792544216656e+00 2.670649676218335600e+01
8.181974380981657191e+00 1.021459155077818082e+01 2.538049243360913110e+01
5.876603123806512841e+00 1.202749039884117366e+01 2.486526377993385140e+01
5.244499349707329117e+00 1.221823466350263310e+01 2.469360986735115659e+01
7.302004339254285270e+00 1.123882364116826693e+01 2.529110425917619054e+01
7.811399999999999899e+00 1.070180000000000042e+01 2.532509999999999906e+01
1.235909362062081840e+01 5.120756106814905451e-02 2.696942833882136625e+01
1.256737873545207940e+01 1.541693050915596164e+00 2.729217756756003155e+01
1.105641251975225714e+01 6.707182882131359491e+00 2.647261332852799853e+01
9.688987839890458531e+00 8.984795992891356775e+00 2.598040376037447174e+01
9.009769627480938681e+00 9.704616348871043741e+00 2.577321401937616585e+01
6.283000000000000362e+00 1.231310000000000038e+01 2.522310099999999977e+01
5.711541345623857069e+00 1.275764540701947780e+01 2.523286276799426986e+01
5.101642200147725070e+00 1.271900895676748888e+01 2.493225080729984100e+01
1.209439927695112260e+01 -2.834629760931585807e+00 2.654188220669176701e+01
1.242897304507298273e+01 2.851150681404971188e+00 2.728192057290224071e+01
1.257284430279962351e+01 5.774534794626173806e-01 2.723953139975744620e+01
1.136191428878819565e+01 6.098838907338629767e+00 2.666795627615708852e+01
1.030950767351688135e+01 8.107694717402445406e+00 2.624564031267316366e+01
1.171354410526248735e+01 5.122496704892373742e+00 2.683942244612476813e+01
1.235591808563769689e+01 -9.409912530097734873e-01 2.691780286778343267e+01
8.437290024204569860e+00 1.049065582304267252e+01 2.570316509412123551e+01
7.826641656699321103e+00 1.121649773963297747e+01 2.564694242264430457e+01
7.841874941907329699e+00 1.173091913667353303e+01 2.596861191473916364e+01
8.182496893814068528e+00 1.096646601815961297e+01 2.573057409480963287e+01
1.252038861968868844e+01 -4.596899993738527979e-01 2.712932817733898005e+01
1.242124944791047980e+01 -1.947084528209804377e+00 2.698482632758228306e+01
1.200422211485998147e+01 4.646885357624753965e+00 2.704523560592331677e+01
1.229612162715742052e+01 4.239009861293390635e+00 2.726451889132684059e+01
1.271448950552860246e+01 2.240118956822510832e+00 2.753061338472056718e+01
1.278644092526807619e+01 1.103321665154819886e+00 2.750943986057246704e+01
1.175621812740760319e+01 5.659609266376119052e+00 2.698694353909693078e+01
1.084662355871403605e+01 7.640196488161326904e+00 2.657294706501416570e+01
1.112262444391221727e+01 7.217666429698695651e+00 2.670155386022853961e+01
1.018730008621244920e+01 8.707954755452563589e+00 2.633661858922000576e+01
9.418611955415554959e+00 9.843612997492606098e+00 2.614896342766287418e+01
9.718082311742735513e+00 9.473863399990932521e+00 2.622817204839174110e+01
8.912826668589978851e+00 1.025907304031825440e+01 2.595731465921520709e+01
7.224366426702034438e+00 1.216948279026510527e+01 2.579899214799177187e+01
6.606856939032589082e+00 1.260804613931403573e+01 2.562937151256777568e+01
8.553693277053964650e+00 1.123120418886996319e+01 2.613615745201668261e+01
1.283607129175017469e+01 -1.688711378308409561e-01 2.750471084928841847e+01
1.230595366201558427e+01 -2.429409614760663416e+00 2.682054465332737081e+01
1.263650057493913259e+01 3.648470541216781715e+00 2.757328436055684051e+01
1.147637135756798799e+01 6.908939567965655115e+00 2.694176560833622247e+01
1.188669091216032392e+01 6.351779006258389870e+00 2.725436437050678506e+01
1.008387543090338667e+01 9.216774541239049157e+00 2.641388776401104010e+01
1.260363612923341314e+01 -1.436637666231777022e+00 2.719876809031282860e+01
6.241573989684057189e+00 1.288582175429648125e+01 2.561174608248830964e+01
8.391224322741944519e+00 1.187076560632299760e+01 2.641623525733857036e+01
8.632405114345271357e+00 1.076228108719193699e+01 2.597796424666354298e+01
1.307596186858116383e+01 4.638333479648497626e-01 2.780988167769735853e+01
1.278034285131296777e+01 -8.795398535053504663e-01 2.740655280140203587e+01
1.299999985011941206e+01 1.629099630998452009e+00 2.777930081060542733e+01
1.299415657901900900e+01 2.961846702225735761e+00 2.789183247395917320e+01
1.056952661444203301e+01 8.457820605744954534e+00 2.659719272716154137e+01
1.215052111261217860e+01 5.220380095765591477e+00 2.730593001880407300e+01
5.642031653213711806e+00 1.325095422338696061e+01 2.554930912767542495e+01
1.279786161453601778e+01 -1.935524682618231074e+00 2.741816991688801153e+01
1.244246165109332125e+01 4.812559916367365354e+00 2.752526595880918592e+01
1.229700954989609585e+01 5.794617440324146607e+00 2.756696199946216552e+01
1.142396487752437828e+01 7.659154653634175247e+00 2.713425660371776260e+01
1.095175299015219039e+01 8.207686533911370930e+00 2.685776675377788791e+01
1.061484683212965230e+01 9.066189734580433424e+00 2.684182145346385795e+01
9.481060753395897933e+00 1.038988225661651654e+01 2.645054377320413863e+01
9.979722276926723978e+00 9.919206305857985129e+00 2.664874963914371975e+01
9.017377627800689410e+00 1.081054290911236571e+01 2.629335093287932423e+01
6.930910732579579125e+00 1.290317029461759546e+01 2.603588820945095250e+01
6.200144621130096567e+00 1.345859960574674474e+01 2.600042961066518643e+01
8.925343771058436459e+00 1.149626585688391778e+01 2.654223684474188261e+01
7.857106092568151290e+00 1.224526631690432765e+01 2.629023504329248695e+01
1.333906131155078079e+01 -1.172801799505152065e-01 2.808290611134740189e+01
1.320480142734494677e+01 -8.180825878495605608e-01 2.789534167747120108e+01
1.307066977244717165e+01 -1.483738968834066529e+00 2.773565726048812508e+01
1.317491816928827753e+01 2.174274396985706570e+00 2.801357992020826515e+01
1.326310150803093890e+01 1.047981461940209469e+00 2.805232755489513963e+01
1.273440074653625231e+01 4.404741090188731611e+00 2.774460072524640708e+01
1.317129886651489201e+01 3.835904650144395855e+00 2.815777319494475961e+01
1.189617501215103346e+01 7.110622960943656423e+00 2.741074482894834929e+01
1.244333639490511878e+01 6.368221340219383464e+00 2.782770603417478839e+01
1.047838378741930043e+01 9.448530856111846177e+00 2.684695572976066913e+01
7.421665543784139452e+00 1.264019032731517811e+01 2.622240889454573320e+01
5.572523120298884969e+00 1.374426320555748404e+01 2.586575625405200540e+01
8.796367801464569425e+00 1.193270926672810539e+01 2.672140400074754751e+01
1.352478180188609436e+01 3.264709443717910275e+00 2.848217442274565414e+01
1.352620050785097128e+01 4.668679637842731989e-01 2.832535148277538184e+01
1.221106481668674881e+01 6.795952152812136049e+00 2.767246358482680435e+01
1.105710954561289228e+01 8.776404926381621507e+00 2.714320255344537713e+01
1.251860469622181604e+01 5.337432690818864067e+00 2.770483052140116342e+01
9.543422804951234184e+00 1.093539106746892209e+01 2.675170443834145573e+01
8.453359348254254613e+00 1.239164361658276015e+01 2.677280014156173849e+01
1.362871330038293749e+01 -7.567049926556281836e-01 2.838350098891658035e+01
1.343073350703811286e+01 -1.218898117986521257e+00 2.815201117147320886e+01
1.344644895087815506e+01 1.763704499386201663e+00 2.827112475972160155e+01
1.283395696189844770e+01 5.050353050449549741e+00 2.797149922851055237e+01
1.334984497027632777e+01 2.719476758783224035e+00 2.824787049601452438e+01
1.286907467202472155e+01 5.809250101314298753e+00 2.815449532572127467e+01
1.147562919140669457e+01 8.465967431553830025e+00 2.744514592494788729e+01
1.087286622593806484e+01 9.680270739087621479e+00 2.727999469267417965e+01
1.000822354593976904e+01 1.057213596290155877e+01 2.697095880159207226e+01
1.047302335699005127e+01 1.020888029397595531e+01 2.719021213575256013e+01
7.254925897964629833e+00 1.319826256826961419e+01 2.644235853192303054e+01
6.760941211497152992e+00 1.340380679803499042e+01 2.629574659891256871e+01
6.158670194018379895e+00 1.403199718821721831e+01 2.638953356490426216e+01
9.296483502527804532e+00 1.176096280177051767e+01 2.694775788850011011e+01
7.872334178340847366e+00 1.275946740884113773e+01 2.661176767446311331e+01
1.378930055703038171e+01 -1.142464720846347870e-01 2.859837656634995540e+01
1.373586967067512354e+01 1.124445652553706765e+00 2.857146316316763901e+01
1.317294576609821277e+01 4.570573612231637384e+00 2.822497388710862865e+01
1.362137142747740093e+01 2.308892849762778088e+00 2.850540948717611656e+01
1.369988856065397265e+01 3.810470440613771270e+00 2.871670582720178899e+01
1.194902535148324496e+01 7.911545201960760387e+00 2.772086754798309016e+01
1.231585798079628447e+01 7.312247543000939487e+00 2.787958901063443662e+01
1.258951256782583350e+01 6.941234602781773511e+00 2.808818158193806269e+01
1.116228099012224284e+01 9.344122622465540928e+00 2.742813637082095468e+01
9.605756650160888199e+00 1.148065302711340507e+01 2.705272884112968157e+01
8.980380230940507857e+00 1.219616354277279413e+01 2.700255178428046676e+01
1.348335088535838011e+01 4.238568627743264372e+00 2.852494944433752622e+01
1.401213048992015331e+01 5.142605080934501416e-01 2.885814541268992528e+01
1.389289786522149939e+01 1.898308964763189444e+00 2.876294847860974002e+01
1.379157355470700708e+01 3.055816632989510673e+00 2.875164950072812786e+01
9.970253973281664628e+00 1.107320117860364483e+01 2.716861060660402671e+01
5.322279485629606732e+00 1.441293589416244458e+01 2.621024482370577147e+01
6.855151462276235286e+00 1.386822280120557593e+01 2.668721005364045240e+01
8.295096200662428032e+00 1.290919488401587500e+01 2.698174986742852610e+01
7.887568110021566881e+00 1.327393207419656918e+01 2.693346381117750710e+01
1.326094431957264597e+01 6.470245423911057614e+00 2.868314381251329337e+01
1.126749954125139297e+01 9.912099769686774309e+00 2.771319951433017792e+01
1.086775566216841860e+01 1.044043534809439855e+01 2.762337374326830641e+01
1.326110767017997993e+01 5.303835858429408745e+00 2.845721645910704112e+01
1.006758808114113535e+01 1.149800334205061603e+01 2.744356867347888240e+01
1.046766373994979027e+01 1.096923009260981452e+01 2.753346938110413689e+01
7.578738572959583308e+00 1.349316762737990949e+01 2.684857296228873835e+01
8.785732487073232733e+00 1.290686764817889554e+01 2.730446558531654233e+01
9.668100000000000804e+00 1.202599999999999980e+01 2.735379999999999967e+01
1.361173026981474976e+01 4.736496320611425226e+00 2.870560934175666645e+01
1.425926498938454756e+01 1.249187470811522482e+00 2.914721195240385399e+01
1.407171348085131157e+01 2.564291777997425470e+00 2.901162317942041469e+01
1.387498034543074787e+01 4.356185951879571583e+00 2.895121728156783902e+01
1.421553575084685939e+01 3.309556232775380025e+00 2.922933372462251356e+01
1.273559999999999981e+01 7.513899999999999579e+00 2.834849900000000034e+01
1.299821386234159526e+01 6.992188524381007575e+00 2.851578427029420126e+01
1.163442122129593415e+01 9.312719526659009261e+00 2.787197984126972727e+01
1.200187612608706367e+01 8.712467260008175174e+00 2.803099062633811656e+01
1.236888045079422227e+01 8.112951033925000388e+00 2.818980642940475434e+01
5.699011055129062697e+00 1.479528938927245463e+01 2.668858642801914272e+01
6.117220850405733934e+00 1.460505380616608662e+01 2.677840639428979586e+01
9.227049895618524289e+00 1.246630057154674986e+01 2.732914036973746619e+01
8.344099524186860961e+00 1.334775071101790012e+01 2.727977376292396627e+01
1.433934724513030190e+01 2.032913944321256938e+00 2.925477271989852568e+01
1.416332756051667552e+01 3.897570077086170315e+00 2.922280238382440487e+01
1.352395979452195185e+01 5.947734797910046112e+00 2.885068461942783813e+01
7.902800000000000047e+00 1.378829999999999956e+01 2.725509999999999877e+01
6.684760921564270042e+00 1.471459668160488476e+01 2.719636499942686925e+01
7.293687281374437781e+00 1.425151829121141311e+01 2.722572734750318446e+01
5.022149655820502545e+00 1.500688886620887885e+01 2.653989491030842274e+01
9.226233477535206617e+00 1.294192577922492404e+01 2.764843190045703025e+01
9.630394477878169823e+00 1.257830342346198904e+01 2.769783164859548563e+01
1.459913190784198633e+01 1.620154910582093821e+00 2.952845731166277687e+01
1.348009997115456038e+01 7.186006577197066925e+00 2.908818858398118934e+01
1.378694963980351140e+01 5.425275943257084066e+00 2.901820929168876262e+01
1.188702138140297748e+01 9.605685204862275839e+00 2.824763762397606826e+01
1.127357942732676577e+01 1.050539900339213162e+01 2.804459775889646522e+01
1.279706759546926875e+01 8.136959156359070633e+00 2.864819279243402761e+01
1.028362134888671342e+01 1.179918972416659884e+01 2.781412098091531604e+01
1.090425246629491696e+01 1.094706547470896751e+01 2.793610411227857426e+01
9.995244156586251094e+00 1.231550828014543342e+01 2.782350853657912282e+01
1.451902765871134271e+01 2.712435384830861551e+00 2.950552135526884356e+01
1.405020049496391188e+01 4.902300059024568668e+00 2.918590058070063975e+01
1.428681037766143014e+01 4.381950250665926028e+00 2.939659422359000729e+01
1.452348206539625863e+01 3.861464228025333512e+00 2.960734286614285793e+01
1.313430745694167001e+01 7.744290058297907287e+00 2.883824788943942963e+01
1.382798943194981334e+01 6.568599763933315572e+00 2.932679231070918391e+01
1.245327427892264005e+01 8.644210645492043099e+00 2.847890573206242237e+01
1.163450230014817244e+01 1.018021415805125329e+01 2.819952623216556375e+01
6.075800000000000090e+00 1.517769999999999975e+01 2.716700000000000159e+01
8.210418371287223849e+00 1.409861647101632443e+01 2.768754446294785865e+01
7.837815623730622683e+00 1.429442831517495804e+01 2.758647016436547261e+01
5.449769804414177798e+00 1.554024375209800013e+01 2.716143539821359454e+01
9.007288794262343856e+00 1.342453918778055133e+01 2.781377308775669377e+01
1.044233398555657111e+01 1.209523526207687460e+01 2.812739196155937549e+01
1.478579620080418522e+01 2.167518936018645093e+00 2.974659651990820919e+01
1.391139161810442104e+01 5.964246579700472672e+00 2.927876712980404506e+01
1.075875120385012096e+01 1.154872972382014851e+01 2.812807741080669643e+01
7.772774110995480434e+00 1.480100163551597170e+01 2.791813168060871675e+01
9.592700843168319835e+00 1.313043073623373402e+01 2.804175349863476185e+01
1.032263849300710135e+01 1.260523795850992101e+01 2.829357627750784232e+01
1.475979925133806780e+01 3.341757825083218059e+00 2.981777583642727691e+01
1.478349946831216499e+01 4.541598871545086347e+00 2.999156558399745265e+01
8.620501321640109182e+00 1.386137702425270390e+01 2.782625117983074503e+01
7.067923614713342850e+00 1.515408720073466853e+01 2.775015342624699244e+01
6.363073485017073594e+00 1.550717445955997498e+01 2.758217663418377086e+01
1.416379036008960135e+01 5.530175729945893792e+00 2.945507502780473175e+01
1.499609515199012399e+01 2.822097675837030639e+00 3.002818982375200818e+01
1.446564162973457890e+01 5.101924830135551758e+00 2.969160735379302452e+01
1.396202237698951443e+01 7.379994393122391472e+00 2.966067179228738837e+01
1.427739073058947383e+01 6.158103351230729494e+00 2.972427298366085680e+01
5.971059343774098416e+00 1.572773841748871249e+01 2.755682820552319967e+01
1.081768118749940655e+01 1.223414269032700652e+01 2.856024318465694734e+01
9.554993139099661192e+00 1.368276063995006098e+01 2.838580136973950729e+01
1.511660241997637399e+01 3.725392381074235537e+00 3.027798154321924784e+01
1.439084044142497909e+01 6.785199917599123332e+00 2.999311431869023181e+01
8.518411244799764859e+00 1.440931134343835929e+01 2.812051580774807746e+01
7.707751048579980946e+00 1.530743125625206957e+01 2.824969911446163806e+01
1.010253418192163011e+01 1.328888175381392323e+01 2.857475232465674964e+01
9.036702131576587860e+00 1.404603665840838644e+01 2.825315899323652502e+01
8.246210688110842568e+00 1.494377603492150364e+01 2.833610563709605756e+01
6.650493473822533197e+00 1.583681782477864708e+01 2.799756564491382349e+01
7.197369343641079276e+00 1.564059022751497174e+01 2.818482158276043137e+01
1.065007471076662071e+01 1.289500500344403733e+01 2.876370435729397812e+01
1.457913028034159630e+01 5.729775394229501551e+00 2.996066397093347433e+01
1.488086880773289344e+01 5.301446703038196873e+00 3.019705367142822183e+01
1.527906607375447123e+01 4.732187620159591823e+00 3.058900971145977365e+01
1.464469112177721222e+01 6.354213116577644982e+00 3.017585849941979603e+01
1.048239684557229268e+01 1.336142801680641767e+01 2.894093416862986956e+01
1.010772440082486590e+01 1.384933338326331231e+01 2.896010488090877288e+01
1.496416499717990867e+01 6.024193540449417128e+00 3.045433869843414598e+01
1.529605555464147848e+01 5.500949764463777036e+00 3.070245089891842127e+01
1.497965936930550157e+01 6.895514060961362546e+00 3.067045413874203774e+01
1.538872132596624276e+01 6.275633905332060003e+00 3.098197249024358868e+01
1.571123782733720020e+01 5.700449766879612135e+00 3.120784248566298302e+01
1.296084891043296050e+00 -3.498597883111290052e+00 4.501163070632539842e+01
1.834794673249670494e+00 -3.971774806776798172e+00 4.505679942454868581e+01
2.080603215753793034e+00 -3.446524692888303321e+00 4.534816269319636461e+01
1.967806087563951589e+00 -2.918319689195432609e+00 4.549547108627948688e+01
1.385366007685484346e+00 -2.796435605062194352e+00 4.530427252254954595e+01
1.706829863502055122e+00 -2.333863570103254848e+00 4.557472605698350776e+01
1.173815983174601563e+00 -2.259484993351316362e+00 4.538818505931428149e+01
8.018100160045924518e-01 -2.674318000103877768e+00 4.511270763661541139e+01
2.233925361693264833e+00 -2.235178992026600309e+00 4.581280866365523252e+01
1.783884182289539044e+00 -1.771460538446474775e+00 4.578010113548528892e+01
2.683850075697323589e+00 -2.698778089997057705e+00 4.584550753114530863e+01
5.906655263237179376e-01 -2.137229864944477420e+00 4.519682252229749508e+01
9.622657441589010929e-01 -1.722534516469604426e+00 4.547209746972190203e+01
1.333900023721867889e+00 -1.307800024442829168e+00 4.574739800172401516e+01
2.017048916805747716e+00 -1.419279394257886295e+00 4.597118220563015001e+01
3.033664965618439346e+00 -2.170519095129999965e+00 4.613215084837471380e+01
2.700373669560202305e+00 -1.530787544042973236e+00 4.619502399586717445e+01
2.592936351832557662e-01 -1.452590884761820966e+00 4.515217133466257593e+01
7.699413011722074929e-01 -1.014557434713702522e+00 4.550534169356402714e+01
3.444839564705501456e+00 -2.692739830446415628e+00 4.613306654406937213e+01
1.002241633665605480e+00 -6.674179579584047506e-01 4.566659768135764352e+01
1.772151193091223043e+00 -8.639456412610069247e-01 4.601846809291271967e+01
2.455449816723616951e+00 -9.753765104491690652e-01 4.624231938906508788e+01
3.383478697924513945e+00 -1.642259807279035977e+00 4.641879381698774409e+01
2.977050005129660892e+00 -1.109158266536958592e+00 4.640114364610982989e+01
3.755951331932003701e+00 -2.223223103995656036e+00 4.638790884299822892e+01
2.061662831210110680e-01 -7.214078504205934106e-01 4.526336470605609463e+01
2.210525249560864047e+00 -4.199664276042305300e-01 4.628961428419887625e+01
4.181888425829869860e+00 -2.641806493379182275e+00 4.635688329031864896e+01
-1.947150089677466556e-01 -1.033500313069510845e+00 4.499216346150975454e+01
-4.631010491176363875e-01 -1.467958091937335396e+00 4.476764649311852651e+01
1.495359034522215635e+00 -1.681179627027920009e-01 4.597158847623351363e+01
6.702256580324671420e-01 -2.634380576947292774e-02 4.558571044652067883e+01
3.121582437137818911e+00 -5.687202182267283579e-01 4.658803550587204967e+01
3.594271777132450829e+00 -1.161235739296067715e+00 4.661536662882289761e+01
4.067000000000000171e+00 -1.753800000000000026e+00 4.664269999999999783e+01
4.531712822954406583e+00 -2.113687373437355799e+00 4.664350044433182774e+01
-3.576016813607290068e-01 -4.282622823244137678e-01 4.502139067745792289e+01
-8.040079069291653502e-01 -9.258009209645843285e-01 4.469082219275319545e+01
1.027174933106442811e-01 6.991140930870498593e-03 4.530770026740581358e+01
2.648800009354666418e+00 2.391198827393670179e-02 4.656069900054089317e+01
1.988474615236681009e+00 3.311814775219825702e-01 4.627657830939124040e+01
4.002084091713077996e+00 -5.124935810900546063e-01 4.694315443844492108e+01
4.462619097753226072e+00 -1.175277173973582556e+00 4.694735838147249751e+01
-1.138191737687096472e+00 -1.299014073189789897e+00 4.436062631720503902e+01
1.328625466341434302e+00 6.382301205487753704e-01 4.599266262897327806e+01
3.388776947063697476e-01 6.134366241760502714e-01 4.550498546063131045e+01
3.299981267898393078e+00 1.324539732938445624e-02 4.680962664603512735e+01
4.709764165202795283e+00 -1.676232341437239093e+00 4.685645451907624448e+01
-4.237003990360845851e-01 2.300000615021957628e-01 4.507508615599337531e+01
-9.217411336011001044e-01 -1.349242095349536541e-01 4.477925708179860464e+01
6.677807639651811566e-01 9.457419452183509767e-01 4.570831856293497708e+01
2.410480406527454988e+00 6.079898061129277442e-01 4.649534840225094001e+01
3.056810006851601536e+00 4.281158817370947500e-01 4.680372404180718604e+01
-1.145124504222364559e+00 -3.833101932990934380e-01 4.461395062701735981e+01
1.750641163911873743e+00 9.145434698458371203e-01 4.621139842226926930e+01
3.951479781516008316e+00 2.573598050385067504e-03 4.705867556587524803e+01
5.095534771107668170e+00 -2.014540897179484702e+00 4.684249891816602229e+01
4.858086159686694216e+00 -5.969777625673816646e-01 4.725189932799885639e+01
-1.664782458630535755e+00 -9.642719417143297278e-01 4.410032127257890266e+01
7.694661060689611531e-03 1.252899751575309528e+00 4.542430079866474557e+01
-4.897999767434348950e-01 8.882623444274091451e-01 4.512878119856159742e+01
3.632327753073884224e+00 3.875030303295579626e-01 4.701712042191235241e+01
4.602415975957392824e+00 -8.088990221598691549e-03 4.730750952746064542e+01
5.340188345125399749e+00 -1.133425407565640475e+00 4.721831055608580385e+01
-9.881168090273984017e-01 5.230223119635395435e-01 4.483277320207098171e+01
1.231270990743478233e+00 1.313470532327015716e+00 4.600028682200273522e+01
5.702912832469024806e-01 1.620469809963035690e+00 4.571583944270313538e+01
2.818530494263909336e+00 1.011383267823138921e+00 4.673831791927540280e+01
3.464406806295413421e+00 8.319104106755167427e-01 4.704650296281863575e+01
4.179513281419004578e+00 5.792933820742105500e-01 4.726882716518515082e+01
5.352832166529211122e+00 -1.598628016460928558e+00 4.707031008041339248e+01
-1.485699901300841175e+00 1.583198430349654906e-01 4.453720102224212951e+01
-1.857190177606484971e+00 -2.563178468526876586e-01 4.417021121043080711e+01
2.172654396875513427e+00 1.190856913755010460e+00 4.643013307240309473e+01
5.253499999999999837e+00 -1.875399999999993739e-02 4.755639999999999645e+01
5.714820071348190922e+00 -4.933813298476674714e-01 4.753687817915866987e+01
1.934909600306852440e+00 1.773524972976717740e+00 4.636494001154480316e+01
-1.616356167466428961e-01 1.847343987304500779e+00 4.533987996314751001e+01
