-9.040456973067165336e+00 1.595298178357746011e+01 3.867701183530106590e+01
-8.403082748535130264e+00 1.627059301861673646e+01 3.948321610042904695e+01
-7.234277547443676681e+00 1.672112845430288885e+01 4.081477827404453507e+01
-5.672391372855721592e+00 1.638882747707840437e+01 4.206626885039132446e+01
-5.099403066450540756e+00 1.631432394744276237e+01 4.245168800352249860e+01
-2.200355145087847575e+00 1.516009156502833122e+01 4.345129694473921234e+01
-3.808531753142346155e+00 1.623117276706767242e+01 4.313146155087810030e+01
-1.618227406435528204e+00 1.520553511912720168e+01 4.365667197247403664e+01
-2.292897233274191204e-01 1.450289180199476924e+01 4.351465431705190667e+01
3.093217182091527295e+00 1.220309142021389093e+01 4.308728573811271190e+01
1.786479955272372466e+00 1.374185773334193250e+01 4.320230663032838692e+01
2.972374882193684176e+00 1.280763154556467676e+01 4.307962701773070791e+01
-8.784041633799445137e+00 1.636814894992343739e+01 3.882374841508062957e+01
-8.115102230682063933e+00 1.675698979636446140e+01 3.974904914195836625e+01
-7.530788460837116283e+00 1.698247982938065803e+01 4.041435477488860073e+01
-2.441454588670721293e+00 1.628142872512671957e+01 4.366680427078964044e+01
-1.504892082059717362e+00 1.559438148863051055e+01 4.379693385751895107e+01
-5.407884038569522600e-01 1.503019629683735658e+01 4.383009892611276115e+01
1.505375637093798735e+00 1.398135825636323659e+01 4.331926573250432710e+01
3.270182011387461340e+00 1.258379734900677782e+01 4.308802306909598201e+01
-9.390033199458438062e+00 1.612152621904853333e+01 3.813126396470028823e+01
-8.417991639817861582e+00 1.670299501621170890e+01 3.927933136480938003e+01
-7.826938785214686334e+00 1.724356871671251312e+01 4.001000764775371721e+01
-6.903224046611528664e+00 1.711002891491446576e+01 4.110120608642723994e+01
-6.243194653490546919e+00 1.717523824878906780e+01 4.167841411875831170e+01
-5.890362808621132373e+00 1.704241957848260824e+01 4.199982682543393508e+01
-4.098263724835976340e+00 1.664868203060548524e+01 4.304625309238604558e+01
-4.888791313578725095e+00 1.689912058656438987e+01 4.266667673219900081e+01
-1.973083440153845958e+00 1.593782055264513531e+01 4.373195907486019962e+01
-2.869833811853425676e+00 1.667842590299682470e+01 4.355778697441359526e+01
-3.767945482770161725e+00 1.685174705987522970e+01 4.323832170784617546e+01
-1.036644309850739187e+00 1.525093528943197896e+01 4.386182780904280776e+01
9.931407964384071363e-01 1.442012226227983795e+01 4.369376593078423099e+01
3.067608989433974198e+00 1.347430317534075783e+01 4.324126853396336401e+01
-8.177023120919955090e+00 1.714638650337537484e+01 3.948329410140492257e+01
-7.097930257626318351e+00 1.723875043314740552e+01 4.086392475648264622e+01
-7.493075893241381458e+00 1.758650151570290987e+01 4.032412304996571351e+01
-4.387996468652843873e+00 1.706632385840531541e+01 4.296431885640360093e+01
4.508193865014670787e-01 1.458879009819081674e+01 4.376659457043437129e+01
-4.505241212764294484e-02 1.480952198897451311e+01 4.379836033275366702e+01
2.077758161094417577e+00 1.408279587908863562e+01 4.354809794534394740e+01
3.330356524427830145e+00 1.320991720068761666e+01 4.328216418833301304e+01
-8.877100582652531102e+00 1.695204172629899020e+01 3.842921589313451136e+01
-5.317609660730005849e+00 1.696819915634051412e+01 4.238437726112049830e+01
-8.527083534036238532e+00 1.704920920319219846e+01 3.895688077354441958e+01
-7.595743932408358212e+00 1.775930444100050565e+01 4.010226679065836919e+01
-6.572268761382011881e+00 1.749873862813528191e+01 4.138732888286298817e+01
-3.298689815847180018e+00 1.707593600694992020e+01 4.345211012920601235e+01
-2.658813213241041584e+00 1.690387164545361998e+01 4.366781342826418921e+01
-1.785211486642894085e+00 1.635279855164376528e+01 4.383760947142842923e+01
-1.082989561247644117e+00 1.583750834722779111e+01 4.393513714978453777e+01
-4.605400474275849754e-01 1.532168239052909087e+01 4.398522069591471961e+01
1.535967612025270324e+00 1.425129792933051931e+01 4.362086487174344995e+01
2.614437347345925922e+00 1.392603384495416030e+01 4.352694041542616787e+01
-9.281629174868461618e+00 1.678759610636294752e+01 3.796289370763428650e+01
-8.573719504971272443e+00 1.736919143028012158e+01 3.869976330133934539e+01
-9.739843303406992447e+00 1.629019667114724257e+01 3.758507982039969164e+01
-7.896551282229268942e+00 1.772399333206264416e+01 3.962582184584689315e+01
-8.269822905467847818e+00 1.778701865700570650e+01 3.897077865753706050e+01
-6.961638922504145732e+00 1.775576794439992057e+01 4.090936210791326744e+01
-5.888230217117050636e+00 1.775467213667161914e+01 4.199381412399632296e+01
-4.677754275561323283e+00 1.748414852301294076e+01 4.288181963291194876e+01
-2.293650488069532312e+00 1.715880794641060092e+01 4.378194681935568866e+01
-3.727010491841348028e+00 1.747301908596481823e+01 4.334848475387924793e+01
-4.202780563994287455e+00 1.747858801155223674e+01 4.311498560881804565e+01
1.134668301306930971e+00 1.466752844326636485e+01 4.391475999634937466e+01
3.688443766124321677e+00 1.361232046193077849e+01 4.348459528692567488e+01
3.151204045799819831e+00 1.376924594803360158e+01 4.350577776222739601e+01
3.925301791262223450e+00 1.276213757268025262e+01 4.329893714742050292e+01
-9.046580465535200233e+00 1.716126226930501986e+01 3.793470515005324017e+01
-9.685673883177429389e+00 1.662334384519538233e+01 3.749602181815162538e+01
-7.159156832463357212e+00 1.792946464776270332e+01 4.063843997412357822e+01
-6.240988388493209804e+00 1.788772594828688867e+01 4.166998079561948032e+01
-5.535349656064874502e+00 1.762157240823808024e+01 4.231676371703201056e+01
-5.106499840709376237e+00 1.755285189216296615e+01 4.259934057395301465e+01
-1.711421065249106199e+00 1.679148990409136388e+01 4.389535769674554899e+01
-1.129110848472368200e+00 1.642415138325216262e+01 4.400834689831786761e+01
-5.222024661383625199e-01 1.610403150650913773e+01 4.408300937494443161e+01
5.716678980988023628e-01 1.502603721105299783e+01 4.399939546221361297e+01
1.158552749252047542e-01 1.539246294909126078e+01 4.410866754880809282e+01
2.290223679958562908e+00 1.445372403070728495e+01 4.387945523594979846e+01
2.658718370209320447e+00 1.414321719084499662e+01 4.368138932410974462e+01
3.887654095293561429e+00 1.319144913974123945e+01 4.341270978301648142e+01
-8.779176258112224573e+00 1.747531847176208686e+01 3.819011393101328622e+01
-9.215952452118621352e+00 1.737035088488936196e+01 3.744044436592315606e+01
-8.475616415660693903e+00 1.789233799133376834e+01 3.846063610662606180e+01
-7.364507590890282174e+00 1.827500575718407561e+01 4.019495592318327226e+01
-6.533400241874645076e+00 1.808014701463253715e+01 4.131091516329911428e+01
-2.875873784115546172e+00 1.752615263465372664e+01 4.367351492823119941e+01
-1.584302686409038818e+00 1.671129725829969814e+01 4.392004700026797082e+01
-4.198001784033810857e+00 1.787705637741779441e+01 4.322060616522590237e+01
8.488507687303784022e-02 1.578383466394966206e+01 4.415759082404535008e+01
1.819170692270568157e+00 1.474633981011702666e+01 4.406305351331779718e+01
-8.949750980435977610e+00 1.758204315822058561e+01 3.777851738012645200e+01
-1.008991441273459166e+01 1.645900950667778062e+01 3.703841336171792875e+01
-7.966133384186687927e+00 1.820452669061355166e+01 3.924208516684966952e+01
-6.825355281151179732e+00 1.827227213939741546e+01 4.095272604862397969e+01
-7.549668536211928682e+00 1.849759350115497014e+01 3.976498827769187017e+01
-4.967059026540177058e+00 1.791752142715024831e+01 4.278275805820856448e+01
-2.245776100228226824e+00 1.761118969101058340e+01 4.381468613207911034e+01
-3.482447050138366862e+00 1.791848138486152209e+01 4.355163224888575257e+01
-1.501416814005369860e+00 1.681984769323647910e+01 4.394274305277408388e+01
1.296033748975977451e+00 1.525057246599941152e+01 4.422521654025282345e+01
3.239683018404937886e+00 1.420363783744087094e+01 4.381466857055931996e+01
4.203970762263290695e+00 1.344766573308350566e+01 4.356311271417530406e+01
-9.822196010216767803e+00 1.712374942174761472e+01 3.674073835687052281e+01
-8.171995886851490809e+00 1.830970565198459710e+01 3.873178895564058166e+01
-6.265921858144354317e+00 1.838524544013722917e+01 4.165455411004362674e+01
-5.677377789674275199e+00 1.808424587337786704e+01 4.225671850889373360e+01
-6.030219157609496783e+00 1.821697183297010625e+01 4.193340324237820482e+01
-1.873631483903091643e+00 1.721551882576723713e+01 4.387682010239302599e+01
-3.908191274987984798e+00 1.789193964281700389e+01 4.338896024838627596e+01
-5.309709540819449458e-01 1.653085514135858602e+01 4.406469453928986724e+01
-5.112835233101705734e-01 1.688114993814611964e+01 4.404361610295917728e+01
-1.089673479632292663e+00 1.712458565519705189e+01 4.396606551112648020e+01
3.797100099794356587e-01 1.605087812471640163e+01 4.417668965694448957e+01
6.926622747947621672e-01 1.546329263095543993e+01 4.423219404089095974e+01
2.502993474328265133e+00 1.482507080358729645e+01 4.421118601119574976e+01
1.899351101509084039e+00 1.503787635308964532e+01 4.421821327658554424e+01
4.317537480780717196e+00 1.367796397674023545e+01 4.362348861853549664e+01
-8.681409228473956574e+00 1.799765895276461336e+01 3.795062358837540017e+01
-9.385272371354149712e+00 1.757938403693604812e+01 3.694625286347988435e+01
-9.061589544926398787e+00 1.782324960713643947e+01 3.736842546671875454e+01
-8.377804033766857117e+00 1.841485570062963006e+01 3.822166113911360696e+01
-7.680734225848568464e+00 1.864089726545477887e+01 3.938201496960676451e+01
-5.256476346305013259e+00 1.835133167874510463e+01 4.268129742391017345e+01
-4.668223976842795331e+00 1.828052951031654416e+01 4.308723756774888614e+01
-2.671623955289731178e+00 1.788422757331984769e+01 4.378143461616389942e+01
-1.667737158454426494e+00 1.736789055321961683e+01 4.388926518635227580e+01
-3.199791920635801645e+00 1.797844131534175816e+01 4.369420754597047818e+01
-4.089341020449805519e+00 1.831105782973972751e+01 4.342930957219874699e+01
-4.216310312997340048e-01 1.684341749249490761e+01 4.405562142105198831e+01
-8.239920462718532956e-01 1.719918806194204919e+01 4.396692604104466540e+01
6.739847242965812946e-02 1.663759876988309472e+01 4.412105878612301524e+01
3.136981714324928117e+00 1.465810054508001414e+01 4.416794225939448637e+01
1.259233727918071200e+00 1.554897891396319487e+01 4.425676949998678822e+01
1.825426163930624623e+00 1.563460465893373019e+01 4.428132731669961686e+01
4.045560129425092910e+00 1.396825057427472849e+01 4.378288866734382623e+01
-6.558028617887965872e+00 1.857733227638909668e+01 4.129633634824197230e+01
-9.554514873334051472e+00 1.778832862918629942e+01 3.645219242147408778e+01
-7.827502374639463412e+00 1.884864523756731813e+01 3.890542494506401283e+01
-7.133245402714116778e+00 1.879060946124445763e+01 4.028781382465236049e+01
-2.597800858811293523e+00 1.811995916446731414e+01 4.388267622673368606e+01
-1.714543466824541618e+00 1.776030416356942609e+01 4.381728061914640193e+01
-2.332175571635368705e+00 1.819451667266115535e+01 4.388400532518677011e+01
-3.523396685088837632e+00 1.843038601596002124e+01 4.371485416774538635e+01
-1.269299990887952756e+00 1.747975901103086471e+01 4.389125785284247172e+01
-3.783916807739655663e-01 1.691844675402478870e+01 4.404406356456741634e+01
1.229067069367005383e+00 1.617901148951433754e+01 4.421352844465001652e+01
1.810404901612465034e+00 1.594952454790519880e+01 4.425973071007729942e+01
2.447092049328164265e+00 1.527276231160272957e+01 4.425857453178779366e+01
3.821294280405725274e+00 1.426412452405997122e+01 4.394808335691162426e+01
-6.709466087713509275e+00 1.880668230314526568e+01 4.099251564744697163e+01
-9.230924601530215767e+00 1.803219377431163650e+01 3.687434459947257892e+01
-9.767355175496019726e+00 1.744668741323452466e+01 3.592148570070956737e+01
-9.963533971172539694e+00 1.698625929213860530e+01 3.602599027872842896e+01
-8.907212779567796446e+00 1.827614722876565168e+01 3.729482761787927814e+01
-8.136370183350731367e+00 1.900595498139248818e+01 3.814027252399116463e+01
-8.583621269726490866e+00 1.852000953795514704e+01 3.771157121978870208e+01
-7.121472525120154273e+00 1.915201353275947938e+01 3.997511379535184517e+01
-7.395351057334882405e+00 1.907720595544916620e+01 3.952193243817639967e+01
-5.819062947828883559e+00 1.854651409208635471e+01 4.219782617610383113e+01
-6.290642053024907199e+00 1.888231509257250096e+01 4.163999038866076319e+01
-3.097525220454779404e+00 1.815731078760347827e+01 4.374815582999285368e+01
-1.109313827786474471e+00 1.800784277831423807e+01 4.376880564369248816e+01
-1.520107831329921444e+00 1.830853310732935313e+01 4.388010096285254491e+01
6.478903958527961748e-01 1.640843785746728756e+01 4.416729728940802602e+01
3.574636628088236068e-02 1.727119037027888382e+01 4.394981349631368062e+01
-5.478263990106388981e-01 1.743426747972376489e+01 4.390529143875399853e+01
-1.131189023510349667e+00 1.759728678044240624e+01 4.386131866218021003e+01
1.600027779138720296e+00 1.653645153427748582e+01 4.412979013620195445e+01
3.159989910797994739e+00 1.487331139488445864e+01 4.421405195582216408e+01
4.403156997179167753e+00 1.432463680868789524e+01 4.408154373599001019e+01
2.911910108932049379e+00 1.553264042445127480e+01 4.428437933361535528e+01
2.391367920074304543e+00 1.572019073131804134e+01 4.430587309490066161e+01
-9.177375168963715524e+00 1.839775995757323912e+01 3.620253048361730208e+01
-8.949176118885720399e+00 1.844492200474404342e+01 3.678425269947009468e+01
-9.518455159361810303e+00 1.785152459620456256e+01 3.579771115474832044e+01
-9.980651716127528772e+00 1.710430846082003598e+01 3.538934782995230677e+01
-8.655457247580017111e+00 1.868262739648521986e+01 3.712484044440950015e+01
-6.863503362869702862e+00 1.906583185071058040e+01 4.065992269764423384e+01
-2.028123371687771570e+00 1.833511021345359637e+01 4.396142234516811698e+01
6.357528203355476970e-01 1.679107259483205183e+01 4.408129148563957500e+01
4.682253817761129061e-02 1.747655045837586485e+01 4.390312985688559877e+01
6.199273902258014557e-01 1.710794444066517173e+01 4.399567439656016177e+01
6.252834389155105255e-01 1.721073293764834844e+01 4.397231893993831875e+01
1.995623702190975735e+00 1.612837345252860288e+01 4.421787139931758048e+01
1.204394412695974914e+00 1.694462121730692061e+01 4.404146083474903151e+01
3.770356917189216173e+00 1.449129261018835635e+01 4.412472866378879388e+01
3.816854814437401267e+00 1.492154076356848869e+01 4.421691723991781942e+01
3.432458174948180396e+00 1.534509063851030852e+01 4.426286808771708081e+01
-6.593398812016595834e+00 1.934136155729273199e+01 4.103246073697330587e+01
-9.718889225475381366e+00 1.752941539223962053e+01 3.535075647359361994e+01
-8.304370178755778653e+00 1.920400656297103126e+01 3.742633285020679068e+01
-7.399264768350653831e+00 1.950294890013876881e+01 3.911575672763726175e+01
-7.689025244008828253e+00 1.949197467320056631e+01 3.856917980441431126e+01
-7.109678455785540585e+00 1.951391292553600820e+01 3.966198442924124379e+01
-6.906296957418459392e+00 1.933762703204861211e+01 4.035726452446874646e+01
-5.312515589206101563e-01 1.774219718850069683e+01 4.383593503196438945e+01
-2.949791405018053148e+00 1.862873003409719530e+01 4.395249292004044861e+01
-2.341686203204933037e+00 1.890991425103623058e+01 4.410957941031863072e+01
-1.930898278042752603e+00 1.860922328476844356e+01 4.399503463195519259e+01
-1.405288445665124231e+00 1.864621717525004385e+01 4.395164856153672162e+01
6.066733563141459840e-01 1.769018107401003093e+01 4.379594359798534953e+01
1.776481453761012963e+00 1.676670504840521048e+01 4.405983365704529575e+01
2.348263946068311903e+00 1.658888478762789376e+01 4.407814563841116495e+01
3.506460756284969449e+00 1.594370367470731686e+01 4.419054449336212542e+01
2.948832422141556719e+00 1.583193251762327236e+01 4.424822035695313360e+01
2.920234345454997715e+00 1.641100485680667376e+01 4.409642742456821907e+01
-8.727406980671091219e+00 1.884550086360606258e+01 3.653724448295758975e+01
-8.495176235570971457e+00 1.912868149055492850e+01 3.685685098277573957e+01
-6.894329034909215004e+00 1.969976138164016177e+01 4.004433609853984422e+01
-5.373191229407895397e-01 1.790195608753717949e+01 4.377787324601784746e+01
-6.297313918751353823e-01 1.812533560901028906e+01 4.380876521760914244e+01
-6.671847619477103697e-01 1.859008249218918607e+01 4.394559072867333072e+01
3.467620835189255679e-02 1.779606871808706003e+01 4.378691999573205607e+01
-1.501474515456036607e-01 1.824282876773646578e+01 4.384930293975084936e+01
4.474104078502397996e+00 1.496979669115253309e+01 4.421978405913846899e+01
3.952967494615617472e+00 1.515755511347291140e+01 4.424134477725787917e+01
4.268729726834683547e+00 1.551292816286366083e+01 4.417638292978961090e+01
-6.950366290386771340e+00 1.995649936668457869e+01 3.938258462955823092e+01
-7.240079386899691549e+00 1.994540360815573976e+01 3.883630425233346273e+01
-9.279896528808217582e+00 1.823772864530617355e+01 3.554795053218376921e+01
-9.482387235415510318e+00 1.791472383526854983e+01 3.514320504833329295e+01
-9.819848159551609612e+00 1.737038404893042554e+01 3.467330929059617262e+01
-7.856966174942733971e+00 1.969037188830070662e+01 3.785484097164610517e+01
-6.823482477633108445e+00 1.998941602345050583e+01 3.976927491989313523e+01
-1.701255666914584852e+00 1.928459139398773203e+01 4.413698409208675599e+01
1.178672331848003463e+00 1.758429124498061213e+01 4.380508212853929706e+01
4.680585221485820679e-01 1.802524976344769314e+01 4.384328528461459484e+01
1.763834050512854246e+00 1.715866437641882669e+01 4.393328946724736994e+01
2.322748782980501581e+00 1.737250371013306349e+01 4.382520078838219746e+01
2.757724477229049231e+00 1.704341046428770312e+01 4.390223603522739637e+01
3.192636149727882344e+00 1.671437558782121258e+01 4.397912070117556027e+01
3.492167804222714445e+00 1.623313889405382682e+01 4.411467993512690100e+01
4.063708451653816667e+00 1.605539618872244745e+01 4.413289871311656754e+01
-7.435201025982656198e+00 2.005439039874751828e+01 3.830511614857334735e+01
-6.791164699339969246e+00 2.039877791144880703e+01 3.910340336452045307e+01
-9.015016337087331522e+00 1.866502405408638765e+01 3.546434722461454925e+01
-8.799411425374135121e+00 1.900850126262969297e+01 3.594929623300969013e+01
-9.230871668630451055e+00 1.832114496411037408e+01 3.497603565097893608e+01
-9.446304998715715939e+00 1.797793672078435634e+01 3.448854733163955899e+01
-8.698883840391141931e+00 1.901898254309807612e+01 3.536630466818937180e+01
-8.906163038545972910e+00 1.869970222637849133e+01 3.495935656193806551e+01
-8.024829048876762627e+00 1.988867972472086976e+01 3.714084993676106450e+01
-8.282958033821266497e+00 1.959536465779217451e+01 3.674361718457452497e+01
-8.541371383050853083e+00 1.930172277988986451e+01 3.634606140115946715e+01
-6.678866168285146898e+00 1.988568488159787506e+01 4.042684998497200155e+01
-1.184220802778315651e+00 1.893733765592295981e+01 4.404138126690120458e+01
1.086269789933733909e+00 1.780767283665479894e+01 4.383726214077880456e+01
3.628231566826056298e+00 1.638483582597388022e+01 4.405604548609148452e+01
1.750672620000081725e+00 1.747840506467091259e+01 4.381516150099012918e+01
2.983929093248025577e+00 1.720253103266779959e+01 4.381465644548755733e+01
-6.986173003866793074e+00 2.050785066333097362e+01 3.857234856867093242e+01
-8.972253382902792396e+00 1.850871508293509393e+01 3.434582020086777732e+01
-4.548009980201345726e-01 1.874743256463072427e+01 4.389751708979321876e+01
-7.594540206903520607e-01 1.925203551917705624e+01 4.394503176460909799e+01
-1.064106183408094042e+00 1.975663854636026429e+01 4.399233567714973248e+01
5.188561675822757069e-01 1.815745954035660858e+01 4.381883677959292100e+01
1.704489112721105482e+00 1.759009432441310494e+01 4.383123382200761142e+01
4.649885841385202667e+00 1.581677015288704702e+01 4.407820279514872652e+01
3.645053247838168087e+00 1.703257390684326467e+01 4.380406716462945127e+01
-6.537136555247683667e+00 2.046513640203950501e+01 3.987662281705602396e+01
-7.181289574703239253e+00 2.061698860537847366e+01 3.804097588101050320e+01
-7.603080085580834258e+00 2.025282169896307494e+01 3.759089591943212127e+01
-8.598306596001773272e+00 1.902946859239775179e+01 3.478303121916055574e+01
-8.330397184607962302e+00 1.952007636031419224e+01 3.576211011018183683e+01
-7.618079952769504892e+00 2.035350943442881189e+01 3.694361324618519404e+01
-7.943241056904090769e+00 1.996001702128135946e+01 3.635824996247179541e+01
-7.861633179912955072e+00 2.003137156387370865e+01 3.557545821624277238e+01
-8.394402807402668643e+00 1.933652275249041352e+01 3.516495781023707679e+01
-7.307392868539164255e-02 1.915103673039993737e+01 4.395288893818509024e+01
3.839050921043877240e-01 1.839413470459679800e+01 4.388135264096322885e+01
1.187859692977589976e+00 1.807209036917905109e+01 4.378836262490616349e+01
4.585582738398406910e+00 1.621124904367256292e+01 4.401257964633993680e+01
4.306179285409421631e+00 1.686261390587647924e+01 4.379344419340645800e+01
5.107243447969972650e+00 1.636703531673128609e+01 4.389230456020451498e+01
2.525870830642076292e+00 1.790135100097468879e+01 4.372739370093185585e+01
1.856864569529105724e+00 1.798672106850068175e+01 4.375788132558400889e+01
3.093329659567677137e+00 1.755156052563863511e+01 4.374580503423193534e+01
-6.743289091282459680e+00 2.089899483965820792e+01 3.835790846423527967e+01
-6.548526596558661872e+00 2.078944430604387605e+01 3.888931484365491542e+01
-8.497792348106987248e+00 1.903994737196709153e+01 3.420012811035530831e+01
-8.677600604700023368e+00 1.864819457076432485e+01 3.367547804254495247e+01
-6.814062099895701330e+00 2.100291749673558783e+01 3.786215810977773089e+01
-8.073528415894749344e+00 1.970114472192731370e+01 3.511719974157709601e+01
-8.285640033170057706e+00 1.937057835954761131e+01 3.465858854316660853e+01
-7.536401007660647799e+00 2.042495402054167286e+01 3.616107033131093829e+01
4.224421609978265546e-01 1.884823620130514854e+01 4.393308253717157896e+01
-5.685899153744975454e-01 1.945383931902528474e+01 4.397263134510407667e+01
9.179582693591152864e-01 1.854543538731655161e+01 4.391316098503676812e+01
4.452057462122578357e+00 1.732797686853976771e+01 4.370169448198053175e+01
4.967330876797439565e+00 1.669265074271483584e+01 4.378279327852098390e+01
3.194876590373557868e+00 1.781598200097317530e+01 4.369690023536241341e+01
3.863884293897702271e+00 1.773061213784456314e+01 4.366640164206773278e+01
2.096322477640174764e+00 1.821950736219191569e+01 4.381448739591657215e+01
-6.195167605279796597e+00 2.103519846968569951e+01 3.942328442734942939e+01
-7.196310129303007841e+00 2.071766206551114209e+01 3.739368003396175055e+01
-8.294453496108648238e+00 1.899116561066979614e+01 3.363054221661299437e+01
-6.305373798982564004e+00 2.118093804993693396e+01 3.867502107411429080e+01
-7.903033278591069077e+00 1.970327157208930657e+01 3.466816766923390958e+01
-7.694498581880623078e+00 2.000662232124633277e+01 3.505202608856644986e+01
-7.211329982352735257e+00 2.081833447625242428e+01 3.674638105628438467e+01
-7.304466850698437597e+00 2.044098443601209070e+01 3.545086659292845610e+01
-7.928945003670424541e+00 1.949855098999991654e+01 3.410232178791831359e+01
-7.527224778060799260e+00 1.998185217505869460e+01 3.452815697115946136e+01
-1.427291957862009686e-01 1.987234718698858416e+01 4.371862774224229753e+01
-4.964853648821142551e-01 2.031489190368451503e+01 4.365359106222231134e+01
1.507139660997928177e+00 1.838247151527357204e+01 4.386382827605034151e+01
5.040245980441439677e+00 1.692534075020983053e+01 4.373692756653958469e+01
2.685507893092423437e+00 1.805654237145801133e+01 4.376513695173822072e+01
3.274695190406082368e+00 1.789357728729958907e+01 4.371577564381922087e+01
-6.376247604061192398e+00 2.128485666660175823e+01 3.817888603215008914e+01
-6.979278191268607046e+00 2.083467507609294955e+01 3.603710436306416653e+01
-7.913143682501361020e+00 1.926751412768456717e+01 3.348674574213973898e+01
-7.360148155615091170e+00 1.995711094115996787e+01 3.400490449407229221e+01
-7.535805098304441785e+00 1.960284734417750840e+01 3.350022511819241799e+01
2.108492778226742914e-01 1.943002378495977567e+01 4.378358606531539010e+01
5.643977134321386258e-01 1.898773796829020455e+01 4.384845710715384826e+01
3.593294695208473777e-02 2.001106607819981065e+01 4.366000922583846489e+01
1.565921965463258791e+00 1.848858738168917171e+01 4.384384304779767660e+01
1.633084156497089490e+00 1.909964425605918947e+01 4.367913503134421660e+01
1.100515306348889055e+00 1.940355702932280124e+01 4.367278810847005843e+01
5.037075221598693808e+00 1.752113676666056108e+01 4.351809810082538377e+01
5.628468820796300065e+00 1.652269031951393430e+01 4.377212214156079284e+01
5.624135919179047427e+00 1.741631640862291519e+01 4.344387080934129841e+01
4.450452930899093218e+00 1.762588048543232944e+01 4.359225932064856579e+01
4.394001330134089223e+00 1.786940476748396023e+01 4.358694096163748810e+01
4.158224230750565020e+00 1.826114870972253357e+01 4.356652235449551824e+01
3.510129333756871084e+00 1.831801107483224200e+01 4.363585445822998565e+01
2.861850980489962559e+00 1.837488860599586715e+01 4.370520626856126256e+01
2.213886969065806287e+00 1.843173918922721910e+01 4.377452428897008474e+01
-8.475983882512482026e+00 1.863197421639090479e+01 3.318627832843478132e+01
-6.829225664594165579e+00 2.110345607566967630e+01 3.721485522493042453e+01
-6.447025793528132986e+00 2.138864316219216732e+01 3.768347241668598713e+01
-7.325736803258954488e+00 2.025534287964829616e+01 3.489586640783152660e+01
-8.091160854568858696e+00 1.894239402786088888e+01 3.306113359587407530e+01
-7.084042542219271432e+00 1.990090501059445316e+01 3.347953966423946781e+01
-7.155784901384816266e+00 2.025490710240002912e+01 3.444503918667593467e+01
-6.691349915622865296e+00 2.035815004725508004e+01 3.394086987832824320e+01
5.683679590402399562e-01 1.970722805299737956e+01 4.366641231137936074e+01
1.206067400360167685e+00 1.955558344244649760e+01 4.354085189111080467e+01
2.269480055881051950e+00 1.894109416277497004e+01 4.363730377242730896e+01
2.289023122314784775e+00 1.906452588713416318e+01 4.357261486775082204e+01
2.905722647529814129e+00 1.878258229055290940e+01 4.359547553301135991e+01
-5.692246376761954885e+00 2.155884361478501177e+01 3.908590792326624097e+01
-6.050639327471129647e+00 2.157778890318737908e+01 3.804106325459765969e+01
-6.281997344574203446e+00 2.146569835695794737e+01 3.709239143320713339e+01
-6.664275162455925994e+00 2.118043645656779361e+01 3.662343843940153931e+01
-6.746674868382406487e+00 2.085105332818885771e+01 3.532613647869354168e+01
-6.951293712818276127e+00 2.055288864294949391e+01 3.488545179413216601e+01
-6.505086703387489067e+00 2.082054827279507947e+01 3.484298583874539901e+01
-6.115821226209026129e+00 2.120287371313806801e+01 3.525409332115242478e+01
-6.431725345603801713e+00 2.119692983663552610e+01 3.591319966728725177e+01
-7.711682618773728848e+00 1.924813726254941670e+01 3.299513225465469191e+01
-6.629762544916530054e+00 2.013905037522289376e+01 3.335899275968709077e+01
-6.191844064730646302e+00 2.043560121837263210e+01 3.339348320674170623e+01
-6.263639248601793774e+00 2.079006069311772009e+01 3.436012149139891392e+01
3.524796225588415211e-01 2.046698390813108759e+01 4.326429721779697957e+01
1.717558064272320939e+00 1.962365872603857042e+01 4.329470286672706436e+01
4.924501770621853680e+00 1.800829738144329184e+01 4.350739175310386031e+01
5.455533885697829710e+00 1.814732869226432754e+01 4.342773799816810509e+01
4.806512842571851074e+00 1.820427036552612421e+01 4.349716941043029550e+01
4.181070366730293308e+00 1.846484543260864442e+01 4.351160352424096089e+01
3.543150779030494135e+00 1.862377427794592677e+01 4.355356106180049380e+01
2.203576964654031300e+00 1.955980125257950419e+01 4.324231596640331077e+01
-5.654158767894752025e+00 2.176697766422142166e+01 3.839663407807008610e+01
-5.959768847055325836e+00 2.169178463655271472e+01 3.757757521360109365e+01
-6.079655534898713576e+00 2.103190882845661136e+01 3.472300590181084345e+01
-7.259690647489143167e+00 1.954639481851062044e+01 3.297444534150163520e+01
-6.807700890751942069e+00 1.984465080424948269e+01 3.295379832586948510e+01
-6.021953517742827167e+00 2.075954301215229592e+01 3.387678933210094812e+01
7.796078723264632249e-01 2.001092986613481273e+01 4.340269654902972718e+01
-7.432672636203833949e-02 2.092269957918313139e+01 4.312597790697444111e+01
1.176515425656137870e+00 2.040596838160521997e+01 4.298220416773972374e+01
5.938466352259974101e+00 1.788576156523707184e+01 4.337603233920945911e+01
6.211493002779381101e+00 1.731144126157184360e+01 4.336959736344769567e+01
4.818349803777780771e+00 1.830607677516897525e+01 4.346967483352521811e+01
4.255872960870702215e+00 1.895922010404547819e+01 4.325321286180166425e+01
3.599907132078985050e+00 1.899434104323604444e+01 4.335973673903865233e+01
2.901711019855426343e+00 1.942376765719519582e+01 4.319814361142859838e+01
2.944383189398155132e+00 1.902943735728671726e+01 4.346618948132668692e+01
-5.794561474555703917e+00 2.176896027437930670e+01 3.698661934466246493e+01
-6.116712274468778965e+00 2.154287241007946818e+01 3.650040016276388855e+01
-5.800717533014943861e+00 2.154873387722451739e+01 3.584079210023495676e+01
-5.664082909908769281e+00 2.128958137753928881e+01 3.474700365494912546e+01
-5.485155608035058528e+00 2.155458650903776530e+01 3.518208740320913108e+01
-6.361565389267680004e+00 2.011198082540483512e+01 3.291071176277087318e+01
-5.679389100275765934e+00 2.071739594073100577e+01 3.338552979927515452e+01
-5.077058081160794600e+00 2.201559984241310985e+01 3.886556322291838228e+01
-5.563661588665086200e+00 2.188073930376308951e+01 3.793497649548852024e+01
-5.473127242540565263e+00 2.199454162373165644e+01 3.747227851948351685e+01
5.512421030579420789e-01 2.066427323743003441e+01 4.305407764261978087e+01
6.912929980311203204e-01 2.106870558493865175e+01 4.260491952270313476e+01
1.802015767834975302e+00 2.014756971357019211e+01 4.291029453427717044e+01
6.420768422477794779e+00 1.762453860338136025e+01 4.332439415707295183e+01
4.912553541527424628e+00 1.892406060776816901e+01 4.314657291319655741e+01
3.697850016518296812e+00 1.959295840848642811e+01 4.292027538086737337e+01
2.434807797742184921e+00 1.996245149996677526e+01 4.291362834303847507e+01
3.066487983822978602e+00 1.977765878831740665e+01 4.291695378119440818e+01
3.713360799244787902e+00 2.015351462618803424e+01 4.243788505548249645e+01
3.076868691908007492e+00 2.015153516081772267e+01 4.259520091925729446e+01
-5.842889096154191719e+00 2.102475365580444944e+01 3.431221030327954225e+01
-5.243500667869074761e+00 2.200807418053766185e+01 3.832035095852105400e+01
-5.152956250280799289e+00 2.212186057408072415e+01 3.785879314568555287e+01
-4.947210372655373334e+00 2.225423992072656532e+01 3.742612399311360605e+01
-5.201452875805790299e+00 2.186744352528954494e+01 3.577461835832271220e+01
-6.531276889046797152e+00 1.978837989049539203e+01 3.242805897053288078e+01
-5.849205285528559450e+00 2.039361616321313164e+01 3.290250734579490199e+01
-6.983379074366500738e+00 1.949008280470511423e+01 3.244889295435787346e+01
-5.195470024511954499e+00 2.208733786303703184e+01 3.691949500845716869e+01
-5.516911718400540288e+00 2.186170244691334474e+01 3.643353523718680265e+01
1.354833418921594090e-01 2.152964477893594619e+01 4.245209022485956041e+01
1.246556968540347032e+00 2.060821903473343752e+01 4.275758740149194637e+01
6.052683023990068634e+00 1.809116217151958494e+01 4.326945430163209494e+01
2.439845550464135204e+00 2.014955444779691263e+01 4.275264753676350438e+01
4.329180559598037270e+00 1.940826776146148092e+01 4.292359335302107581e+01
1.737825632110434393e+00 2.058062202907052907e+01 4.256637527994119097e+01
-5.344971847926496267e+00 2.126920518623174061e+01 3.429048877929622563e+01
-5.523980166772576084e+00 2.100422147873584322e+01 3.385556158236671109e+01
-5.165960535550554233e+00 2.153418904048232818e+01 3.472541379486805369e+01
-5.181509296223610228e+00 2.096194874543862952e+01 3.336413714389729535e+01
-5.026274185773613290e+00 2.124876696452817271e+01 3.383435084182575991e+01
-4.847060144387457470e+00 2.151380896921035557e+01 3.426916450139561476e+01
-4.387177430159717062e+00 2.240019457739185071e+01 3.877247773327049885e+01
-4.832923332499678537e+00 2.224912234852514459e+01 3.824384714131225849e+01
-4.397084451981045916e+00 2.244537090498896248e+01 3.823151229831434250e+01
-4.626705241746249087e+00 2.238171887687929740e+01 3.781157573218418833e+01
-4.786622435883856497e+00 2.187835369360559667e+01 3.514574241102108942e+01
-6.018690781965343461e+00 2.007004028109705018e+01 3.241960507079658527e+01
-5.336844519040880641e+00 2.067525082516360158e+01 3.289431539270970006e+01
-4.917938099543284203e+00 2.218009123469261112e+01 3.636701630532979834e+01
1.673716118384608320e+00 2.101313131805301637e+01 4.222287711345615691e+01
2.284356563718826116e+00 2.078312917291142625e+01 4.226453321153975651e+01
5.568961818699083466e+00 1.888891703084946982e+01 4.303997647011418337e+01
5.840111623420406239e+00 1.850068688948834605e+01 4.318060946670360778e+01
6.650129008426927335e+00 1.803496416331381624e+01 4.311108925594161434e+01
2.916379587055963007e+00 2.061496949005746870e+01 4.224960115711838426e+01
4.256446190266796492e+00 1.979537258425857615e+01 4.261088128642655448e+01
4.961433172590520968e+00 1.922330764879812648e+01 4.292691228215791455e+01
4.701143299815992549e+00 1.974664485086547927e+01 4.254375429063257741e+01
-4.503089193785241307e+00 2.219102248899202579e+01 3.573812515960311487e+01
-4.683629021528783021e+00 2.120649978213637965e+01 3.334275309675842891e+01
-4.528305866737494689e+00 2.149343816289276532e+01 3.381313328187650313e+01
-4.308276214948715044e+00 2.184786462378717786e+01 3.446163457270854735e+01
-4.088458771695322902e+00 2.220194742887906614e+01 3.510957644653561971e+01
-4.040610115224297694e+00 2.266328588024295598e+01 3.684482257901737512e+01
-4.669346171021095060e+00 2.234711148054341834e+01 3.687357420522916840e+01
-4.420338516887387215e+00 2.251440855077388647e+01 3.737890814950980456e+01
-3.870993978974610616e+00 2.276342076693707028e+01 3.738151031323985762e+01
-4.191036177394456885e+00 2.257787904273197555e+01 3.779868573828105127e+01
-3.962026544118317783e+00 2.264126736868993106e+01 3.822229383934720204e+01
-3.641992000948579111e+00 2.282677814341496969e+01 3.780349705392511339e+01
-3.505985078965669466e+00 2.280671366224248331e+01 3.827256468421995095e+01
-3.645677489304099517e+00 2.270827000255910022e+01 3.879936121867375221e+01
-4.288968414235926119e+00 2.249636637281896512e+01 3.634009099453964353e+01
-3.661191683726723767e+00 2.281204000011304345e+01 3.631117505314919924e+01
-6.685914545348092375e+00 1.942484733303795252e+01 3.189052570013175725e+01
-5.506382998396207817e+00 2.035154594133193484e+01 3.241116883954698125e+01
8.730912308080656103e-01 2.148759962971075765e+01 4.216552905314155453e+01
6.224447084101591088e+00 1.885382191799845941e+01 4.293353024240963123e+01
5.315275236261745917e+00 1.968592832673501647e+01 4.244543563767574312e+01
3.329831682621427369e+00 2.089453503553221836e+01 4.191631198317553242e+01
4.349423806334582920e+00 2.015549272945353465e+01 4.228067510622122427e+01
5.593152234892069252e+00 1.903850248558478242e+01 4.293022515100175696e+01
3.903462489769400801e+00 2.071076943478926324e+01 4.192862267981305990e+01
-4.838810526201744011e+00 2.091982246488604957e+01 3.287280510170367620e+01
-3.989849229757443716e+00 2.170051118088428055e+01 3.380889930512108776e+01
-4.145329871734048766e+00 2.140372967772034585e+01 3.334484711919188271e+01
-3.770979728326423253e+00 2.195049718296419172e+01 3.420687977439390437e+01
-3.696763434087547928e+00 2.217276643761474375e+01 3.467327223099623978e+01
-3.606928719641103953e+00 2.161081940535814283e+01 3.334080951138099636e+01
-3.574801375105710832e+00 2.241465126322895429e+01 3.511082669630790321e+01
-3.874755962004641230e+00 2.250709345791257832e+01 3.571179202740208325e+01
-3.365096902350094510e+00 2.263488959964752212e+01 3.548000567579832421e+01
-4.300553719662818963e+00 2.111697592634181930e+01 3.287478579408588075e+01
-3.917720650278285088e+00 2.102730131743872732e+01 3.240677149535824952e+01
-4.455778568762942093e+00 2.083022351968885388e+01 3.240473584190254286e+01
-4.102147897680382016e+00 2.067440756946168534e+01 3.191897672627841942e+01
-4.994031327207939519e+00 2.063307235214108459e+01 3.240274322821253605e+01
-4.640194906995480650e+00 2.047738968329507259e+01 3.191705114332646076e+01
-3.491568506946831185e+00 2.291216768956658356e+01 3.684760838811374128e+01
-3.185721063232714201e+00 2.299233688304032697e+01 3.785370804282672452e+01
-3.321914743712338414e+00 2.301231147078875949e+01 3.738452171644755140e+01
-3.049425871436460156e+00 2.297234751305042977e+01 3.832277452052717592e+01
-6.190207753890094367e+00 1.970070378085572571e+01 3.191455089136552559e+01
6.003548897243989879e-01 2.187057648531316900e+01 4.176053589474985728e+01
9.511073991347959722e-02 2.208331519317790281e+01 4.170103624243456153e+01
2.182487400238770192e+00 2.126209125149581780e+01 4.189168768020271472e+01
2.755890141001891003e+00 2.107840013831761894e+01 4.190399384243580272e+01
-2.870773359789850598e+00 2.292536104298961774e+01 3.895169703707327358e+01
6.786741135241411094e+00 1.864532209021929532e+01 4.284250382778412813e+01
6.024521277955443566e+00 1.928883798621687973e+01 4.261104227867790684e+01
-3.762481982936144220e+00 2.131405036129837427e+01 3.287678267223812867e+01
-3.305128230472323292e+00 2.214358919744113408e+01 3.423718061085266129e+01
-2.913549916724946787e+00 2.211441363466294519e+01 3.380032052054252034e+01
-3.451374353988293731e+00 2.190758735024865800e+01 3.380487525077401045e+01
-3.068834668949934841e+00 2.181790247162061647e+01 3.333708870759436849e+01
-3.254258224743684202e+00 2.237103475602303604e+01 3.470798747011614438e+01
-2.730816855498774398e+00 2.247711056653787054e+01 3.445444784680650940e+01
-3.061314511035940544e+00 2.262728221117404104e+01 3.510971620841318952e+01
-3.290272037245915548e+00 2.282129285663333107e+01 3.591041532395585278e+01
-3.564100159872205964e+00 2.087142291054244225e+01 3.192096598436204857e+01
-5.165407061934010891e+00 2.026412585964545343e+01 3.189820440471513052e+01
-2.979318691739302416e+00 2.308388333126180569e+01 3.633829661009647083e+01
-5.677807096679660326e+00 1.998241569049779542e+01 3.190636938968227554e+01
1.609610153163587798e+00 2.144561503668638736e+01 4.187939138351716650e+01
6.482745208700591011e-01 2.227280745795584593e+01 4.131618023555986952e+01
5.050589642242790944e-01 2.249968000399580603e+01 4.093928235644101932e+01
-2.568284794578553853e+00 2.309273145498232083e+01 3.843635043229786419e+01
-2.595941982304389661e+00 2.319810705772053794e+01 3.792149954141941492e+01
6.787778463515294014e+00 1.883757885586949143e+01 4.271157185831769709e+01
4.986375389619994714e+00 2.015747348563274599e+01 4.212324545888439786e+01
3.189297024238364031e+00 2.126464943836644039e+01 4.159199484898626054e+01
4.476318086437522936e+00 2.052725213060352871e+01 4.194091588028042850e+01
5.824517013020094502e+00 1.972402584803169390e+01 4.228839710072617208e+01
5.624400633926590842e+00 2.015945769448137526e+01 4.196555016911972302e+01
3.707339934293430339e+00 2.113951541164564318e+01 4.156276679550867925e+01
-3.224165028783691600e+00 2.152129825535858032e+01 3.287335172783639337e+01
-3.379663848544685045e+00 2.122437552224097956e+01 3.240887735906613898e+01
-2.816513516517608728e+00 2.136627646721090557e+01 3.241576556632286810e+01
-2.661299001853979274e+00 2.166298496100298010e+01 3.287937863076059841e+01
-3.015092767976817800e+00 2.100979894139507209e+01 3.191948408722591779e+01
-2.506084967054370338e+00 2.195969122845162147e+01 3.334298589480346209e+01
-2.357008544580452725e+00 2.225965556262993417e+01 3.382242801219452843e+01
-2.098372246746362357e+00 2.180487342436878961e+01 3.288535227764619151e+01
-1.949337991582094753e+00 2.210483467850723116e+01 3.336478071277533530e+01
-2.158839004448165788e+00 2.250519960070588965e+01 3.422826976439978353e+01
-2.112990332259034432e+00 2.274323957154507525e+01 3.469427430096914833e+01
-2.548082162698322772e+00 2.283980769322256421e+01 3.510852334070101932e+01
-1.800428104717592070e+00 2.240490664277916366e+01 3.384443402437104709e+01
-2.451989807568257351e+00 2.115176444008553247e+01 3.192613925733924773e+01
-2.918965404451088652e+00 2.283055651571306299e+01 3.550924213062003076e+01
-2.090056554658941135e+00 2.303534052770844909e+01 3.924194087434375433e+01
-1.630338068630548198e+00 2.316271187690236033e+01 3.908231920263182957e+01
-2.086655486898636891e+00 2.321323711729394645e+01 3.855000795696403060e+01
-1.344630772738015789e+00 2.301685262525732512e+01 3.967835952048228876e+01
-1.628690507314453084e+00 2.325166865682979989e+01 3.873628674791864057e+01
-1.170477346459867007e+00 2.329012192414554150e+01 3.892264825408523166e+01
-8.108112892011953843e-01 2.311719461368059925e+01 3.957321951384192715e+01
-6.903771439937202992e-01 2.285255076833347943e+01 4.025561200993340094e+01
-2.114795373608429063e+00 2.331850386235878503e+01 3.803503255369773939e+01
-1.514649533179400986e+00 2.342463393942199446e+01 3.818722802232645819e+01
-2.809445706124594100e+00 2.318409936483028133e+01 3.687577452072398643e+01
1.105282258923973027e+00 2.165797048538143699e+01 4.181999844968538582e+01
-1.912808321229029773e-01 2.253707521879210418e+01 4.094721006108127170e+01
1.201398805520972335e+00 2.246228440680201288e+01 4.093135333366272732e+01
2.252590976340348661e+00 2.152256887230082683e+01 4.161355555533595663e+01
1.405503319474740609e+00 2.195395385758969553e+01 4.140537088414284028e+01
2.025060304185165361e+00 2.192161768073329142e+01 4.126082992619700462e+01
2.896642219453120504e+00 2.159964940498581498e+01 4.134727786251675496e+01
-2.731930116380976603e+00 2.321814445216658029e+01 3.745281472161607184e+01
-6.034378361045568406e-02 2.291666442875701293e+01 4.020725701728794377e+01
6.528486743037403173e+00 1.915390289591127981e+01 4.252502240147499180e+01
6.393807110356193313e+00 1.952367251404082893e+01 4.223603315641573630e+01
4.277921890747317768e+00 2.099413698397804140e+01 4.153803957035360384e+01
6.194236885634678558e+00 1.995880795872123059e+01 4.191323402210881710e+01
-2.253314352942261678e+00 2.150818753504726288e+01 3.242166968259211757e+01
-1.678199377102361556e+00 2.264673732840083886e+01 3.428027283550078153e+01
-1.541564734965047201e+00 2.194995874969136551e+01 3.290696081768172121e+01
-1.690511742968356046e+00 2.164999597008125320e+01 3.242752621056327911e+01
-1.664540901667109107e+00 2.287479318754609992e+01 3.476964215739254627e+01
-1.109664050992621442e+00 2.289666162007272376e+01 3.455743114603077260e+01
-1.243487427464537332e+00 2.255025067575141051e+01 3.386629539930555666e+01
-2.422792101206128645e+00 2.309767342564103032e+01 3.573669400481844605e+01
-1.056655007461064111e+00 2.346305654362681992e+01 3.837355539018484052e+01
-7.236102404406931088e-01 2.325381845587445895e+01 3.919544603670373561e+01
-4.494137401833757650e-01 2.348170789027427574e+01 3.862408782086988879e+01
-2.769972044249177090e-01 2.321753555801214119e+01 3.946807746319705501e+01
-2.795673887678887248e-03 2.344538209106160309e+01 3.889685061220752260e+01
-2.142898273897924533e+00 2.342364432993538159e+01 3.752061562720077603e+01
-1.542877964973700111e+00 2.352979713570709563e+01 3.767263641768514759e+01
-2.297401801466920634e+00 2.335574242056664929e+01 3.636741891299980267e+01
8.856822756652650286e-01 2.272149847090545549e+01 4.054518214933202103e+01
1.797528492148617207e+00 2.232066082235925464e+01 4.090810769555560711e+01
1.892309751471819568e-01 2.275889996806522930e+01 4.055311143515715600e+01
1.708804118418785434e+00 2.263017721842285468e+01 4.055247954807140331e+01
5.049934479596777770e+00 2.034349185212320421e+01 4.195322365612415183e+01
7.129627636059359119e+00 1.923032651423983097e+01 4.220049735964965976e+01
6.174080457595852778e+00 2.017307956456442142e+01 4.168618575096586198e+01
4.090089986161114410e+00 2.133167954825868762e+01 4.125987251244776388e+01
-2.023929269521394403e+00 2.297436089215942800e+01 3.515494437499960867e+01
-1.392590940414398570e+00 2.224997462982504004e+01 3.338644341765636625e+01
-6.568946968872494407e-01 2.265752910181965163e+01 3.392686181172491189e+01
-9.756938791356252194e-01 2.324344731902512606e+01 3.525131327611801879e+01
-4.781107039122624025e-01 2.311959269532878025e+01 3.485127443109453793e+01
-1.499869575367061891e+00 2.310888958918948077e+01 3.520149217359583105e+01
-4.859933703741280420e-01 2.288730240999971954e+01 3.436373293668816586e+01
-9.428574240222780123e-01 2.363594979606471824e+01 3.782458370766208589e+01
-3.357247651995306503e-01 2.365458918134151034e+01 3.807511611124812134e+01
-2.220151168783595530e+00 2.338969364560808728e+01 3.694410985711621720e+01
-1.579403841755014248e+00 2.351861236739422267e+01 3.648522277892562471e+01
-1.856959109544153774e+00 2.331832216270568381e+01 3.599550406539276537e+01
1.464897728589746873e-01 2.309914966208413745e+01 3.981353065995539708e+01
3.541050589730464271e+00 2.167677183245839601e+01 4.108085282821284068e+01
1.287752268607124329e+00 2.297592913393677350e+01 4.003737351108082976e+01
4.903879086674593601e+00 2.095691471006418283e+01 4.139007355733335203e+01
4.183951049073635353e+00 2.175371483735858646e+01 4.081504931364190725e+01
4.543603495612907217e+00 2.135565941545977608e+01 4.110231515291430782e+01
5.264124746814908384e+00 2.055820300411072310e+01 4.167780288982739734e+01
5.725184801805234258e+00 2.048372893988375409e+01 4.154268954868003760e+01
-9.431454434975681256e-01 2.205277635668524283e+01 3.292834821920697408e+01
-7.939547245203389947e-01 2.235273487248298352e+01 3.340761068587990934e+01
-1.092337229112807506e+00 2.175281804324547963e+01 3.244903656271502967e+01
-1.416434480562540843e+00 2.328089435055990464e+01 3.562350609958593850e+01
-4.232342459470328500e-01 2.333313798904494973e+01 3.535421219820191396e+01
-9.185316622431940470e-01 2.346253650848877470e+01 3.592730770834585741e+01
-7.053738410532689462e-02 2.276476231909999726e+01 3.398941232208482432e+01
1.878998451164572842e-02 2.299590669440252810e+01 3.445176533552181297e+01
2.714092091052957012e-01 2.367322880286548425e+01 3.832561794719388359e+01
3.176126634292600337e-01 2.331548615695150772e+01 3.931056411459788791e+01
-1.502152899471451031e+00 2.355256405739338277e+01 3.706167693561683762e+01
-9.021326895826707881e-01 2.365871602412203600e+01 3.721366049544738530e+01
2.393818500626635704e+00 2.217899934026912590e+01 4.088485554641313513e+01
2.231900824515193005e+00 2.247936793997131133e+01 4.056511810102468019e+01
5.698645246497645589e-01 2.298079458231841699e+01 4.015888704560035194e+01
6.763091930152412168e+00 1.975850463389539158e+01 4.186100681667228685e+01
3.588188059162100707e+00 2.189525088956195376e+01 4.083828162391300509e+01
2.991245157754897299e+00 2.203706829334099382e+01 4.086155839372023735e+01
6.173128946115979510e+00 2.060999048085712460e+01 4.118202071995587943e+01
5.571027440389412888e+00 2.083764989585726113e+01 4.120785141903081694e+01
2.793667655779655146e+00 2.243753175111928755e+01 4.042914647498172798e+01
-2.076681295102839608e-01 2.246004453871722717e+01 3.346884185270069167e+01
-3.450700555869084529e-01 2.215550266244749977e+01 3.294958273907629831e+01
-4.943912901163842744e-01 2.185559898008283142e+01 3.247047279255811247e+01
-8.614058777753260676e-01 2.368148116314873519e+01 3.660272281679134210e+01
