-1.833206345534664550e+01 7.574099786430877224e+00 2.999404116868098313e+01
-1.805669642209370807e+01 7.525253690771013915e+00 3.074082439679729006e+01
-1.495110231522395594e+01 2.875345922792733599e+00 3.520913295585354774e+01
-1.669868083538530357e+01 1.159880509876301247e+01 2.313192144540705542e+01
-1.615556459083233420e+01 1.239243733945184722e+01 2.280421884701010526e+01
-1.765285771725842068e+01 1.104759451600993359e+01 2.494645035446664139e+01
-1.822719999999999985e+01 1.008629999999999960e+01 2.634090000000000131e+01
-1.664653046781457135e+01 5.996385884500565311e+00 3.346989524328230203e+01
-1.542369879224563967e+01 5.013930353852421362e+00 3.521691037228647048e+01
-1.761974677697117642e+01 6.842236152500629665e+00 3.171570845843755038e+01
-1.732569167640913932e+01 6.815766012251326167e+00 3.244765135087434516e+01
-1.830270015554700436e+01 8.159813886844188957e+00 2.972814466800353372e+01
-1.839823583254442951e+01 9.288099085201206861e+00 2.839258650784748639e+01
-1.835588437876277368e+01 9.468691047738481359e+00 2.758415777022358029e+01
-1.819969912250853739e+01 8.182299973255242165e+00 3.049769908469862401e+01
-1.419616120131922088e+01 1.350794698583599907e+00 3.565623272012598477e+01
-1.697088035564558695e+01 1.178418127958967432e+01 2.376403877493526551e+01
-1.638250920950736855e+01 1.208896914979405857e+01 2.294795718134233908e+01
-1.505039999999999978e+01 1.292270000000000074e+01 2.211949900000000113e+01
-1.453744096060664681e+01 1.328745385459738237e+01 2.209386930710677177e+01
-1.782969732986671119e+01 1.118453013293504483e+01 2.570900136210272890e+01
-1.821662626144530606e+01 1.018576353880149554e+01 2.709671696015617215e+01
-1.577132146184968420e+01 5.794555218076014924e+00 3.495277666758866530e+01
-1.508497724035771448e+01 4.246982525222072979e+00 3.545596750166997424e+01
-1.776257859514261739e+01 7.499011330006542408e+00 3.147296430874227724e+01
-1.474644487937134052e+01 3.480631503350368749e+00 3.569494491017758975e+01
-1.440798283020195747e+01 2.713629144140109695e+00 3.593361378129922912e+01
-1.691060174700245611e+01 6.721273450148648188e+00 3.320321838137596870e+01
-1.831002923181567610e+01 8.997290707668661014e+00 2.921937751224933066e+01
-1.411740906322159184e+01 1.956912561696519948e+00 3.601974605993974876e+01
-1.535886243996466050e+01 1.339895373152108426e+01 2.277558663424346719e+01
-1.609535261574702503e+01 1.304570272250937712e+01 2.323197866019059887e+01
-1.654935636199589055e+01 1.243801732819521177e+01 2.351904296200936173e+01
-1.748758591705036025e+01 1.140917957329541821e+01 2.476109239689366248e+01
-1.720723086737724472e+01 1.193470215900392439e+01 2.448680962740413847e+01
-1.813778765465852061e+01 1.068036038012819766e+01 2.682493716998124000e+01
-1.791409733390105075e+01 1.129854077766593790e+01 2.646963769393003219e+01
-1.763060000000000116e+01 1.173460000000000036e+01 2.539249999999999829e+01
-1.649551195462589703e+01 6.626780970048881336e+00 3.395878517880463221e+01
-1.604110968936650750e+01 6.630800289995874230e+00 3.470214251625029789e+01
-1.746848380158627378e+01 7.472526751785053101e+00 3.220500409939658226e+01
-1.454160579385325924e+01 4.085212425415100768e+00 3.618079135718257078e+01
-1.420304080437899330e+01 3.319120521902537035e+00 3.641989816419004455e+01
-1.829394912775067894e+01 9.835645673913939291e+00 2.821336022025807466e+01
-1.820605233696464964e+01 1.028522801706302481e+01 2.785253295398785056e+01
-1.819476560929125242e+01 8.949697112579299230e+00 3.011991708607868645e+01
-1.790541088084613719e+01 8.155786942474602341e+00 3.123021906410953363e+01
-1.402521722905512469e+01 1.365168745134169903e+01 2.206827816869272496e+01
-1.692687508667805574e+01 1.246022366839048523e+01 2.421252411661311399e+01
-1.522778263240241259e+01 5.631953644101269418e+00 3.567758672359914840e+01
-1.488010404904229489e+01 4.851822415746112505e+00 3.594194540703329466e+01
-1.717427648810052787e+01 7.446530193835425138e+00 3.293741121921451764e+01
-1.391237168351800513e+01 2.561843560875256998e+00 3.650594227642461931e+01
-1.829160388076966015e+01 9.885947908989987098e+00 2.887837953053016093e+01
-1.818983311586422857e+01 9.716870051104944395e+00 2.974224851920293489e+01
-1.806442216810777168e+01 8.803875962504701391e+00 3.094906574638077146e+01
-1.453272849702751124e+01 1.370489087404530970e+01 2.242435694902656351e+01
-1.499485662606275049e+01 1.339578943653363652e+01 2.246302746209684997e+01
-1.738143732788861229e+01 1.220153346779628301e+01 2.514863518033849488e+01
-1.813411575139852161e+01 1.073178576628265901e+01 2.749121131734059276e+01
-1.804837786958269064e+01 1.127440316653440000e+01 2.730895942758638739e+01
-1.675947193391046497e+01 7.351997122704752030e+00 3.369242484276870186e+01
-1.557535617380605153e+01 6.412336636457814265e+00 3.541345157685508838e+01
-1.639165755639797339e+01 7.266012865084283234e+00 3.427383932786379006e+01
-1.761127427269018497e+01 8.129287698438378840e+00 3.196236102748746788e+01
-1.399841891412636663e+01 3.923660526237278123e+00 3.690542112676251918e+01
-1.433676803507371744e+01 4.689791360109856200e+00 3.666663527339425599e+01
-1.731725949524247454e+01 8.102800988293282103e+00 3.269420001285865851e+01
-1.804211581195691139e+01 9.697955508802419189e+00 3.060444529307834927e+01
-1.777023196215597522e+01 8.777269652771620301e+00 3.168132289209661323e+01
-1.493939907347595586e+01 1.386814789164768058e+01 2.280602513042934731e+01
-1.713230644611915210e+01 1.266840891761112964e+01 2.490480276483883415e+01
-1.808131495724940763e+01 1.109689000599690800e+01 2.811886435230368164e+01
-1.819547828674651768e+01 1.038469344375851655e+01 2.860834978045227928e+01
-1.818489983703742396e+01 1.048420098333777517e+01 2.936449850520559934e+01
-1.574744316548776624e+01 7.115954670643789726e+00 3.529228992537834841e+01
-1.607502383347885200e+01 7.298688812325123010e+00 3.479861472385915988e+01
-1.358385347499704920e+01 3.128334766406054790e+00 3.713450076837862923e+01
-1.468424623902143722e+01 5.469718347618105270e+00 3.640250126817728216e+01
-1.792918901787281172e+01 9.425250461132502977e+00 3.140028614306855559e+01
-1.795890424105871119e+01 1.186887129856884115e+01 2.779332940871236346e+01
-1.797451665582531533e+01 1.180409968747009763e+01 2.864048835830238815e+01
-1.805331537674905462e+01 1.053018718776707807e+01 3.009926948248405054e+01
-1.807973288390082089e+01 1.114399573963362222e+01 2.900257760660721473e+01
-1.702310004698199108e+01 8.076300191579187882e+00 3.342639891694638266e+01
-1.628780208374929828e+01 7.905244717819709166e+00 3.458889509397787521e+01
-1.665543811253073159e+01 7.990769351105094565e+00 3.400766748810739415e+01
-1.591953089299732937e+01 7.819572701081900945e+00 3.517112694844992404e+01
-1.337955343648159712e+01 3.733241125843556496e+00 3.761975195292543361e+01
-1.747615754434858104e+01 8.750789850149120142e+00 3.241331255698803204e+01
-1.790543013310154308e+01 1.004937336684985283e+01 3.120695451710655277e+01
-1.792176222415944409e+01 1.057616337692978981e+01 3.083386323256891259e+01
-1.806050798204963215e+01 1.109118437652523959e+01 2.980831102771096397e+01
-1.793346765963611489e+01 1.186679625829741624e+01 2.947876290233432783e+01
-1.718194984789811386e+01 8.724044474571828189e+00 3.314558809961073393e+01
-1.503186897772256714e+01 6.249977395315264417e+00 3.613825964925378997e+01
-1.537942067275955793e+01 7.030026830533993021e+00 3.587405725256400046e+01
-1.379389967419141172e+01 4.527900561229747822e+00 3.739070128115522351e+01
-1.414081711189299995e+01 5.307027793256739123e+00 3.712712913871773424e+01
-1.763505815553684641e+01 9.398777476392815799e+00 3.213241845850924960e+01
-1.779392791838032295e+01 1.004675267902424451e+01 3.185159940068744078e+01
-1.682620609044455051e+01 8.689908930579022694e+00 3.385334000311985392e+01
-1.555150817486022241e+01 7.733957828054221828e+00 3.575296585540397132e+01
-1.645847015440920202e+01 8.604652835100280228e+00 3.443477673620345314e+01
-1.613120970878444282e+01 8.421777017873239402e+00 3.493344928762216028e+01
-1.483591227271738155e+01 6.868115269747603335e+00 3.659902741347539745e+01
-1.448838448363418330e+01 6.087615980086442669e+00 3.686306323954391218e+01
-1.321825036729268632e+01 4.375105220619315283e+00 3.783706849460588728e+01
-1.779014449665045206e+01 1.062216257354732463e+01 3.156881737394366993e+01
-1.794806346267240471e+01 1.108996200261129239e+01 3.045423641276814308e+01
-1.734092642125091643e+01 9.372304149958369024e+00 3.286455289673902058e+01
-1.698503260981246754e+01 9.338182317316622516e+00 3.357260509183301878e+01
-1.581457808387371244e+01 8.454728444336854665e+00 3.545273805576692183e+01
-1.518330029580265972e+01 7.648300810189515353e+00 3.633509766236978322e+01
-1.781713854374980599e+01 1.143432861924688027e+01 3.105242369593964824e+01
-1.793611560071770583e+01 1.169817053010420338e+01 3.025212333233319129e+01
-1.662913807835217384e+01 9.304060501760112345e+00 3.428065853018993892e+01
-1.616400064370361278e+01 9.086052712984054480e+00 3.499677656573650353e+01
-1.544650377753956505e+01 8.369207081092527645e+00 3.603467594407732832e+01
-1.749985448230312102e+01 1.002036910504109279e+01 3.258360401334046941e+01
-1.714406001801179968e+01 9.985949925623870627e+00 3.329144127482189219e+01
-1.765870100000000065e+01 1.066810000000000080e+01 3.230279900000000026e+01
-1.344751623137731045e+01 5.124572040234293802e+00 3.768961149319761716e+01
-1.379455779363043177e+01 6.018270763543760005e+00 3.742891700574187297e+01
-1.264202349800671854e+01 4.222157225235918965e+00 3.828388358724844664e+01
-1.462783475781893117e+01 7.501457442236339368e+00 3.678573564463662393e+01
-1.428058536016487956e+01 6.721170103534565676e+00 3.704954922321951472e+01
-1.678816558019214966e+01 9.951681452422217689e+00 3.399948635978082478e+01
-1.570962744109054654e+01 9.089886002766483841e+00 3.573434596810186292e+01
-1.730308918533472706e+01 1.063371538527108484e+01 3.301027382898874407e+01
-1.745026948782257037e+01 1.126364643749482219e+01 3.270315237013643639e+01
-1.287135109350419171e+01 4.972091143628031062e+00 3.813639856302649633e+01
-1.766826741175484017e+01 1.141597254513876436e+01 3.191504634871829893e+01
-1.482913765017268126e+01 8.214275364519634692e+00 3.662717793799158983e+01
-1.643240549522801075e+01 9.917166607760531605e+00 3.470724971282368898e+01
-1.597257868346989262e+01 9.810097036488571121e+00 3.543421247549463260e+01
-1.508489716957049254e+01 9.041607456693492750e+00 3.632599255704646168e+01
-1.694719235852783967e+01 1.059930530892165379e+01 3.371831569488009706e+01
-1.379487050975802198e+01 6.700514313016586954e+00 3.744640156743420789e+01
-1.310067950526913449e+01 5.722024333735298285e+00 3.798891286425281777e+01
-1.407278402162940623e+01 7.354724206616518600e+00 3.723603700715035814e+01
-1.659143640211960147e+01 1.056490591959035186e+01 3.442607734025472155e+01
-1.547910903319590048e+01 9.686327975943225255e+00 3.590780274678802897e+01
-1.709431929620737023e+01 1.122980605277058963e+01 3.341128700727627177e+01
-1.222410015260610194e+01 4.800317454450969024e+00 3.863828795799751248e+01
-1.330906384337451875e+01 6.464968190750198573e+00 3.783774122768581805e+01
-1.447516142656555083e+01 8.779951352574423495e+00 3.691910451774599267e+01
-1.427397411074540834e+01 8.067337188023149253e+00 3.707756963058130850e+01
-1.351744224199012478e+01 7.207913915039596553e+00 3.768657448645569019e+01
-1.623560010829827505e+01 1.053050046403031281e+01 3.513399877400178184e+01
-1.678265412027022307e+01 1.128285646664956410e+01 3.402939814819479381e+01
-1.238136937319725561e+01 5.531152958751305526e+00 3.854667933054831508e+01
-1.275436743694622699e+01 6.318572864821554447e+00 3.828776148396237744e+01
-1.574194788401928768e+01 1.040659695897818082e+01 3.560777082804766280e+01
-1.461502243089430664e+01 9.469401961995970396e+00 3.673709438246248027e+01
-1.378936454000738010e+01 7.833369303165020447e+00 3.746996035136668723e+01
-1.378254149943192530e+01 8.487127292098133324e+00 3.748022193061406426e+01
-1.643188967172329384e+01 1.137155088699651095e+01 3.472437920523551469e+01
-1.503971119888347197e+01 9.682211617695950068e+00 3.632175253835114148e+01
-1.203534254736571718e+01 6.127830441376353576e+00 3.884530911299410150e+01
-1.412157966175533019e+01 9.344995901855536857e+00 3.721070569943656636e+01
-1.330256019339070583e+01 7.810194906416067617e+00 3.786565551979054334e+01
-1.308768013572812094e+01 8.412475513709194885e+00 3.804473493135541418e+01
-1.342746151513415143e+01 9.161564577879815374e+00 3.777383009510863587e+01
-1.524859174976188037e+01 1.028276870439713875e+01 3.608125871663774831e+01
-1.696925318138683991e+01 1.178304425057484472e+01 3.364695926457449815e+01
-1.475488715846957533e+01 1.015885133636485094e+01 3.655508083229979377e+01
-1.550386594007844288e+01 1.096564693755128417e+01 3.598876250113972475e+01
-1.296273935389624299e+01 7.061271787393976318e+00 3.813659364076902136e+01
-1.166206161442270250e+01 5.340280421954035184e+00 3.910444390797395897e+01
-1.240829970787729053e+01 6.914700502965223095e+00 3.858639925249345026e+01
-1.599728421657439803e+01 1.108971344854404784e+01 3.551526970924798832e+01
-1.426152608711568881e+01 1.003502163385762458e+01 3.702857331556468523e+01
-1.662810597027192472e+01 1.221228738876281383e+01 3.431491252654933533e+01
-1.506047508489152520e+01 1.075314378948066363e+01 3.638935384692518937e+01
-1.187032193018513659e+01 6.753332548068602392e+00 3.903186745482423703e+01
-1.608534571398525870e+01 1.169259348086477779e+01 3.531493823531128129e+01
-1.274799588922028803e+01 7.663607112100804919e+00 3.831556243572129006e+01
-1.256783927144208057e+01 8.907697427981528193e+00 3.848722686186425079e+01
-1.376739962262334238e+01 9.911000569945247918e+00 3.750280031775630363e+01
-1.626317518215667945e+01 1.222809445366681302e+01 3.496047066331922082e+01
-1.464007443213266235e+01 1.074900245848213487e+01 3.681780715232459045e+01
-1.513052404664548689e+01 1.138795420589665852e+01 3.647423470235555243e+01
-1.128815232822824655e+01 4.551404665310339048e+00 3.936401492368187860e+01
-1.242653306956045256e+01 8.217060215729116379e+00 3.859341523279883290e+01
-1.323866335827517560e+01 9.754782454219228072e+00 3.794159505599181159e+01
-1.575913957752827699e+01 1.164852445655029456e+01 3.589626667444536423e+01
-1.208686117481220457e+01 7.468140539643481901e+00 3.886423154861433460e+01
-1.116025205194460135e+01 5.864972254862620638e+00 3.956989320812910904e+01
-1.093232054714951929e+01 5.120909507973279595e+00 3.970866440806120323e+01
-1.133210381383225140e+01 6.591893983153176428e+00 3.947753469424024075e+01
-1.270914796258791490e+01 9.598333254324462160e+00 3.838103638424350805e+01
-1.590635863398266281e+01 1.227902474405097166e+01 3.558906977364880930e+01
-1.414647935061494088e+01 1.062535762580294474e+01 3.729158380845179721e+01
-1.452526273978948801e+01 1.133915209511316036e+01 3.708053206563021575e+01
-1.154874512079728532e+01 7.306769780076582954e+00 3.930981494387135911e+01
-1.332290569281414783e+01 1.058231251729851863e+01 3.787707033515561506e+01
-1.197286573780418806e+01 8.731870508913431195e+00 3.898099081714686776e+01
-1.643911660132011932e+01 1.298105389279643163e+01 3.459338027573702590e+01
-1.490392028765686483e+01 1.205270922636271891e+01 3.686955024153571259e+01
-1.552092526927473948e+01 1.220749936814113212e+01 3.627737506919941524e+01
-1.400224525050233915e+01 1.148500402113273822e+01 3.746688144620480188e+01
-1.176538458733357118e+01 8.021646096892125044e+00 3.914209673670057299e+01
-1.218034794571524593e+01 9.442095529738805837e+00 3.881988402509138325e+01
-1.605357655059682287e+01 1.290952378514013610e+01 3.528187500897813322e+01
-1.528269911831716854e+01 1.276650137343957070e+01 3.665850135481781535e+01
-1.457006546062586949e+01 1.255549166433582187e+01 3.715054021863082312e+01
-1.055403618804820276e+01 5.683056031833296551e+00 4.007185945519778869e+01
-1.079333726846102337e+01 6.430289137225805085e+00 3.992365602399907942e+01
-1.080007113054340628e+01 7.003653296101558290e+00 3.992833816294772475e+01
-1.240815892905088980e+01 1.041202253861853499e+01 3.863688364272397990e+01
-1.344120142817297925e+01 1.149661049139534263e+01 3.786916715637956798e+01
-1.385800973635853772e+01 1.234465119910718123e+01 3.764218016107431453e+01
-1.109204067743503686e+01 7.820004365205958763e+00 3.969965970282792966e+01
-1.287867327730202405e+01 1.125322814776728997e+01 3.825112004012919442e+01
-1.144382305939273614e+01 8.575294910922423242e+00 3.942003528856727002e+01
-1.566835064861983184e+01 1.283805114207283360e+01 3.596980874860806665e+01
-1.025411445033813962e+01 6.268547508546083336e+00 4.037015512267292650e+01
-1.165079151954944869e+01 9.285634604238396150e+00 3.925935940524858836e+01
-1.314600880643270209e+01 1.213382841593492323e+01 3.813378206177885232e+01
-7.684875000000008782e-01 7.883875000000001521e+00 1.894420075000000026e+01
-3.201623689603634304e-01 8.326997501019398840e+00 1.912260817277251235e+01
1.848499999999999588e-01 7.836199999999999832e+00 1.903560099999999977e+01
-7.094643939287561540e-01 7.352347043226932222e+00 1.885765612655225354e+01
3.039805863066833425e-01 8.430802569360457355e+00 1.922398279058942805e+01
-1.273853242539815689e+00 8.375016115971421371e+00 1.903126885920324085e+01
-1.721825047661905916e+00 7.931550002383501052e+00 1.885280049543046488e+01
-8.258828449971717944e-01 8.818483179515400394e+00 1.920973734388821086e+01
-1.421987035505618113e+00 7.088874036792869759e+00 1.873716865840441059e+01
4.232757751906062182e-01 9.026227548104269971e+00 1.941262510839010957e+01
-2.248455249394686106e+00 8.588393223828107992e+00 1.898572272073746348e+01
-1.616431858356253359e+00 8.845541638323410893e+00 1.913031512601763851e+01
-3.945949485981175009e-01 9.465662433438726708e+00 1.944901442244553635e+01
-1.331683182246069741e+00 9.310047738958219909e+00 1.929688064685434767e+01
5.424949206837635929e-01 9.621277745339249066e+00 1.960114856527040672e+01
-2.158776476498925234e+00 9.234800029210740391e+00 1.918366265114327263e+01
-9.853156597472667588e-01 9.834598235183786841e+00 1.949045590908028913e+01
-2.985869953730682536e+00 9.159550452583731683e+00 1.907044409619349068e+01
-1.837661095379478748e+00 9.801782338802977890e+00 1.938405379775558046e+01
-3.400410159618472150e-01 1.024167205992006657e+01 1.968341368236792732e+01
-2.664380207368275411e+00 9.726185002703802596e+00 1.927077546551177534e+01
-1.341469927994400013e+00 1.026723571408792957e+01 1.957725678048232609e+01
6.616699999999999804e-01 1.021610000000000085e+01 1.978960000000000008e+01
-2.342900000000000205e+00 1.029279999999999973e+01 1.947109999999999985e+01
1.267328803751364585e+00 9.789960388660787771e+00 1.976955997133562448e+01
-3.284364076025076074e+00 9.939086204308420491e+00 1.930888278786772361e+01
-9.072021685763078658e-01 1.076418666113511158e+01 1.982947047757087944e+01
-2.040243585467186538e+00 1.073619139745037465e+01 1.968626237757607811e+01
2.134931297167939057e-01 1.067883108149377236e+01 1.992524021484974028e+01
-3.733699633899882020e+00 9.078636395267235315e+00 1.900662349160880993e+01
-3.880538712610798413e+00 9.674747814032814475e+00 1.919304231771975111e+01
1.455754583943424496e+00 1.036101116600141658e+01 2.003642765824651661e+01
-2.348797258354475836e-01 1.114176439778680461e+01 2.006093969262601817e+01
-2.759183994292146558e+00 1.085390015364136218e+01 1.968202788426950889e+01
8.281953257279353053e-01 1.074503441949703131e+01 2.005498377305335111e+01
2.160912264739434541e+00 9.952822964020036522e+00 2.004723518112701086e+01
-4.466682950515486361e+00 9.160460557868288944e+00 1.899645104370713966e+01
-3.801154521604745540e+00 1.015477682677906834e+01 1.935307387395470258e+01
-3.188194063440585424e+00 1.043493617030648046e+01 1.947489956460566418e+01
-1.736977464715891095e+00 1.118047601400751923e+01 1.990185820322492560e+01
-4.886059090364955004e+00 9.727625817853649437e+00 1.915978743521394989e+01
-4.459768025342800257e+00 1.015234782388958479e+01 1.931924315422240923e+01
-9.950483637053031405e-01 1.123043963728230032e+01 2.000846994773141674e+01
2.249963232163514792e+00 1.050594425253371256e+01 2.028329357135197597e+01
9.948445302309547600e-01 1.127436732802832431e+01 2.032056711399341964e+01
-2.305167119381850149e+00 1.152004093317530398e+01 2.000523003247207043e+01
1.622466760721909651e+00 1.089002817347674323e+01 2.030189028822135100e+01
3.054601363078133680e+00 1.011576370332423558e+01 2.032496608235860691e+01
-4.033476668260640885e+00 1.057707085422830140e+01 1.947869922086575656e+01
-3.604830716152696013e+00 1.099651815292702040e+01 1.968600887804089794e+01
-6.835231823090797132e-01 1.160497593352946488e+01 2.019672054074021972e+01
-1.434151428565835440e+00 1.162411590698713226e+01 2.011714116701263322e+01
-3.176184281133580534e+00 1.141596578245104254e+01 1.989331870844065264e+01
3.044299999999999784e+00 1.065090000000000003e+01 2.053019899999999964e+01
-5.305274743248148184e+00 1.029457403489521106e+01 1.932306132110953101e+01
1.479414323279937271e-02 1.193546795183925013e+01 2.045913275508664242e+01
2.416738195715882664e+00 1.103502192745645694e+01 2.054879680338935088e+01
-4.878760952397128037e+00 1.071920560033506042e+01 1.948249881309372711e+01
-5.796226306501062631e+00 9.843112988206673464e+00 1.914749512064605952e+01
1.789339834389863659e+00 1.141904637376024212e+01 2.056739091087517224e+01
1.161399888449104800e+00 1.180339964748529979e+01 2.058599982303949361e+01
-2.790196705434324187e+00 1.191847335839249666e+01 2.014046721797902606e+01
3.792820220489464766e+00 1.022188001849571215e+01 2.058457651777831643e+01
-4.449974909126913403e+00 1.113862267251469973e+01 1.968980500113980270e+01
-4.021179295292023781e+00 1.155778761980350922e+01 1.989700450443654134e+01
-1.131499979867246708e+00 1.206749999768107706e+01 2.033230000222760836e+01
-2.089311205568822327e+00 1.222427813304011046e+01 2.032664134127031375e+01
-3.592385227427090655e+00 1.197695447007065006e+01 2.010420471749203486e+01
2.953147349223423923e+00 1.112730819206260335e+01 2.074619629079727900e+01
3.688388116586601484e+00 1.091169963094262663e+01 2.087681089108178867e+01
-5.724400000000000155e+00 1.086139999999999972e+01 1.948629999999999995e+01
-6.215368694121568893e+00 1.041002572506510049e+01 1.931076139906007683e+01
8.727147972175410828e-01 1.233044283187767931e+01 2.080763732775628938e+01
-6.558555581766085663e-01 1.250652205717537235e+01 2.063851547724324575e+01
-3.048353383180993692e+00 1.238125780814790211e+01 2.032097543599921607e+01
2.862010272452797821e+00 1.160363494518323080e+01 2.096215665600093203e+01
-5.294952861286013501e+00 1.128125816835595074e+01 1.969383830718529893e+01
1.667983064637222679e+00 1.205485632822461461e+01 2.085574163447024887e+01
1.219339573121525078e-01 1.248839000624910334e+01 2.076126934603211183e+01
-6.026464658271734720e+00 1.144903713677535961e+01 1.976188707679273548e+01
-4.866472783654787193e+00 1.170017247160447305e+01 1.990090996343478480e+01
2.252785678652241330e+00 1.189276381284343209e+01 2.093773121695805273e+01
-1.437193734912837417e+00 1.255513940467401746e+01 2.054890913344351588e+01
-4.438081143723209721e+00 1.211899954353677877e+01 2.010793854672155589e+01
-4.008999697798313555e+00 1.253850026999507961e+01 2.031530016123387483e+01
3.485074320736491149e+00 1.154106751159088162e+01 2.113488010360412517e+01
-6.539179746248708014e+00 1.108036439392630967e+01 1.958711219782071922e+01
5.838957135084440475e-01 1.285773008564477138e+01 2.102937744225236116e+01
-2.492838174967382692e+00 1.278202400373919723e+01 2.056967114729994606e+01
-1.800062175513952312e-01 1.294573461193767017e+01 2.094486358123888792e+01
-3.594766908816327877e+00 1.290858693526003798e+01 2.053630606743855935e+01
4.332788576752195198e+00 1.117262640405662388e+01 2.122359119300872976e+01
-7.138277497594748944e+00 1.060936049742471710e+01 1.940523005353344388e+01
2.173799048932858025e+00 1.230593190941855930e+01 2.112507482759458810e+01
1.378760046574846854e+00 1.258164563746155906e+01 2.107710011409598039e+01
2.770799464776423360e+00 1.208034713515124636e+01 2.117829177773718285e+01
-1.153160013856445953e+00 1.315528649024033747e+01 2.091327784591612016e+01
-6.840522698409575497e+00 1.166733316612059035e+01 1.986238683893641266e+01
-1.742860181445756051e+00 1.304273527921372455e+01 2.076549893082726683e+01
-5.383022157625866555e+00 1.207728535369937539e+01 2.007244767743761216e+01
-4.984427699955472413e+00 1.276246386075490058e+01 2.040615389403499691e+01
-4.274419921704326164e+00 1.306673940329021022e+01 2.057789419345639459e+01
4.211505750329454401e+00 1.180831122671219191e+01 2.151191587493824642e+01
-6.327962923481786461e+00 1.203557241145615819e+01 2.003695740790235647e+01
-7.353082527622348152e+00 1.129909311179016562e+01 1.968781588931580018e+01
1.884804539608341045e+00 1.283285020291331513e+01 2.134656369336195070e+01
2.679600000000000204e+00 1.255700000000000038e+01 2.139440000000000097e+01
2.953600000000000114e-01 1.338449999999999918e+01 2.125090000000000146e+01
1.090514279659955621e+00 1.310852519611338884e+01 2.129875786629332879e+01
-2.451645214676796414e+00 1.322466211211586895e+01 2.079420847498157343e+01
-3.181232899034182715e+00 1.327804929247719379e+01 2.075693915349378571e+01
4.977799941939018424e+00 1.143380002837616161e+01 2.157069999554601125e+01
-7.908665939336625428e+00 1.098130130476627642e+01 1.956734868707462027e+01
3.445711001237201643e+00 1.218257833235156973e+01 2.145317006766953227e+01
-5.875620817119986405e-01 1.359540198149879586e+01 2.123340260109246813e+01
-5.147486966298359334e+00 1.326694881195691522e+01 2.065908574552082300e+01
-7.142260862083265494e+00 1.225422856488807888e+01 2.013762591280858416e+01
-7.654814395415332484e+00 1.188586929458837815e+01 1.996299890694805867e+01
-2.048177214934511881e+00 1.352977377377019685e+01 2.098184114035407077e+01
-2.767750580575700781e+00 1.364746546728169108e+01 2.097754466064137091e+01
-5.793804469893896858e+00 1.250858364469259243e+01 2.027159931990721375e+01
-3.653645989756202361e+00 1.362092560544616759e+01 2.090886912837248346e+01
4.120718295968508471e+00 1.240295092907367902e+01 2.183170707637685126e+01
4.886754366273832417e+00 1.202860980209951691e+01 2.189049747589232453e+01
-8.167598870880407702e+00 1.151798671864000312e+01 1.978859549644618454e+01
3.324413238400821591e+00 1.297557350747749894e+01 2.187955186625348958e+01
2.534131902580976092e+00 1.309655484312336249e+01 2.169603268934998752e+01
1.640097378909615378e+00 1.340697269409514547e+01 2.164230260936365724e+01
7.460397032176721011e-01 1.371738833902481147e+01 2.158856463617282984e+01
-1.470365648213235676e+00 1.380627632119512782e+01 2.121590799015834250e+01
-4.539542064728867565e+00 1.359438629409406474e+01 2.084019384574231992e+01
-5.958277110708917412e+00 1.298606555279823382e+01 2.049686089184811522e+01
5.497043996017152878e+00 1.175224060492140232e+01 2.197358152004387222e+01
-6.629706796618673792e+00 1.262258590682778703e+01 2.031225201603269781e+01
-8.722402833063863881e+00 1.119985550634245719e+01 1.966797923373317047e+01
9.340273748327998504e-02 1.389415183923738795e+01 2.155045999796453771e+01
-2.353800000000000114e+00 1.401730000000000054e+01 2.119839999999999947e+01
-5.270523451451988528e+00 1.376212903623570583e+01 2.090823109637264920e+01
-5.793514949317708940e+00 1.348267586223488301e+01 2.075356526099659504e+01
-4.024957517774210736e+00 1.401128446539559036e+01 2.109211322580275194e+01
-7.956543285903298290e+00 1.247264543496044631e+01 2.023818191258172305e+01
-8.468715730045662582e+00 1.210450508936843761e+01 2.006365889606651720e+01
4.119832589628882324e+00 1.285940624890005779e+01 2.210243015387250054e+01
1.196506436453392608e+00 1.405011952692580124e+01 2.192606980709728859e+01
-8.687433961640034230e-01 1.418102623100750215e+01 2.156892467623997334e+01
-3.259521122638865620e+00 1.422860270089760171e+01 2.125410916695690844e+01
-4.804974355523804697e+00 1.412265018698030161e+01 2.110280020932335887e+01
4.795723475470246910e+00 1.262332328728076192e+01 2.221024316731969606e+01
6.016520313897791183e+00 1.207082378580512128e+01 2.237664335158341444e+01
-7.443964758528606396e+00 1.284107787100424503e+01 2.041284341495761723e+01
-8.980700769033701292e+00 1.173649944769939601e+01 1.988919981526613867e+01
-8.464248939536119565e+00 1.066351007499879699e+01 1.944688172197571063e+01
2.388586639540405177e+00 1.363639955536791604e+01 2.199782770344096150e+01
-1.893388072909462982e+00 1.436923268210558291e+01 2.151141535883122202e+01
-6.466563490557146743e+00 1.356959904455522370e+01 2.078183733113548826e+01
-4.165870650475921977e+00 1.444005200731462324e+01 2.130985698591080180e+01
-6.931400253243150011e+00 1.320949981797337713e+01 2.058749991370726917e+01
-9.496679395292126458e+00 1.136593738577666635e+01 1.976525410052403231e+01
-9.238474737904162737e+00 1.082942691360653242e+01 1.954408966666784764e+01
5.439412609816269839e-01 1.422704985776972286e+01 2.188809682186450445e+01
-2.553209284872636431e+00 1.451389578528847046e+01 2.152571057923860565e+01
-5.535927749581347257e+00 1.429054293417353350e+01 2.117091448511659024e+01
-6.001504573267980369e+00 1.392987091846208436e+01 2.097626795442323200e+01
5.665795015214941444e+00 1.250632387764198938e+01 2.249492289564870262e+01
-7.598697255349108559e+00 1.340941921817059423e+01 2.073380247361246376e+01
-8.111278589746715895e+00 1.304099515696859513e+01 2.055914572947529706e+01
-8.623649872220827461e+00 1.267259885169299061e+01 2.038449279994942742e+01
-9.135619649986171709e+00 1.230413025009146111e+01 2.020977823876726376e+01
3.968962136102335947e+00 1.339397542106224215e+01 2.236450484486640633e+01
3.106127677315129620e+00 1.378504956076286447e+01 2.233206644594207546e+01
2.243018574166414147e+00 1.417632755710421755e+01 2.229966918983386037e+01
-1.086227042027459455e-01 1.440397734654128392e+01 2.185012218662826555e+01
-1.433070148844179048e+00 1.472109449026051209e+01 2.182436745402674205e+01
-5.070500000000000007e+00 1.465109999999999957e+01 2.136549899999999980e+01
5.424029384673295873e+00 1.297400929802039116e+01 2.267695918570809610e+01
1.647092871154787863e+00 1.438293905255751426e+01 2.226366461288191800e+01
-9.651157907151130644e+00 1.199842378923714747e+01 2.009420423518762533e+01
4.704753917318901024e+00 1.321763608039969640e+01 2.252977342801663596e+01
-7.503054722151158984e-01 1.462409711723641159e+01 2.188138107656365250e+01
-3.539641021791706699e+00 1.479973084271264661e+01 2.162537521835252363e+01
-7.080306909302056084e+00 1.373295815483704274e+01 2.089395327319358842e+01
-2.092869048020886247e+00 1.486585677083782286e+01 2.183873642847188634e+01
-1.025654624868034226e+01 1.163817437824795675e+01 1.998547613980636584e+01
-1.001270064040517127e+01 1.099534328314917531e+01 1.964129744251269827e+01
5.596806097041875372e-01 1.467787710157247894e+01 2.220046123409360206e+01
-3.107588302544368464e-01 1.491408351249985742e+01 2.214994948982545608e+01
-6.615424027785609340e+00 1.409337182405011468e+01 2.108847084601611144e+01
-4.590313264905964807e+00 1.498903380448789768e+01 2.165092930430855134e+01
-5.889540513063487914e+00 1.486929293906438687e+01 2.151522749817995361e+01
2.097599999999999909e+00 1.471570000000000000e+01 2.260119999999999862e+01
-8.266013791150808032e+00 1.360934421267696059e+01 2.088010917439337888e+01
-8.778601771275019061e+00 1.324104864532382564e+01 2.070552345009719630e+01
-9.290754781933200590e+00 1.287255080118398887e+01 2.053080279264161234e+01
-9.991034375369721943e+00 1.255758839388876069e+01 2.042784684260371719e+01
-1.032228808870315007e+01 1.226061097735401262e+01 2.029941444242836823e+01
4.613699498619656225e+00 1.381249967453439709e+01 2.284959962276579404e+01
3.775644769987380744e+00 1.411333521471618724e+01 2.276686365441153370e+01
1.227982465789513089e+00 1.495177624707149455e+01 2.255079950908839592e+01
-9.727071682912677986e-01 1.507299080372948197e+01 2.213735025458555938e+01
-2.752668882304904141e+00 1.501061966704189210e+01 2.185310571602141394e+01
-6.559441818615949771e+00 1.456308269046652804e+01 2.135795052964580520e+01
5.427703603518986952e+00 1.344412610856192281e+01 2.296056563275759643e+01
2.936139777649524163e+00 1.441469081335390889e+01 2.268398415966429837e+01
-7.747930020396948336e+00 1.393307296773934745e+01 2.104038320897158343e+01
-5.207596338241590850e+00 1.510769426380386804e+01 2.170915162052996195e+01
6.241576886216008369e+00 1.307581102755293578e+01 2.307151340063658651e+01
-2.072637335947824511e+00 1.531383171315110481e+01 2.216095644448137847e+01
-1.086897237744812195e+01 1.201624388090705153e+01 2.024108830961888117e+01
3.571912368364548174e-01 1.518817266525216780e+01 2.250033205269838632e+01
-5.129800000000002136e-01 1.542440000000000033e+01 2.244989999999999952e+01
-3.409528678496374532e+00 1.522789351225004850e+01 2.193832790970748192e+01
-7.229343272033707635e+00 1.425687327995481724e+01 2.120067404913045905e+01
-4.110369595850341895e+00 1.532679758532608361e+01 2.193621586827510228e+01
-6.708768956132947991e+00 1.508753613586352671e+01 2.166499046426226016e+01
6.040834348220083250e+00 1.353420269421322431e+01 2.333238082583882189e+01
2.447333396542708872e+00 1.509734700906597205e+01 2.305089945549825359e+01
3.661839927082751078e+00 1.451567339342879670e+01 2.305153099369349334e+01
3.307123217501789281e+00 1.494109971782681612e+01 2.326052386210535872e+01
1.852704132557115857e+00 1.514832367012187753e+01 2.289823117802142605e+01
-1.392606466971918033e+00 1.561704400526558878e+01 2.246880725714826710e+01
-8.933680227455921496e+00 1.380937403578035827e+01 2.102649258957519862e+01
-9.445924952803322228e+00 1.344110213367905970e+01 2.085190117071909555e+01
-1.026518693503109070e+01 1.308618713025973790e+01 2.073875874202895631e+01
-1.099254091148807788e+01 1.252245388205406407e+01 2.050435555708976665e+01
5.530331824470689384e+00 1.375122317743316280e+01 2.325180565854024550e+01
4.390240064869469272e+00 1.429881939089331233e+01 2.315996524797958855e+01
1.092743385798317979e+00 1.531327978802824497e+01 2.281903672762697610e+01
-2.951759104197052341e+00 1.550642074028896999e+01 2.217989247446860901e+01
-4.752961979832196704e+00 1.539043978234881216e+01 2.195079350462902923e+01
-6.093078103739344442e+00 1.539451178258286745e+01 2.190964834186076615e+01
-7.897217603325723090e+00 1.445695475687374199e+01 2.134709696592517503e+01
-8.415553436086844030e+00 1.413318999335299964e+01 2.118681442458681374e+01
4.993677319393472480e+00 1.420612830086398404e+01 2.334493536334058916e+01
-7.378481583837761093e+00 1.478114775974781558e+01 2.150760520270410936e+01
-5.344643271898217307e+00 1.556412644789907418e+01 2.205268226705968004e+01
4.166913427609475917e+00 1.478485193595476943e+01 2.347014801986003718e+01
1.607842640826874225e+00 1.558088776312146706e+01 2.319522163942076531e+01
-2.271708470035796346e+00 1.580957420513116851e+01 2.248770416488552115e+01
-1.011618118568711466e+01 1.370321060660620738e+01 2.105698580220088445e+01
7.206742693053622695e-01 1.568464078116995886e+01 2.302727755469832260e+01
-1.664952941916375551e-01 1.578839287566425753e+01 2.285933234080703969e+01
-8.156782532266424468e-01 1.590274891602467555e+01 2.281697555482404027e+01
-3.630581040544172300e+00 1.566445132359131875e+01 2.222140958045278580e+01
-4.590222966843154673e+00 1.579522783022004440e+01 2.227064793447837232e+01
-7.050532252717253812e+00 1.559853986376538160e+01 2.204597175086253458e+01
5.840093189188490186e+00 1.399259461543481287e+01 2.359324915854364235e+01
2.797023486998619912e+00 1.547894922441520116e+01 2.350054529767366418e+01
-3.150799723694647003e+00 1.600209993948730158e+01 2.250659899406091569e+01
-9.601000486780456811e+00 1.400930023389195611e+01 2.117280025473049321e+01
-1.114732079555054156e+01 1.309056735156202755e+01 2.082518081527865306e+01
4.759667176756418705e+00 1.463211279152829114e+01 2.360013560331852744e+01
-7.527700332542414330e+00 1.530570010895231192e+01 2.181469913537403471e+01
-5.932326182801248571e+00 1.578160959767274285e+01 2.220632225652333958e+01
3.943642866815986636e+00 1.527076081380595163e+01 2.378025157479036977e+01
-1.742956483035752013e+00 1.607124558283945248e+01 2.280664491170603014e+01
-9.083211686938229334e+00 1.433306441858548297e+01 2.133310859034680718e+01
-8.565094252806229491e+00 1.465703505592515477e+01 2.149351939693213964e+01
-8.045832362305850083e+00 1.498172207614415896e+01 2.165428511178368254e+01
-1.166280014583839275e+01 1.278429989999911953e+01 2.070929898362836852e+01
-1.063180833419268367e+01 1.339685446241825773e+01 2.094107010684516368e+01
5.374032875031417689e+00 1.460014842640443788e+01 2.384076379239332155e+01
-5.481695949723988548e+00 1.602057824875246439e+01 2.239622768081807536e+01
-6.573364353456989662e+00 1.589137982080000810e+01 2.227724457538524305e+01
1.362801215625345286e+00 1.601376914524126960e+01 2.349242985160560693e+01
-2.793844220557661462e+00 1.633553534050562206e+01 2.285910614211826086e+01
-1.088269017812570638e+01 1.379437370902182280e+01 2.126517032850436095e+01
-1.165600113108895641e+01 1.333485840674501333e+01 2.109128545109767217e+01
1.795927466757218927e-01 1.615196922987768602e+01 2.326829612301481376e+01
-4.721534662248119130e-01 1.621005112788455449e+01 2.317414499561749608e+01
-3.973260733895813246e+00 1.616042622824047470e+01 2.258434625482586000e+01
-4.795890992691854038e+00 1.631878668177791525e+01 2.266211075801336960e+01
-7.570675000000000487e+00 1.570842475000000071e+01 2.216517424999999974e+01
3.147196320392930069e+00 1.586107705643619425e+01 2.395081087998738312e+01
4.848690341923981073e+00 1.513212842397112290e+01 2.405799844669989440e+01
2.254999967274176065e+00 1.593742273049792324e+01 2.372162043978816115e+01
-1.118032621680357774e+00 1.638055351007097471e+01 2.318363331219195089e+01
-1.027873024928178047e+01 1.433494095728785389e+01 2.152745384777354687e+01
-9.584245969993924419e+00 1.449711962248077235e+01 2.153699781435845395e+01
-8.196057438645977911e+00 1.552467630421420353e+01 2.208677890513713038e+01
3.720361151847299652e+00 1.575669396674622291e+01 2.409037062190815703e+01
5.260993518273131553e-01 1.651598492416737329e+01 2.367775417125517023e+01
-3.415176696366158282e+00 1.641335263879179962e+01 2.285210716932508745e+01
-9.106525984077276092e+00 1.476307100300023833e+01 2.166026307800733264e+01
-8.843419028173180152e+00 1.518256715932829337e+01 2.193349225842227668e+01
-1.227992664775937115e+01 1.319496185033822755e+01 2.115397735139097080e+01
-1.103095451761145718e+01 1.422404636803770828e+01 2.159227927971967986e+01
-4.505699938118925552e-01 1.662705695613557566e+01 2.355853836676290669e+01
-6.096136042632614327e+00 1.618425727892117294e+01 2.250854704891222724e+01
-5.618800000000000239e+00 1.647719999999999985e+01 2.273990099999999970e+01
-7.613649922207207155e+00 1.611114857345277329e+01 2.251564869632701971e+01
4.491771788954180167e+00 1.555339239377617666e+01 2.425574245408808594e+01
-4.319774330715070221e+00 1.663121983237655144e+01 2.297651320366884065e+01
-1.983622261774865336e+00 1.642273013119737257e+01 2.307326256691236210e+01
-9.567475523368512924e+00 1.498541948112048239e+01 2.190155417730634824e+01
-1.164920120596907438e+01 1.388553924443591292e+01 2.147335696379702341e+01
-5.266636211513178623e+00 1.676982872123624801e+01 2.302718280764289105e+01
-6.876381562009267867e+00 1.634907967723646038e+01 2.268734798660396379e+01
-8.176111279631388840e+00 1.605651529722504733e+01 2.253992388301783478e+01
3.496999666030076170e+00 1.624279963555418504e+01 2.440059957056918805e+01
1.117675333631012125e+00 1.644679972569832671e+01 2.378974050056159939e+01
1.883311925078260174e+00 1.630352931764123880e+01 2.391843534884195677e+01
2.622174225533255409e+00 1.645516563773192331e+01 2.429610016863670552e+01
-2.436876000335855164e+00 1.666898230204605369e+01 2.321162556997013127e+01
-3.066118519285253363e+00 1.669523591761722159e+01 2.315610463575361067e+01
-1.420345385539741656e+00 1.685829413048996628e+01 2.355024216839614581e+01
-1.026233983403323258e+01 1.482317937984840128e+01 2.189202552941066671e+01
-8.865013369190638315e+00 1.574385013090990171e+01 2.235910356647637087e+01
-1.225298123350028945e+01 1.237961477111107378e+01 2.064304599924410155e+01
-1.221115374876197457e+01 1.368575469620531315e+01 2.147839563560686216e+01
4.375414775864069128e+00 1.595763587837585540e+01 2.454393137043881978e+01
5.255045260172430233e+00 1.567207709532274507e+01 2.468746110862162624e+01
8.725100000000000078e-01 1.687989999999999924e+01 2.408709899999999848e+01
6.244365164387311040e-03 1.703217637356974734e+01 2.403028749555227606e+01
-3.679568413791066916e+00 1.682462864367499122e+01 2.319763496934599800e+01
-1.014150763927314358e+01 1.524286743892740148e+01 2.218812828746307986e+01
-9.550685070479977057e+00 1.547428178544365984e+01 2.226653034102796624e+01
-1.286991310571917779e+01 1.279012632680951711e+01 2.108757125407235122e+01
-1.289631137043144271e+01 1.360513019487804875e+01 2.159812124024231750e+01
-1.095720369884386614e+01 1.466093901306879133e+01 2.188249660963106535e+01
-1.164240162240120746e+01 1.443612712795579434e+01 2.185536377633301086e+01
-6.312407958573075462e+00 1.662366853857356475e+01 2.289880296622118649e+01
-5.813276198560375363e+00 1.683262349125872603e+01 2.306984046411412237e+01
-7.656624652642147311e+00 1.651387099486085930e+01 2.286612191718253939e+01
1.747838552709517490e+00 1.666741230870331592e+01 2.419165888653147078e+01
-4.288606131830285939e+00 1.699380598981412760e+01 2.330140076842904762e+01
-2.079746413898388990e+00 1.700257999710072454e+01 2.356430435297687254e+01
-3.029617393687048299e+00 1.707377054857673215e+01 2.350957739445120964e+01
-1.226842450703898102e+01 1.411242283744485171e+01 2.179048257044547299e+01
-4.914187122090844184e+00 1.706269504742704868e+01 2.331469785904986480e+01
-7.006108558267554187e+00 1.677015559073154805e+01 2.305772520339176523e+01
-8.922046570641402496e+00 1.628108410733389277e+01 2.282659949159591051e+01
3.730175484510862560e+00 1.656901338319120143e+01 2.478323668832896232e+01
3.191361486789012325e+00 1.667932352345194147e+01 2.468182245490149995e+01
2.434903714501515548e+00 1.682208010755996241e+01 2.455561807203291380e+01
-8.583315034331076010e-01 1.718415685578377960e+01 2.397358784637265217e+01
-1.023461516747333100e+01 1.563756471224027322e+01 2.250007145436518385e+01
-1.093500464999666377e+01 1.531227973255712271e+01 2.236880418356454925e+01
-9.533900332602128103e+00 1.596300020677151821e+01 2.263139923519054264e+01
-1.226161639342151766e+01 1.466310646466902234e+01 2.217255392494961086e+01
-6.007929142788699828e+00 1.718836971133782399e+01 2.340007952318626749e+01
-8.310529996266918573e+00 1.659899462478924193e+01 2.302169381185735730e+01
-6.539487066096357104e+00 1.703848594432081143e+01 2.328388168033342609e+01
5.060116369287856131e+00 1.607198463688601464e+01 2.494427113216646319e+01
4.527804969599814378e+00 1.646069777439038617e+01 2.504252705384003619e+01
4.966385076327204384e-01 1.736077041174160129e+01 2.443150764979075618e+01
-3.944404484785619225e+00 1.723659586522207121e+01 2.354374348540765993e+01
-1.722699999999999898e+00 1.733609999999999829e+01 2.391690099999999930e+01
-1.348146441332990797e+01 1.303755559900701932e+01 2.142990495105636484e+01
-1.288764874554524198e+01 1.433930467504205097e+01 2.210760719428904153e+01
-1.163560000000000016e+01 1.498690000000000033e+01 2.223749899999999968e+01
3.963193704306293697e+00 1.689500675245175643e+01 2.516561530814772141e+01
2.016454777142817623e+00 1.719077553884967102e+01 2.473987140427473719e+01
1.146933277708624299e+00 1.726606681379570318e+01 2.451693184947261983e+01
-4.765652466946006527e-01 1.753155407067594851e+01 2.436742418327878212e+01
-4.561729649870687631e+00 1.735556726809482342e+01 2.360221873657278380e+01
-2.551653819684866598e+00 1.744024847105149689e+01 2.390786568673995660e+01
-1.012260867867396641e+01 1.632898664325986715e+01 2.304768769607786538e+01
-1.349738120328748181e+01 1.352659697085675639e+01 2.173628316177238418e+01
-1.351329999999999920e+01 1.401570000000000071e+01 2.204269999999999996e+01
-1.212100975573040884e+01 1.539869063540993466e+01 2.275763389211897447e+01
-5.382151793942683504e+00 1.744981492152722424e+01 2.366624356207716673e+01
-7.699600925597316348e+00 1.691659851880898913e+01 2.321659970470453160e+01
-7.265651299293985232e+00 1.724419219797219327e+01 2.349777934853631578e+01
-9.524871393172620770e+00 1.642088291910154751e+01 2.299802071127041359e+01
-8.970066918790935873e+00 1.669516229400885265e+01 2.316366631368791928e+01
5.839334327273913772e+00 1.588406798173692813e+01 2.512718446276954509e+01
2.885975725775158374e+00 1.711548605745103657e+01 2.496281234881906386e+01
-3.380354333680584578e+00 1.754436531753992412e+01 2.389883331808258404e+01
-1.092247382819601675e+01 1.578195493031433294e+01 2.275319292410984318e+01
-1.155131451661546826e+01 1.550575122535971140e+01 2.264839098175340482e+01
-1.079484583417233523e+01 1.617663049359630634e+01 2.305335547563881349e+01
-1.399665545166417679e+01 1.297041262376369097e+01 2.163837441153613028e+01
-1.278182883084024724e+01 1.489085341727067302e+01 2.254617261263894434e+01
-8.298714036582005349e+00 1.720885983416960130e+01 2.351002661106538483e+01
-8.907282322183041501e+00 1.704363495416208352e+01 2.343719212827133447e+01
5.544870941394414388e+00 1.638173912703555857e+01 2.542386988525202440e+01
4.606884951059655009e+00 1.688706643732539447e+01 2.544300072405908608e+01
7.779595061722696103e-01 1.768854170705190754e+01 2.480921212452215485e+01
-1.449260425674486097e+00 1.770243316237334597e+01 2.430353852172594031e+01
-4.209200171072834173e+00 1.764850001964827797e+01 2.388979901334649725e+01
-1.402521722905512469e+01 1.365168745134169903e+01 2.206827816869272496e+01
-1.340764937857872852e+01 1.456725850891899476e+01 2.248133162292466736e+01
-6.202482164909566720e+00 1.754393430247392516e+01 2.373014997110923119e+01
-6.831549529611436355e+00 1.757190245706851783e+01 2.377905924747422972e+01
-7.753900391881471066e+00 1.731063285887663028e+01 2.360756685963017176e+01
4.196260123355850524e+00 1.722106755265081190e+01 2.554807302205743014e+01
3.388508645759433335e+00 1.738623804385628802e+01 2.539586014277349690e+01
1.421178193316142480e+00 1.765198263749734053e+01 2.494648532800121643e+01
1.211944358074290573e-01 1.784109508229505892e+01 2.477552561634756501e+01
-4.938478931453274434e+00 1.773226008509838891e+01 2.394669475575826212e+01
-2.071116697119873340e+00 1.776062269007293182e+01 2.426209270408680752e+01
-1.199101049904298222e+01 1.585900773899025573e+01 2.310277124496518297e+01
-1.001954252530064871e+01 1.668823003123726778e+01 2.331547906226080613e+01
-1.071085859507853577e+01 1.669469022921759915e+01 2.346365374585104746e+01
-1.146708315233406594e+01 1.602427379240572947e+01 2.305902294668160835e+01
-1.433428178954542176e+01 1.413851518732301926e+01 2.264806677189696416e+01
-1.275751622895010406e+01 1.531948457492769577e+01 2.290677589690472260e+01
-5.668103048333872351e+00 1.781605981587900089e+01 2.400361744165931910e+01
-9.515849820627439115e+00 1.687840909682225998e+01 2.336435678372342650e+01
6.643765416318837325e+00 1.605505614941914061e+01 2.566788463635691642e+01
2.580759774507669135e+00 1.755140700970883927e+01 2.524364685564681920e+01
-1.175877892477761311e+00 1.806868990546047016e+01 2.469009538855500097e+01
-2.992917144882229152e+00 1.792293629446882974e+01 2.429466677768790461e+01
-3.935893056920100719e+00 1.799525558855478735e+01 2.424208376938403475e+01
