2.136907768503215976e+01 4.333003444474817556e+00 3.969245509916101611e+01
2.150854242639059066e+01 3.267702295765607889e+00 3.952715804454194171e+01
2.050726604142070997e+01 8.646872272268806725e+00 4.084224759306886199e+01
2.104341840115231577e+01 -1.099595235934005988e+00 3.814642135907585896e+01
2.150186766066102351e+01 8.915891121156567234e-01 3.916323211787133118e+01
2.145197169933099701e+01 2.909803592296440478e-01 3.899146459447953106e+01
2.008181703462497580e+01 9.519166880362812222e+00 4.057284557858977792e+01
2.074306619501980720e+01 7.926195756858515296e+00 4.078591817139723474e+01
2.071302067325493113e+01 8.052365296983326814e+00 4.139437398360046672e+01
1.933306247628516772e+01 -4.396686656569389839e+00 3.572509954976535340e+01
2.154156377839701264e+01 3.843473474348222840e+00 4.000121012600423853e+01
2.148651107042471509e+01 4.418918900876187550e+00 4.016252352950692028e+01
2.143202332186095305e+01 4.996479446862181817e+00 4.032397371599871860e+01
2.165160320474367595e+01 2.693166394078145842e+00 3.967880771222093728e+01
2.029453935190690217e+01 9.083009734858162432e+00 4.070755762298637848e+01
2.132426695457033716e+01 6.150140129686620050e+00 4.064688828141845534e+01
2.112041461937045739e+01 6.784431832432027853e+00 4.089618611593365216e+01
2.091676459086805906e+01 7.418224821807628544e+00 4.114521670320395685e+01
2.160167054896652061e+01 2.092415773294912906e+00 3.950686043336131092e+01
2.140202018753641866e+01 -3.103197507689383072e-01 3.881952244709429323e+01
2.135200354087541896e+01 -9.124038136857194337e-01 3.864737526138303991e+01
2.137819721508011384e+01 5.574059034974012228e+00 4.048544801651581082e+01
2.022545416514892835e+01 9.268711864078614582e+00 4.146398770158476310e+01
2.050910837962033284e+01 8.687104103708792380e+00 4.164377450360507282e+01
1.972631341786166814e+01 1.017050839720477562e+01 4.025247630519115916e+01
1.994207941176554044e+01 9.849789352366896011e+00 4.128434588754577561e+01
1.987026716607717347e+01 9.974994964198227620e+00 4.083865019220117887e+01
2.060181336627249848e+01 -2.279186241957730008e+00 3.746483785337355243e+01
2.030183715644864861e+01 -2.825918594532061512e+00 3.699202650637811018e+01
1.987581094589168274e+01 -3.467702928948783292e+00 3.643128112042209921e+01
2.171006578830477807e+01 3.965342852239197136e+00 4.061129814181418141e+01
2.159657603080959731e+01 3.268395894718001404e+00 3.984002799007335227e+01
2.169710437064815878e+01 3.495241543704703524e+00 4.029433351472000169e+01
2.096423123264110799e+01 7.365541625728895703e+00 4.197052017194227602e+01
2.073680846256772270e+01 8.025885383938650364e+00 4.180725370195198565e+01
2.177459666041097108e+01 2.010719846565962143e+00 3.985104961902708709e+01
2.189766596785358388e+01 1.327851151955013131e+00 4.002341683440513265e+01
2.087015402455389079e+01 -1.715406226310572935e+00 3.788491308561523141e+01
2.117851253676807843e+01 -1.528353479285831540e+00 3.838548818830820863e+01
1.971724639661121614e+01 -4.261008739224033448e+00 3.626330646618317388e+01
2.164758547271130240e+01 4.849126435817987968e+00 4.092397963845803588e+01
2.175788177045843241e+01 2.978781304118138351e+00 4.018594194578413692e+01
2.186416489576329880e+01 3.264448570165678465e+00 4.069311177541337088e+01
2.125787006274022417e+01 6.427893796206958221e+00 4.138984521081165013e+01
2.148606746421712188e+01 5.499798223240407680e+00 4.078553833333884882e+01
2.139825265677866639e+01 5.861908802886508951e+00 4.130840491730214126e+01
2.023844430753059598e+01 8.604178072554720558e+00 4.206227592791345415e+01
2.013396834662633239e+01 9.087984700306250829e+00 4.180692620139525673e+01
1.975917742431543900e+01 9.488547330665557666e+00 4.196985675131857363e+01
2.187236975303526521e+01 2.241495943869043384e+00 4.030449919945474591e+01
2.164013823724254948e+01 -7.997156367603922011e-02 3.933322262880042075e+01
2.161604129036866695e+01 -6.209125531904864381e-01 3.922116675880079129e+01
2.141938315054276032e+01 -1.521025863264063860e+00 3.880489122129203139e+01
1.967625266965599096e+01 9.205291461110858720e+00 4.230613384910972741e+01
1.996801030362348328e+01 8.521339788182601183e+00 4.247987603743536056e+01
2.037601778599400149e+01 7.915769178696046460e+00 4.236450711295224636e+01
2.056106960884098811e+01 -2.877051194641048415e+00 3.742091050037144839e+01
2.039359101355090331e+01 -3.408239994835164488e+00 3.716570843790127299e+01
2.180901052875054091e+01 4.199149335097767555e+00 4.106238730039662244e+01
2.134735327599877053e+01 6.075689927332335039e+00 4.194690320603650946e+01
2.150322954029756062e+01 5.444797278866423618e+00 4.176027279686468319e+01
2.153574279182917195e+01 5.306212564065694082e+00 4.127087185778840706e+01
2.119140571414959595e+01 6.705973708498513375e+00 4.213362636360761115e+01
2.078373117673077175e+01 7.310759129133727718e+00 4.224922345885265429e+01
2.012876654360037776e+01 8.217342042898303944e+00 4.290724613111622432e+01
1.944747680761986430e+01 9.003502657220620264e+00 4.268432897499671697e+01
1.892743873586850256e+01 9.485241663336834606e+00 4.288858437877020435e+01
1.959449639418670230e+01 8.848409096493835335e+00 4.288644213174717379e+01
1.922081665653256621e+01 9.175637602397429760e+00 4.329320311495340690e+01
2.190069481355750725e+01 2.727369609171048204e+00 4.060738162258134309e+01
2.178286858910868062e+01 4.099366466497904038e-01 3.968200282225030406e+01
2.202839622980111400e+01 2.353169974516839069e+00 4.092307798298237032e+01
2.205729564657433883e+01 1.754966233031055367e+00 4.078433073869808112e+01
2.100502903018473688e+01 -2.144288923680978787e+00 3.812363412170795840e+01
2.010139073428340240e+01 -4.125344425219148015e+00 3.680145704013470720e+01
2.083177518010804619e+01 -2.759405170868427071e+00 3.786214745252727454e+01
2.164000573521688509e+01 -1.380675697863906537e+00 3.928600265601698993e+01
2.187979076142464052e+01 -3.297807272793148448e-01 3.979433864570594181e+01
2.180177108138073550e+01 -9.271269436760459781e-01 3.963307549094896132e+01
2.065851916412297484e+01 -3.374529902959822358e+00 3.760067836858453916e+01
2.165898580504970994e+01 4.812572554110370326e+00 4.157377947792608808e+01
2.197055938003649800e+01 3.550431731544434477e+00 4.120082626681406168e+01
2.162732033536947185e+01 5.508245716005055748e+00 4.219994754058173925e+01
2.140946199347862589e+01 6.107792201516983432e+00 4.216679665427838586e+01
2.089072773866751476e+01 7.108468077809630081e+00 4.253408948820129609e+01
2.058995859612229751e+01 7.511151870196353109e+00 4.293436223031405063e+01
2.107467324893526595e+01 6.694488994532492576e+00 4.299288346503434610e+01
2.132167649786545738e+01 6.099376682821232798e+00 4.281190660501359702e+01
1.980904025211340880e+01 8.442921847676537084e+00 4.345599031420467639e+01
1.840699538373036503e+01 9.967404956332998722e+00 4.309300221975254175e+01
1.884767429806332473e+01 9.502417826940501300e+00 4.369940529779091776e+01
2.202086988394849953e+01 6.442316262372183022e-01 4.019599050491000725e+01
2.225230927060890096e+01 2.202809659956983079e+00 4.144297223769189742e+01
2.208617022821774967e+01 1.157285008010295435e+00 4.064572071553895682e+01
2.125310963599519809e+01 -2.053056671140473632e+00 3.855007544701659583e+01
1.994794309143532729e+01 -4.968561654294076924e+00 3.670628828403247468e+01
2.048522541969443722e+01 -3.989790773757003972e+00 3.733917324591507736e+01
2.094236225663540552e+01 -3.212965493610624002e+00 3.808480903295075137e+01
2.120040843461145386e+01 -2.660420272271231124e+00 3.849821452396140131e+01
1.932824886247313145e+01 8.972757412555541379e+00 4.357773152094520697e+01
1.487802659886284395e+01 -1.571733965294951352e+00 4.635705554458358080e+01
1.507362187499999884e+01 -8.175343321190973178e-01 4.644671997367396443e+01
1.454624676556655238e+01 -1.084201072839428681e+00 4.650792193931188478e+01
2.181471409598630729e+01 4.180295668753919891e+00 4.138729570271262759e+01
2.156904936089094349e+01 5.501250173315818337e+00 4.263023057264746285e+01
2.181605908349853351e+01 4.904003154200172077e+00 4.244822924314511425e+01
2.184517003867955509e+01 4.907560398550208980e+00 4.223309857193095240e+01
2.068180697991938999e+01 7.304159143670138299e+00 4.316371892554671774e+01
2.028943670024349188e+01 7.913556400518127809e+00 4.333433370511711047e+01
2.199947412182202555e+01 2.951861463988138201e+00 4.106195342227000111e+01
2.214395312499999946e+01 -3.871401776725841987e-02 4.036841453332993268e+01
2.211505289434790100e+01 5.594606210357891962e-01 4.050709776215435909e+01
2.148669082895563776e+01 -2.128990957858210464e+00 3.896225176276530533e+01
2.021655789481922838e+01 -4.479223520641937739e+00 3.702269711465014979e+01
2.076903141584427814e+01 -3.828187627391129944e+00 3.782322662176699168e+01
2.203937373990941850e+01 -6.994813920272946461e-01 4.014997867894879846e+01
2.193466681782447836e+01 -1.361036595868264421e+00 3.993129655394503175e+01
2.133724288278494541e+01 -3.504660167709590990e+00 3.879237078304282704e+01
1.817143290406062661e+01 1.802767640681248063e+00 4.576912359754508230e+01
1.803607071859137179e+01 2.417295847151816890e+00 4.589912280116953980e+01
1.774027623355714312e+01 1.965630819245621996e+00 4.596631933693080896e+01
1.744440460771608770e+01 1.513513270735372895e+00 4.603361179416044280e+01
1.787578329207670436e+01 1.350462551696427482e+00 4.583628759729068491e+01
1.829146365333029678e+01 2.907573729659012063e+00 4.584014201229101815e+01
1.881260872267881012e+01 2.398835331425237083e+00 4.546991874367535758e+01
1.855982148438567236e+01 1.793487714469124361e+00 4.555444167001928690e+01
1.904861666613423665e+01 1.840677318194370304e+00 4.534655740931528811e+01
1.830689561347336181e+01 1.187492553785195692e+00 4.563911250751999660e+01
1.891395451780741865e+01 9.546271368683718617e-01 4.536937650615678308e+01
1.844640647557470814e+01 9.831696602639858895e+00 4.395881631754944863e+01
1.850231955055242139e+01 9.682081369934268267e+00 4.424896159464233136e+01
1.938455828222492272e+01 8.822779335710530191e+00 4.386763885924851536e+01
1.893152023834881703e+01 9.278020532570423029e+00 4.413465364977114547e+01
1.930287880244150500e+01 8.780360218577293097e+00 4.401301016293682977e+01
1.679195186456360034e+01 1.439852786590652134e-01 4.611773608893986420e+01
1.676333948791658202e+01 6.732431180707720841e-01 4.617563371649588078e+01
1.637265129203682434e+01 2.830232505064367299e-01 4.624593880559296366e+01
1.755034096206642147e+01 8.031177121020501852e-01 4.592322802677346516e+01
1.720981845755061812e+01 3.831589354072285625e-01 4.599425383000405532e+01
1.765622407689778939e+01 9.320304649421579102e-02 4.581296779390154938e+01
1.798152219013347874e+01 6.402809114715236616e-01 4.572600654946902665e+01
1.710402003040419316e+01 1.093612291306067519e+00 4.610455011077490184e+01
1.851119471129163330e+01 5.641504057056422328e-01 4.553673846493417443e+01
1.552667402796740781e+01 -4.623976204477627805e-01 4.638150960760243180e+01
1.547503322007928617e+01 -1.270183124914610273e+00 4.630474518305434373e+01
1.597978437499999949e+01 -1.072207388054679383e-01 4.631629212659556316e+01
1.594535374497188229e+01 -6.457170176435105269e-01 4.626509858396874364e+01
1.641530654752474305e+01 -5.106482360290575118e-01 4.615915862263309322e+01
2.201682017338203678e+01 3.928468196450801031e+00 4.173351309316880986e+01
2.206304936242337433e+01 4.306806250000000169e+00 4.226626916574378612e+01
2.073145893212321411e+01 7.058131699799095493e+00 4.325191902140596767e+01
2.126422073543719549e+01 6.137812859106004382e+00 4.301924219403502292e+01
2.072224687500000329e+01 6.386311082474226630e+00 4.349919807671865613e+01
1.983706863363731898e+01 8.368098271099530194e+00 4.360094723268737482e+01
2.004534427402673913e+01 7.785548023162939479e+00 4.376975690466448299e+01
1.967413133434049755e+01 8.282919523604197920e+00 4.389138987436513162e+01
1.968946238473097665e+01 8.166983584555264741e+00 4.402192438336670932e+01
1.975740485184993034e+01 7.548722231159650242e+00 4.417505528003559334e+01
2.007893844389954907e+01 7.160634326654935045e+00 4.394951806582302822e+01
2.038814625907309619e+01 7.422060479776156683e+00 4.351102600636128415e+01
2.027052622208699262e+01 7.319076633138939414e+00 4.367961433991560938e+01
1.994094308723169817e+01 6.443770668740442353e+00 4.435729864061137562e+01
1.994223651994027691e+01 7.027928254705912536e+00 4.411179077009728644e+01
1.956377483043550214e+01 6.899175798787379854e+00 4.472913608392762796e+01
1.970682615919458414e+01 6.192290707030826624e+00 4.467600927193844029e+01
1.932485262169833717e+01 7.557205109230728191e+00 4.483960177007308801e+01
2.031812395331095900e+01 5.987668467357403657e+00 4.398544875210532012e+01
2.013022585720290891e+01 6.508054488078196975e+00 4.404860281598539018e+01
2.039981717788823801e+01 6.773301772874408044e+00 4.372434275385462144e+01
2.222003301850124757e+01 3.156070550116398366e+00 4.207230660724437854e+01
2.211135112897233412e+01 2.876742840695320602e+00 4.132187170290796274e+01
1.956000940611243522e+01 3.801580570874552478e+00 4.500968409046247842e+01
1.951259025194990215e+01 2.988734081633439565e+00 4.510064444800486427e+01
1.992960689395718532e+01 3.414333934145735938e+00 4.475415929822635519e+01
1.915827240957986533e+01 3.646978367284937406e+00 4.532600086510057480e+01
1.989825465112314617e+01 2.873023797769198140e+00 4.481484760419883884e+01
1.854690962273895138e+01 3.399065420216954347e+00 4.578124237799848117e+01
1.898535841808513069e+01 3.021768889187161466e+00 4.539791973335417197e+01
1.924393125640656876e+01 4.266547985381093255e+00 4.528787444609373125e+01
1.867970189135687420e+01 2.897859407931389963e+00 4.562557062103390138e+01
2.229851124909660598e+01 2.580821204971536442e+00 4.197537119979018172e+01
2.226540423982467232e+01 1.260166570566157551e+00 4.114364488228998340e+01
2.239305051312934935e+01 1.529689363576884453e+00 4.156393973923124463e+01
2.050663455816913228e+01 -4.704065102103222706e+00 3.753239949094385963e+01
2.183006654370003119e+01 -2.022180947929785422e+00 3.971285755869278233e+01
2.155389361073361343e+01 -2.736020908324492407e+00 3.911937971409963666e+01
2.105294792343280363e+01 -3.666527905240513974e+00 3.830747345419153760e+01
1.933929100937472967e+01 2.366954183152636393e+00 4.517285007322317369e+01
1.986657495265025375e+01 2.334969909784687658e+00 4.487554274310170399e+01
1.875016706867677030e+01 3.927434824154542259e+00 4.573622543532546558e+01
1.928493666822855701e+01 1.281472404848317259e+00 4.522305473700053824e+01
1.975151084498855525e+01 1.797187786461007963e+00 4.495013760347914200e+01
1.828760828635873992e+01 -2.945744054126779865e-01 4.557265285175760994e+01
1.996009117431488988e+01 3.956118896263857376e+00 4.469351172649573556e+01
1.964317974341297202e+01 4.421294319254090333e+00 4.497077554710858038e+01
1.990497842701503473e+01 4.719649753409543180e+00 4.465833023994395035e+01
1.958830579242541248e+01 5.184842448396114634e+00 4.493503164816362272e+01
1.932616140781741976e+01 4.886627944998863882e+00 4.524782899553402871e+01
1.915830305523704169e+01 7.378907822197439792e+00 4.534067996416985125e+01
1.932798644141246669e+01 5.515934800255618775e+00 4.525429059869016868e+01
1.920810401598694739e+01 5.570434400978196976e+00 4.563052057834487130e+01
1.932980937499999996e+01 6.140750314597315906e+00 4.526074391502549332e+01
1.959001428895667374e+01 5.813081096001181614e+00 4.494162045144887685e+01
1.807320704937236044e+01 1.008608506886539757e+01 4.436320587222561329e+01
1.942262503374902138e+01 7.882395074481777009e+00 4.456246608523952801e+01
1.908747354752105707e+01 8.216404354877791860e+00 4.495022783976433089e+01
1.725300830017520681e+01 -4.099119763267471406e-01 4.590738432982989536e+01
1.779612399163294612e+01 -5.953899194443833531e-01 4.573821190394248504e+01
1.725860253580299997e+01 -1.267258237453651404e+00 4.586412256546199018e+01
1.591091372700620177e+01 -1.184369996433952243e+00 4.621390292728985827e+01
1.587648010487037986e+01 -1.722906378175556918e+00 4.616273057732830409e+01
1.527929064016803018e+01 -2.024512286067533307e+00 4.621509885077870905e+01
1.636367561466681053e+01 -1.318386528174827932e+00 4.608236501403405327e+01
1.984991875000000050e+01 5.482453125000000149e+00 4.462286510561083475e+01
2.043718605770965269e+01 5.374299804108746414e+00 4.401165774527219554e+01
2.049578012455459231e+01 6.852327991728358825e+00 4.358937670649801532e+01
2.091203439503052053e+01 5.703391837675857445e+00 4.352857235028680805e+01
2.055623277010231931e+01 4.761005012630684874e+00 4.403786072026039022e+01
2.064264310396266211e+01 5.436869326472657526e+00 4.385283349959851051e+01
2.096725421239898779e+01 4.885910841070858268e+00 4.372017570744499437e+01
2.067549375000000111e+01 4.146606249999999605e+00 4.406410688894325034e+01
2.129214074780727728e+01 4.334487528267777279e+00 4.358739862848455004e+01
2.110217547841770269e+01 5.018622861802983337e+00 4.355799987569592702e+01
2.164398946489892239e+01 5.018253129963295756e+00 4.307188273626709929e+01
2.145404521236852702e+01 5.578206736506471586e+00 4.304563922018135713e+01
2.099951170308129633e+01 5.905290227903621236e+00 4.339910270736998399e+01
1.949746230679276948e+01 8.009276848086930300e+00 4.429218009400596401e+01
1.944684488155707669e+01 6.520083485998515727e+00 4.499481994164825949e+01
1.924233341851385859e+01 6.759862486644105495e+00 4.530072386962026343e+01
2.214150988028218947e+01 3.731561381420674284e+00 4.216931917255068640e+01
2.155544205625533394e+01 4.940982656489519620e+00 4.319866858305475432e+01
2.127697591853848991e+01 5.423346558626810143e+00 4.329893123448120207e+01
2.024148166779074387e+01 3.345032607796019963e+00 4.456286079799520650e+01
2.031798041467867577e+01 4.051412618490462414e+00 4.437879374377756392e+01
2.071821211094226456e+01 3.471955995174693665e+00 4.414372891713669844e+01
2.090255696622610770e+01 3.614186981666390519e+00 4.401484024318397559e+01
1.895293124999999890e+01 4.455915624999999380e+00 4.569126453554671485e+01
2.112938059644774214e+01 3.083397996119234818e+00 4.396519474921503701e+01
2.076088303763324561e+01 2.800291669901285641e+00 4.422284876907907147e+01
2.052261876943322250e+01 2.736177445483199744e+00 4.443235544967600958e+01
2.233034134039505858e+01 2.927562045794517509e+00 4.247639129338641339e+01
2.237694180717153358e+01 2.005922214800755388e+00 4.187851475085356157e+01
2.219669892291569724e+01 3.617174365307044503e+00 4.237131224574136468e+01
2.227320308744931410e+01 2.597699787407114491e-01 4.080735417033391599e+01
2.240244527823254828e+01 5.582666064974853848e-01 4.124628687257287396e+01
2.087363345313592333e+01 -4.422896587620905429e+00 3.814276154029782617e+01
2.220063137347716165e+01 -6.734296002152947436e-01 4.050278177557832748e+01
2.140695502612510381e+01 -3.900859147132968552e+00 3.900528445826332558e+01
2.162109774962965503e+01 -3.343051282881869479e+00 3.927652307390668085e+01
2.011649346259288507e+01 1.641519788207134845e+00 4.477234563380590515e+01
1.952151163916587606e+01 7.215302018149429841e-01 4.509944154639759972e+01
1.963656620463791924e+01 1.259715848026647933e+00 4.502472041215406051e+01
1.871560673884678394e+01 -5.956064770237649852e-02 4.543432821316033454e+01
1.922051389759336004e+01 1.883105442702086643e-02 4.521574703920582294e+01
1.922946475170459024e+01 6.139870671423474313e+00 4.561996626600054583e+01
1.925082187499999975e+01 6.706193519324512131e+00 4.560941175857978180e+01
1.923757107248060549e+01 8.469560411604581063e+00 4.440921100898687257e+01
1.933376180890281049e+01 8.548211305713561359e+00 4.427394370805365043e+01
1.897772946780868963e+01 8.929824292660281770e+00 4.452621126121648842e+01
1.908047716460042409e+01 5.013000191267624750e+00 4.566135715848125187e+01
1.846240734630038816e+01 9.679214643384950634e+00 4.449794909097245466e+01
1.848539454443838537e+01 9.505198444817496650e+00 4.469384381200799794e+01
1.682053625184422785e+01 -3.847507010835460872e-01 4.605991215781958914e+01
1.684914733418403543e+01 -9.139927261880148590e-01 4.600204914245104959e+01
1.793604516191676623e+01 -1.283990501348001967e+00 4.566347336749883823e+01
1.500278461575092770e+01 -2.790143391810377516e+00 4.613837134144302610e+01
1.579739107614558158e+01 -2.388456766700422396e+00 4.606851270380333574e+01
2.012486015451035470e+01 5.037575777668421573e+00 4.443678644243721010e+01
2.040032474165800735e+01 4.591850378201750793e+00 4.425034919622724061e+01
2.183375817302965416e+01 4.458815624999999727e+00 4.309767266520181295e+01
2.153356854157920708e+01 3.721653353170028211e+00 4.354676872003320653e+01
2.136486517398212115e+01 3.755788824513219382e+00 4.365712845162193645e+01
2.143762888270893541e+01 3.178486861340483749e+00 4.372667827441657806e+01
2.135607641446816984e+01 2.554403662756247417e+00 4.391559793048153182e+01
2.198649055671129204e+01 3.875971417099206562e+00 4.301532753394742770e+01
2.194085082194217406e+01 3.815029039906397301e+00 4.317921086836048516e+01
2.213919154958307089e+01 3.294899544193810037e+00 4.293299480763643317e+01
2.246367963898088149e+01 2.239249644349068369e+00 4.258127390266689360e+01
2.073593542394347011e+01 -4.948920996640988612e+00 3.800446812932631246e+01
2.052806256801001084e+01 -5.418963128759458847e+00 3.772580237073270126e+01
2.119268049442803559e+01 -4.459013283235158553e+00 3.873389358211955624e+01
2.172558172008865895e+01 -2.682614398167444847e+00 3.949467937219762348e+01
2.225724101176821179e+01 -1.307395947083893173e+00 4.063699638291537752e+01
2.210585888630686213e+01 -2.048908945316789687e+00 4.031737944224953907e+01
2.033661184246547293e+01 2.232227095229216918e+00 4.458844460305016355e+01
2.073996866185947496e+01 1.505430632742356112e+00 4.439003193551381088e+01
2.036494418218976676e+01 9.487144200969442887e-01 4.466929935565183740e+01
2.080353835300104848e+01 2.129640034850192265e+00 4.430197870055827991e+01
2.097689542408870977e+01 1.566882348319035057e+00 4.426974081658715221e+01
1.970199215778236734e+01 4.224715106173398613e-03 4.501731734410291352e+01
1.891991170911186160e+01 -6.829581005302258756e-01 4.533199236896811612e+01
1.895169655595032410e+01 7.926534124882363308e+00 4.539478204276162643e+01
1.799314387400931992e+01 1.008059964602034242e+01 4.486136648875464061e+01
1.873691646592139648e+01 8.779910758678138194e+00 4.506195005276885013e+01
1.868203876475012137e+01 9.136637787450407444e+00 4.484994581699521632e+01
1.874495548186744642e+01 8.474020691741294797e+00 4.544885729963702659e+01
1.838642644009388150e+01 9.343423110612331328e+00 4.517363239789505513e+01
1.690201094940597670e+01 -1.609610079281150741e+00 4.592951064880028866e+01
1.849784842260992690e+01 -1.327921995395758170e+00 4.546036387839800597e+01
1.625265900033476285e+01 -2.148445441235523390e+00 4.603665203338331224e+01
2.177537507188436550e+01 3.110159996636443491e+00 4.350587374185368361e+01
2.151038200598680561e+01 2.601748175877177882e+00 4.379623887639372981e+01
2.204789669040050981e+01 3.173005286706861661e+00 4.326076885493916535e+01
2.229187539982567756e+01 2.713418700381978077e+00 4.285067039381834775e+01
2.245534479452721754e+01 1.431240160437085907e+00 4.178170807259514419e+01
2.253374800089622454e+01 8.565769234911563279e-01 4.168491948579196560e+01
2.250003194039998888e+01 1.701968686187237401e-01 4.152895859168704362e+01
2.097823368012312883e+01 -5.017616553596734086e+00 3.846229778142578937e+01
2.246713500960112242e+01 -5.161618383006624233e-01 4.137302861586946534e+01
2.243490616850902697e+01 -1.202505409326388719e+00 4.121713146680035322e+01
2.006852110599277594e+01 4.888989302251073310e-01 4.483284292338419874e+01
2.067635325943724922e+01 8.807377099250728314e-01 4.447819186457800100e+01
1.988211405848878499e+01 -7.122407557343835016e-01 4.493531435275217945e+01
1.949162429659145346e+01 -1.056055408102892113e+00 4.509251086344995940e+01
1.913956137833042348e+01 7.249205182366546651e+00 4.561926897123466063e+01
1.903323782791587249e+01 7.792429568746453761e+00 4.562912611839892207e+01
1.856572874826597541e+01 8.908643869286169803e+00 4.531128769171014881e+01
1.766737734300354035e+01 -1.619948252897013941e+00 4.572642708017646385e+01
1.898790107213340406e+01 -1.254793477702389248e+00 4.529137019669605735e+01
1.615202746433827841e+01 -2.732315778709441645e+00 4.595893157047088096e+01
1.571984760646907553e+01 -3.053765993879903551e+00 4.597433475941289061e+01
1.695325900326166391e+01 -2.304639622305631352e+00 4.585704657054768063e+01
1.662875731651709899e+01 -2.573830543023930773e+00 4.591062039878242018e+01
2.201905353763341111e+01 2.498247131708814184e+00 4.346497165447777888e+01
2.215495216614636576e+01 2.530359305505588630e+00 4.334238327057523321e+01
2.244444465940110334e+01 2.132174980661798447e+00 4.276841046341792918e+01
2.158324062499999840e+01 2.024007605736432680e+00 4.386592018912714508e+01
2.259698333363679623e+01 1.550929411710612937e+00 4.268617142224082528e+01
2.256543337513819480e+01 1.203735127647360681e+00 4.218553347720165192e+01
2.226210941299929758e+01 1.886746483036084721e+00 4.342413202716043941e+01
2.175330850815927874e+01 1.392020221273497782e+00 4.384381202360046359e+01
2.155449215572460275e+01 1.307887401767936053e+00 4.396839801857158392e+01
2.076400638074289873e+01 -5.575649351422726774e+00 3.819099330874490050e+01
2.159069978533074874e+01 -4.060109840420809135e+00 3.943578349062271826e+01
2.194938370806075056e+01 -2.489023974093488079e+00 3.998175502604323839e+01
2.187068930301967384e+01 -3.087120953000447976e+00 3.981906566584406448e+01
2.183173129451276395e+01 -3.645490338544421949e+00 3.990468946565187736e+01
2.061276644274173364e+01 2.563204468563856642e-01 4.456635360057872219e+01
2.115035116850885544e+01 1.003761726731977388e+00 4.423750455037109219e+01
2.042872336417612189e+01 -3.054448088318832411e-01 4.466199141306589127e+01
2.105510177052039111e+01 6.711688792703680850e-02 4.436966255959627858e+01
2.132375180969470208e+01 4.407995095514381512e-01 4.420529927152419702e+01
1.877352679960362991e+01 8.280899247857627543e+00 4.566329917368604896e+01
1.851348621847540343e+01 8.769592002624952087e+00 4.569746998825206674e+01
1.839714308622466632e+01 8.950144436367082790e+00 4.550805971426309782e+01
1.804952329008264655e+01 9.426046445167960641e+00 4.556719507018821957e+01
1.811290657684952166e+01 9.188412795141131184e+00 4.575044411239873199e+01
1.837606090928107605e+01 8.963956862733233777e+00 4.565888703445477148e+01
1.835359087842108039e+01 8.936770246765036063e+00 4.571862381589470914e+01
1.807606970584413730e+01 -1.972599987681706191e+00 4.558875110862356195e+01
1.754026042353164527e+01 -2.485773508080496352e+00 4.568668973957442603e+01
1.632359276935916625e+01 -3.358984083776497709e+00 4.583241573071174457e+01
1.700542193126464241e+01 -2.998946955344060417e+00 4.578466987386533305e+01
1.564166344105228568e+01 -3.719111807843404449e+00 4.588015532856063317e+01
1.532251386934957083e+01 -3.254671738509757883e+00 4.600924994833996351e+01
2.234625896372136111e+01 1.308905085042634475e+00 4.336285339961531804e+01
2.226283975989089114e+01 1.289432931502108248e+00 4.351256789363967670e+01
2.263193252367365460e+01 -4.385943265337731156e-01 4.191836956074586595e+01
2.054950620949480466e+01 -6.134391290871773705e+00 3.791935547149436303e+01
2.129875322313779762e+01 -4.965544611219704585e+00 3.911096842627814141e+01
2.105212182344499894e+01 -5.406263520717243587e+00 3.873606987417221603e+01
2.231384371231381891e+01 -1.941275692881171633e+00 4.077120631939817486e+01
2.240267731926029526e+01 -1.888835540484182118e+00 4.106126632890447326e+01
2.268098010729411840e+01 -1.086176586558726287e+00 4.203511184912563436e+01
2.212067954571557493e+01 -2.830849146671392536e+00 4.036248439816186107e+01
2.186597024377479315e+01 -4.327744794590871358e+00 4.021476818774706175e+01
2.200771876868306975e+01 -3.311904491719677157e+00 4.023693093795733233e+01
2.203420987391598374e+01 -3.743271538937786413e+00 4.044508101618212237e+01
1.905571933843718213e+01 -1.827044294654451617e+00 4.525072959864632338e+01
2.070566989677254099e+01 -3.154071087725958122e-01 4.455051350587482517e+01
2.079858859268968629e+01 -8.870153838437333516e-01 4.453469399966053999e+01
2.024472370538531152e+01 -8.670841405818139336e-01 4.475764476343329790e+01
2.152628996107274517e+01 5.924308172497398939e-01 4.407081914100692188e+01
1.684327735457546282e+01 -3.673336308078660739e+00 4.568381709616358677e+01
1.734884783494218041e+01 -3.397334093974177627e+00 4.565530223935448362e+01
2.262358520563793718e+01 8.939629922126226536e-01 4.257926284969806119e+01
2.192422036133714514e+01 7.606193696428016349e-01 4.382174933648812498e+01
2.261835650312873014e+01 9.131919111223589791e-01 4.279415273411427023e+01
2.258285566303787917e+01 2.089907210961993722e-01 4.180163926109382544e+01
2.087617378103388788e+01 -5.921557634653260571e+00 3.853091569861138055e+01
2.156026928487390748e+01 -4.777959597565991423e+00 3.959523574817149694e+01
2.152984370262679903e+01 -5.495694774314380027e+00 3.975467585413957039e+01
2.120280109018469972e+01 -5.708757655082186133e+00 3.914240487162776816e+01
2.169786196353589602e+01 -4.911848632466899289e+00 3.998465173210299639e+01
2.267679121773366191e+01 -4.199247123698244821e-01 4.236551780750610163e+01
2.270339561610045465e+01 -1.076847534366862646e+00 4.225868072684412624e+01
2.273000078166995053e+01 -1.733758485294581098e+00 4.215186767284415481e+01
2.254843296998156887e+01 -2.154483533529966355e+00 4.152863164386049988e+01
2.220234673422909211e+01 -3.159153715577948773e+00 4.067527088792569856e+01
2.237044707155036960e+01 -2.575160921361139721e+00 4.090542906671331735e+01
2.006072257233882539e+01 -1.428717104426329598e+00 4.485333498602943081e+01
2.132812840964660950e+01 -7.576153468440938177e-01 4.428297870375285328e+01
1.806259829207935397e+01 -2.713087401508127883e+00 4.552465314143679365e+01
1.593425847160030884e+01 -4.153508947621001646e+00 4.574746240284064669e+01
1.718656380511047388e+01 -4.071962248936212170e+00 4.555442575732460142e+01
1.863298413110521068e+01 -2.472495781204572030e+00 4.537904185456972783e+01
2.243029332871960690e+01 7.316417642782890862e-01 4.330165531153077296e+01
2.265018769490152550e+01 2.370118737057516634e-01 4.247237866384219984e+01
2.126112383028615227e+01 -5.970589853763583754e+00 3.945809452109678972e+01
2.206669813540588265e+01 -4.359022569076946851e+00 4.079863805090349160e+01
2.263968911339436829e+01 2.754614607846950780e-01 4.290215014578750896e+01
2.251429674832891337e+01 1.544215276498520917e-01 4.324048072937602427e+01
2.226351033082349318e+01 6.926777037625232447e-01 4.360094022547493608e+01
2.209453395310933743e+01 1.299147335392961400e-01 4.379973536942450352e+01
2.226412754083282763e+01 9.596217251568883722e-02 4.368932288572071343e+01
1.977073474161576172e+01 -1.942763545587883778e+00 4.495858085116341840e+01
1.948060498069582636e+01 -2.457242928714175711e+00 4.506394698029350110e+01
2.149835754342167604e+01 -1.219590222446692018e-01 4.417312475639457148e+01
2.089291289740360469e+01 -1.458742254680741812e+00 4.451888687448585813e+01
2.052337105236609816e+01 -1.729526007598947146e+00 4.467830989334285618e+01
1.912277439818146263e+01 -2.399590193924486581e+00 4.521007941534954711e+01
1.668115128071829645e+01 -4.347756414621042786e+00 4.558296651378753950e+01
1.769224641407972243e+01 -3.795795213237360688e+00 4.552591565643142246e+01
1.804915147230100558e+01 -3.453605486952318060e+00 4.546056665307048661e+01
1.918987163507877725e+01 -2.972175531350342403e+00 4.516943704198907739e+01
1.803583284690065014e+01 -4.194472141258207110e+00 4.539646398991915532e+01
2.042848356626648965e+01 -6.712920993588688212e+00 3.803695448023030679e+01
2.099241439766336015e+01 -6.445467054618624125e+00 3.916153253504083409e+01
2.072396063211166961e+01 -6.919891014977520349e+00 3.886525899185537725e+01
2.138032463774450420e+01 -6.151457286026941418e+00 3.989296150069059621e+01
2.157408185058542927e+01 -5.935208427692102440e+00 4.034026352952817973e+01
2.174973117065663430e+01 -5.273632394657188804e+00 4.028561431120729708e+01
2.266098409451385365e+01 -3.622639466011904896e-01 4.301016202075055617e+01
2.268224360574602727e+01 -9.999842460565285807e-01 4.311818789201759472e+01
2.228010507605820933e+01 -3.702228601479608638e+00 4.112668217999950571e+01
2.189096163156841968e+01 -4.743115707358061428e+00 4.046201732253832972e+01
2.232529236044204879e+01 -3.138485522466444966e+00 4.101600707343361307e+01
2.157197600455726416e+01 -7.424324492575866685e-01 4.416662542653790524e+01
2.226469115987715597e+01 -5.008640879250536582e-01 4.377774201453920710e+01
2.115752085950156314e+01 -1.393882107775659351e+00 4.439297108807745218e+01
1.880505474780298769e+01 -3.379709345606990656e+00 4.524511044903635337e+01
2.007844220381872447e+01 -2.602368735591883198e+00 4.485869060873325509e+01
2.006967034159929497e+01 -2.015542834726453236e+00 4.485600583596922775e+01
1.752987418797917840e+01 -4.470604665392482246e+00 4.542503286983028232e+01
1.842047877839616277e+01 -3.787033824783521130e+00 4.532076646093014460e+01
2.090939485405987242e+01 -7.071066809337393622e+00 3.944090010456756090e+01
2.113671086311478220e+01 -6.546637281316627366e+00 3.959671346405924197e+01
2.045525027800449891e+01 -7.394771985158076433e+00 3.856871181072753529e+01
2.244110181011299687e+01 -2.773625677707525217e+00 4.136785311522065456e+01
2.262134101545215259e+01 -2.352917059238028852e+00 4.199105753794176366e+01
2.270620189964661151e+01 -1.366884712376023492e+00 4.263501592494376524e+01
2.266296517804115851e+01 -2.306000354638304550e+00 4.225240237065311533e+01
2.259404031159484916e+01 -2.209097285284862711e+00 4.289248052567361924e+01
2.259827898683838754e+01 -4.227860419638586609e-01 4.317932466503400946e+01
2.210705706505329005e+01 -1.202466578149005150e+00 4.390099064301278986e+01
2.164536822373815994e+01 -1.362902326646082463e+00 4.416014567303260918e+01
2.098660021151572508e+01 -2.030691069196402854e+00 4.450309043755351723e+01
2.068962099492327411e+01 -2.612801076089593444e+00 4.462346804822988133e+01
2.008717629472301525e+01 -3.189194784995440290e+00 4.486138858407319674e+01
1.908494611741153335e+01 -3.699918710818784096e+00 4.515095951297347909e+01
1.964305970407940904e+01 -3.374281512947985728e+00 4.501669540902282307e+01
1.776899836444891179e+01 -4.819473031149453135e+00 4.532804757082273994e+01
1.845580876970855400e+01 -4.674314259873344923e+00 4.525526873955061546e+01
2.152480267393774582e+01 -6.409551430892022061e+00 4.064099947942241897e+01
2.174631634089217513e+01 -5.883244734830643807e+00 4.087653569146675636e+01
2.196969150746419430e+01 -5.051717822821252035e+00 4.081673578403891156e+01
2.048473578724812327e+01 -7.734085736802973621e+00 3.890449292018492855e+01
2.263814160046738877e+01 -1.604543717883801346e+00 4.300532349222503825e+01
2.254993961736623831e+01 -2.813645492449316166e+00 4.277965624139540779e+01
2.223489907455750725e+01 -4.266184951733300146e+00 4.123740111157439969e+01
2.226557412205933417e+01 -1.183691733695000803e+00 4.371434765634602115e+01
2.096304294971722726e+01 -2.653774059828620580e+00 4.451370248782859562e+01
2.039273306124342611e+01 -3.194606411696321313e+00 4.474380990397622071e+01
1.898032065083537390e+01 -4.426993942907698987e+00 4.513251598364390560e+01
2.251237186008070523e+01 -2.972069597153963905e+00 4.183027724634288802e+01
2.218972812500000202e+01 -4.829713740012702594e+00 4.134804947391370433e+01
2.240442682509863559e+01 -3.591215127754170400e+00 4.166952666678783146e+01
2.123080889799427595e+01 -6.807423818874156929e+00 4.003124251700516822e+01
2.196792793315534098e+01 -5.356703721919552130e+00 4.111218654929685812e+01
2.259590913542729496e+01 -2.878242540721830167e+00 4.235294744421862845e+01
2.257876412796149523e+01 -1.557875948729703142e+00 4.321971682234382683e+01
2.229709437945853878e+01 -4.210369139631852775e+00 4.150879831383766572e+01
2.171868882646563392e+01 -1.983368701236923215e+00 4.415368566425703989e+01
2.138944701937506920e+01 -2.317405653768513041e+00 4.432507547317887742e+01
2.149239793649940466e+01 -3.243245093215787023e+00 4.427994370358781850e+01
2.093952313271670818e+01 -3.276568027673721240e+00 4.452432621843821892e+01
2.009599973626976421e+01 -3.776020910559076071e+00 4.486409965546769740e+01
1.968929083035081717e+01 -4.235379725517253391e+00 4.494740560756874714e+01
2.252883311804138700e+01 -3.450485073591750940e+00 4.245350262087285387e+01
2.130292972244763305e+01 -6.936709579622051258e+00 4.040509068415497040e+01
2.199444680477553504e+01 -5.504756661943170926e+00 4.148061631864712950e+01
2.108134068243241188e+01 -7.463191975990820737e+00 4.016949493647011593e+01
2.247525680557860639e+01 -2.115767168788932562e+00 4.332125544365879932e+01
2.226644165568863087e+01 -1.866316931454199413e+00 4.365100026785252396e+01
2.237172049499378446e+01 -2.673659097858684497e+00 4.342280546061366664e+01
2.194955780181440019e+01 -1.903152183541594100e+00 4.402410377656109830e+01
2.232407884012187438e+01 -4.426217021029387411e+00 4.195106922149742701e+01
2.211840656398546656e+01 -5.155819968296795786e+00 4.223042458878806826e+01
2.179199087332543172e+01 -2.603831349367619286e+00 4.414724577483252688e+01
2.049391502952194699e+01 -4.149270372645162297e+00 4.470500578466354114e+01
1.928257570822617595e+01 -4.694744856131250366e+00 4.503073453896340084e+01
1.997721831662977721e+01 -4.340964597416339998e+00 4.485153014244829706e+01
2.142993593450562528e+01 -7.056920555891297298e+00 4.122032479476840194e+01
2.179932101083597118e+01 -6.179258016331437453e+00 4.161308214516362369e+01
2.250583889578819097e+01 -3.418188803605611614e+00 4.266685185997399543e+01
2.246173703841740377e+01 -4.022727780515315210e+00 4.255406877500480078e+01
2.229016877043936518e+01 -4.589145015829608987e+00 4.239227243961818203e+01
2.119261148869033562e+01 -3.882976975774718564e+00 4.441273011991417263e+01
2.091603259214009114e+01 -3.899662792027678293e+00 4.453497094112027099e+01
2.226730195496435627e+01 -2.548937040648427299e+00 4.358767456255579731e+01
2.203008975811185621e+01 -2.917690917508033888e+00 4.383580664320624010e+01
2.169517052125735290e+01 -3.266592893416528032e+00 4.409641773755196681e+01
2.159826576859529013e+01 -3.929941405123025699e+00 4.404556475968949059e+01
1.985848621510302792e+01 -4.905911799047046884e+00 4.483897280291276388e+01
2.226815518229916790e+01 -3.231550565412808051e+00 4.352437358660387900e+01
2.236508200229714660e+01 -3.627321769418268005e+00 4.303899835556589437e+01
2.125560648927812224e+01 -7.260100881675751516e+00 4.069480996799214267e+01
2.220252890471456197e+01 -4.676040657526761457e+00 4.266814303443984358e+01
2.212216301134654373e+01 -3.919374020032839745e+00 4.336717769264701161e+01
2.205236657958914392e+01 -3.738002294580168527e+00 4.362910520161972272e+01
2.046880279810357806e+01 -5.027388063542798768e+00 4.463502991618949522e+01
2.194658829811074696e+01 -5.722011515086877331e+00 4.206873471829055688e+01
2.130461941455977026e+01 -7.280532002112660273e+00 4.147201459752287178e+01
2.160417500000000146e+01 -6.853830734817079495e+00 4.174557417653011981e+01
2.194346455251668004e+01 -5.328868241800506667e+00 4.278214592333430488e+01
2.183032605416262228e+01 -5.294334050171742412e+00 4.305301473226482756e+01
2.168452485769767435e+01 -5.981265994858004476e+00 4.289609161144147009e+01
2.197618065630371831e+01 -4.607158496335948428e+00 4.321001290951213036e+01
2.183657123832292157e+01 -4.244409215026386128e+00 4.373383789016249779e+01
2.162052213151604363e+01 -4.751355863820140080e+00 4.383869256140508952e+01
2.150121516546415634e+01 -4.594319005699076364e+00 4.399465069496462633e+01
2.089256656494950093e+01 -4.523171575701312008e+00 4.454563813259458982e+01
2.004484912160920018e+01 -5.531809768831032592e+00 4.472447581798120808e+01
2.051197063191518666e+01 -5.689782915259898211e+00 4.438250625445024156e+01
2.032148912486281844e+01 -6.273682054893409799e+00 4.430087876424136084e+01
2.098004334931968273e+01 -5.791704275761202503e+00 4.403545798699850877e+01
2.070227421262523748e+01 -5.106452064313880435e+00 4.446406807046909648e+01
2.177474763374332412e+01 -6.287841132567734803e+00 4.190716700087439506e+01
2.164451697269975838e+01 -6.417433647916348072e+00 4.232098384514000600e+01
2.154434272334606959e+01 -5.620065140025984007e+00 4.342008494185233047e+01
2.114840807516755561e+01 -4.891201452793526805e+00 4.424462961758297297e+01
2.140410503784051954e+01 -5.259114558116013249e+00 4.394372530522629461e+01
2.055533651508740434e+01 -6.325067546400383378e+00 4.412733924928076590e+01
2.117019437476819022e+01 -5.873715832521493319e+00 4.377928668830477221e+01
2.093638019611504930e+01 -6.488066133507262023e+00 4.361493906823713473e+01
1.987582132558372550e+01 -6.446760325508211764e+00 4.451674358282875232e+01
2.122435313794112233e+01 -7.385862136304663039e+00 4.182855172309908198e+01
2.119745770687229935e+01 -6.968770658303722776e+00 4.253550622193169772e+01
2.144111986207569842e+01 -6.474788785918319078e+00 4.271587548222770891e+01
2.127940297932999059e+01 -6.559732640041022300e+00 4.302606046725653499e+01
2.087404317811612131e+01 -7.138452135038903634e+00 4.315609900769106133e+01
2.095382060123735712e+01 -7.462599064577926988e+00 4.235520495500578164e+01
1.383670488605028659e+01 2.173285231730775813e+00 4.655781714044500319e+01
1.396902031303878644e+01 2.829328799741765543e+00 4.654380028617759280e+01
1.345970018963506121e+01 2.686354499339575597e+00 4.658896451749282619e+01
1.381485961239729754e+01 3.341043333946815075e+00 4.655740732618217237e+01
1.431935579568254191e+01 3.174606559129740990e+00 4.648277042049198116e+01
1.448673555233231625e+01 2.370256786480489541e+00 4.647727133409997435e+01
1.418105351864513608e+01 2.125628397696478711e+00 4.652504132567167972e+01
1.488252597130936827e+01 3.002975479842193707e+00 4.640231443861834038e+01
1.466958471705000733e+01 3.519863981024649924e+00 4.642175558846300731e+01
1.408814566365345478e+01 3.942097580167662763e+00 4.650325078063336548e+01
1.366074089693934113e+01 3.852699282497025646e+00 4.657101565866437909e+01
1.439306475503507876e+01 1.421873924676059664e+00 4.650628392861089111e+01
1.500459865877913934e+01 1.911129905921430838e+00 4.641065783998440253e+01
1.506581906430602125e+01 1.085019510168123258e+00 4.641574736811680424e+01
1.552690017407790357e+01 1.451959521691784438e+00 4.634397534158787835e+01
1.531129609375000200e+01 1.969006017074092840e+00 4.636342416248063358e+01
1.509569218750000097e+01 2.486016166001955519e+00 4.638287058058963908e+01
1.307261190386547156e+01 1.958742375597079644e+00 4.662554538802285720e+01
1.370440923682012269e+01 1.517223337500911207e+00 4.657186550367539013e+01
1.357212629769619561e+01 8.611491476152067781e-01 4.658593745089304861e+01
1.319501500323608134e+01 1.374131328745128444e+00 4.661703256218628866e+01
1.489199744514763601e+01 3.953485937499999547e+00 4.637087499805320334e+01
1.522585361755118250e+01 3.475131411234176237e+00 4.633153729182719616e+01
1.520210180124888488e+01 3.132868996282123675e+00 4.634697450563048449e+01
1.350666566599958074e+01 4.364272411116622230e+00 4.658462527440051559e+01
1.457860916468049162e+01 4.381560427978918426e+00 4.640828124733639726e+01
1.511440368844391458e+01 4.390737499999999294e+00 4.632004533605774554e+01
1.590218685220236772e+01 1.904910501222449648e+00 4.627057397461431520e+01
1.573971996573235010e+01 2.745834157443916901e+00 4.627212934131831901e+01
1.460473750000000059e+01 7.180809603152131793e-01 4.648752796523326225e+01
1.578631960124637068e+01 3.430327222545650034e+00 4.624128846701303530e+01
1.570903070730089723e+01 4.041802224484826844e+00 4.623366261016762735e+01
1.404856221930480054e+01 4.708557658609983321e+00 4.649129629610542480e+01
1.404266501334243067e+01 4.372383310097507803e+00 4.649648273155170131e+01
1.459045721486211633e+01 5.053910286098173721e+00 4.639797935112966343e+01
1.512344454174868602e+01 4.894999005892460175e+00 4.631236691022328245e+01
1.567784592297744695e+01 9.322999382184437023e-01 4.633474076595156532e+01
1.566610653360493899e+01 4.400159703239726383e+00 4.622911272824456574e+01
1.630930863950443310e+01 3.692471694530668369e+00 4.614711809453118008e+01
1.634801262527510346e+01 3.386477505320766745e+00 4.615089879678095031e+01
1.622167925338368022e+01 4.409589355871706751e+00 4.613810095691899704e+01
1.571397919277682576e+01 4.705671847406555308e+00 4.621722516293348093e+01
1.572768665244157837e+01 5.462285134239291295e+00 4.620579001661762675e+01
1.513234777772457207e+01 5.399262508040981068e+00 4.630469651010325549e+01
1.478493095224028231e+01 5.751019730167780786e+00 4.635299009601563824e+01
1.545238474206760237e+01 5.879393869416909446e+00 4.624212252324024774e+01
1.489648900842776236e+01 6.442316066609015124e+00 4.631936634689098753e+01
1.443753514229618773e+01 6.102773989780426511e+00 4.640120029298913096e+01
1.569071134349701246e+01 5.755111431603197936e+00 4.620862435688885483e+01
1.402240884458429981e+01 4.615788699571340969e-01 4.654382419472862153e+01
1.614666935944094561e+01 1.062710379396302862e+00 4.625985302162126089e+01
1.627789989578477758e+01 2.358357214709843053e+00 4.619715351307760898e+01
1.506306603547027656e+01 4.430166431605664923e-01 4.643049934153465585e+01
1.440944891184591903e+01 2.842667986265528385e-02 4.651468465063607027e+01
1.476103215935886759e+01 2.062195607581795986e-01 4.647392483777333894e+01
1.659386328728440674e+01 2.849998451095323126e+00 4.612876558946240380e+01
1.677795383113643979e+01 4.419018419860119451e+00 4.604709909333657691e+01
1.690947851832932258e+01 3.343202803473271256e+00 4.606053803485239229e+01
1.631408835484613107e+01 5.020935933915644078e+00 4.611435148321098865e+01
1.632349588531991458e+01 5.525368350773735671e+00 4.610678381935829151e+01
1.691419272396344553e+01 5.336278111996373141e+00 4.601151575053861364e+01
1.475743070364719856e+01 6.700445243247808769e+00 4.633829290006817558e+01
1.577256670503666136e+01 6.359716230237609125e+00 4.617958319701326531e+01
1.624962753140405525e+01 6.111316469900579307e+00 4.611251771805516597e+01
1.535553587645317997e+01 6.781925330782825334e+00 4.623755816765008575e+01
1.609297992933719001e+01 6.840361085261791096e+00 4.611706670708914402e+01
1.644087760420791966e+01 1.796578462399734066e+00 4.618996260692897238e+01
1.343984044221744867e+01 2.050666129856320574e-01 4.660002544014887604e+01
1.582879398554447548e+01 4.126205186402964187e-01 4.632551398972731249e+01
1.421416043812818764e+01 -6.612264950923046891e-01 4.654186538450473165e+01
1.363206310093538498e+01 -3.135703627797680193e-01 4.658971190635377724e+01
1.491732760953739678e+01 -3.056537042111191482e-01 4.646032211699397863e+01
1.712211105650410303e+01 3.886003477183151311e+00 4.600823232013436836e+01
1.691917759596163151e+01 5.588467961799976180e+00 4.600776001279214711e+01
1.742524649422624350e+01 5.040009091391475238e+00 4.593238086985419955e+01
1.751588533006247772e+01 5.651553079217813469e+00 4.590876812719417899e+01
1.733460619311268758e+01 4.428452979780352905e+00 4.595603983151503513e+01
1.680855058665509105e+01 6.467530409210882070e+00 4.601647695081761924e+01
1.661091979365507143e+01 6.894181584545191477e+00 4.603557519917927721e+01
1.745743486776690290e+01 3.361835699292716750e+00 4.596736511628094490e+01
1.744136293695341067e+01 6.237695390640011439e+00 4.591461914886053108e+01
1.736764019978278029e+01 6.823853114238412232e+00 4.592047828482486693e+01
1.581490508812518669e+01 7.121771487708993043e+00 4.615574310648919010e+01
1.507735233734209324e+01 7.298113730369530927e+00 4.627546735012863621e+01
1.627437688497357016e+01 7.461692785925794880e+00 4.607396607069706107e+01
