2.031402351544662110e+01 -2.926501284572355033e+00 3.440128850865502130e+01
2.059841907498517699e+01 -2.719600222251001842e+00 3.482231534053121891e+01
2.125273877681057755e+01 -1.441380014273390575e+00 3.576388767930402679e+01
2.159505483667924963e+01 -5.472091263735178179e-01 3.636448457954145397e+01
1.844776678942832859e+01 -4.873523380264222382e+00 3.218586391717499851e+01
1.886091446177801600e+01 -4.901304794488340555e+00 3.268763996150396167e+01
1.956273876348906526e+01 -4.850443902648261307e+00 3.362763633887552572e+01
2.188955634552052487e+01 4.420883327867820789e+00 3.787949724719955213e+01
2.199698114377016012e+01 2.470689617120366943e+00 3.755744274789847026e+01
2.049639992501781549e+01 9.187638094388466570e+00 3.740023839677171935e+01
2.027366021555857145e+01 9.720951127697960104e+00 3.758275235505324474e+01
2.083054744229024280e+01 8.737322598461576106e+00 3.775902528727805674e+01
2.191887755204465194e+01 5.776355440594515001e-01 3.711202772237107439e+01
2.167446228557084709e+01 -8.638746674102693035e-02 3.656399906700479363e+01
2.185376808704803864e+01 5.070384146328922093e+00 3.798773801348519186e+01
1.921208904479772883e+01 -4.875854223828760325e+00 3.315798966337857223e+01
1.991326866981637167e+01 -4.825043532963873005e+00 3.409712219706587888e+01
2.132093672474755408e+01 -2.005845694265940615e+00 3.587462752307994407e+01
2.153811738446870905e+01 -1.168871808221904285e+00 3.619594495632981079e+01
2.109473443429732242e+01 8.183686851575593835e+00 3.815480097039667839e+01
1.989456691677443345e+01 1.029500213527983199e+01 3.726806968427357702e+01
2.186192690867819977e+01 -4.164367849976347014e-02 3.694362087112274651e+01
2.166498052999397927e+01 6.356513087154600505e+00 3.824694719042920354e+01
2.151202024693646209e+01 6.992940578789341721e+00 3.839822832697493737e+01
2.181798331377147804e+01 5.720041585960548680e+00 3.809564626367713913e+01
2.059073880680640301e+01 -3.165430890497133554e+00 3.485148098297536023e+01
2.041407904073776791e+01 -3.542366821103605456e+00 3.461282158390928743e+01
2.015362553444686355e+01 -4.121998469011884936e+00 3.433374658072332863e+01
1.933758593413933724e+01 -5.680938333089723180e+00 3.345168670488315144e+01
1.968136679123700006e+01 -5.412876891105661059e+00 3.387462088196951271e+01
2.115023950256642138e+01 -2.541131668012887257e+00 3.565977637757839602e+01
2.169076708410746690e+01 -1.904002534423538506e+00 3.643752969729985836e+01
2.207740214089096042e+01 3.952291476969777673e+00 3.820746706818875538e+01
2.220551919866230151e+01 2.131259181456375273e+00 3.797508434822518097e+01
2.062292343589227173e+01 9.202194899155337282e+00 3.787097248295660279e+01
2.005087355408096883e+01 1.025470641840027142e+01 3.776541233108545015e+01
2.215615586847074070e+01 1.078405751627370179e+00 3.767785583820823803e+01
2.232480729537773811e+01 1.370248752881929155e+00 3.818973651189104856e+01
2.174781794766318299e+01 -1.283113328928589203e+00 3.660621603864068874e+01
2.207065609155466035e+01 1.497465709967114034e-01 3.742508037342982874e+01
2.211099339813019782e+01 4.534556689821789277e+00 3.846842234858096532e+01
2.135892987177748026e+01 7.630054626860950151e+00 3.854966720796275581e+01
2.094169707381455936e+01 8.820793503288308912e+00 3.830625095324312923e+01
2.086273286875033151e+01 -2.956250852469693324e+00 3.525310781780026304e+01
2.180490634214941537e+01 -6.617930918171801569e-01 3.677501650569180924e+01
2.147535873725935573e+01 -2.478308684306155918e+00 3.615708506817323098e+01
2.196441605136666553e+01 5.127573579181918362e+00 3.828198290895916500e+01
2.218274661381179058e+01 3.235134368358622226e+00 3.825296176275348614e+01
2.238915607016780385e+01 1.857593530842551965e+00 3.844198866870504361e+01
2.208957088571855465e+01 -6.848359664711233252e-01 3.741309751589046328e+01
2.227938438048180814e+01 3.410836997390366832e-01 3.790654625622389062e+01
2.048237466828901177e+01 9.614689291262539683e+00 3.812462645174697684e+01
2.120585293047103193e+01 8.267292521277779471e+00 3.870113233104878248e+01
2.069109566352299723e+01 9.508446370051922614e+00 3.867166557644878822e+01
2.105288796644620319e+01 8.904302685798510808e+00 3.885254120582292359e+01
2.165816678339594148e+01 6.848895477252871622e+00 3.881043246911137601e+01
2.072935327365991043e+01 -3.584536600480869861e+00 3.510456438873431040e+01
2.051413439047903253e+01 -4.158231305861063376e+00 3.482435425879706514e+01
2.240284488195839785e+01 -3.979368108212628652e-01 3.813571802915041076e+01
2.193643069411131563e+01 -1.153070142250572916e+00 3.703847206981121332e+01
2.188110036892314270e+01 5.938941896575081536e+00 3.861099471402178551e+01
2.129174955530898927e+01 8.271799289103269004e+00 3.905036302476232635e+01
2.153031867339334227e+01 7.640173365074550915e+00 3.924771651675857242e+01
2.175616173510287510e+01 -2.527698762267172938e+00 3.664943852113618306e+01
2.125991849551659030e+01 -3.052705127999641999e+00 3.587659936054792098e+01
2.082948690353397225e+01 -4.200303587213062073e+00 3.531620975470799806e+01
2.104462732027887739e+01 -3.626702516984381397e+00 3.559630658633730604e+01
2.189988394708615616e+01 -1.711811371188832087e+00 3.691991328604149203e+01
2.225753011882358123e+01 3.941747823102927484e+00 3.865471345942414416e+01
2.207654813369646973e+01 5.148184406914070088e+00 3.885958976703721390e+01
2.237825264181973850e+01 2.444349014036545586e+00 3.850123293125172808e+01
2.238781803123250214e+01 6.628819263853870103e-01 3.825629697640366800e+01
2.254271825474843283e+01 1.456551085246014399e+00 3.880558671033951157e+01
2.210856669406368624e+01 -1.520019503005979100e+00 3.740130414371162715e+01
2.194425743851155275e+01 6.158028816467022715e+00 3.912639097523859988e+01
2.202751717361101313e+01 5.643273164099868566e+00 3.906924143608402034e+01
2.032947718419973526e+01 1.011250455615939181e+01 3.849002451119797286e+01
2.078467564216178332e+01 9.410094753145065383e+00 3.902100417801442944e+01
2.176875019102504893e+01 7.008992281506805533e+00 3.944474717235505068e+01
2.061421555727013910e+01 -4.774254830236198011e+00 3.503594151087268926e+01
2.154953295951861847e+01 -3.006160817202542912e+00 3.636891794297243763e+01
2.112398232547180399e+01 -4.155149349430125483e+00 3.581717296636811199e+01
2.221268083317438879e+01 4.461181900923324228e+00 3.890773240377539821e+01
2.240434107240043105e+01 3.347891618225676602e+00 3.884124061258398797e+01
2.103214963540773752e+01 9.022032086293974018e+00 3.955318177747380304e+01
2.231721603097553697e+01 -1.328254656230793307e+00 3.788262904376128404e+01
2.253858192705919450e+01 8.072376777159350203e-01 3.869652228372967784e+01
2.253444650584296838e+01 1.605206594920372543e-01 3.858594399361913219e+01
2.051691020612783234e+01 9.915353656839961616e+00 3.918927212352747347e+01
2.131352967481759464e+01 8.258759584912473528e+00 3.957890643181073642e+01
2.126048326160803725e+01 8.448730590908883897e+00 4.010044429861824966e+01
2.094887767321994332e+01 -4.680280003596060112e+00 3.559845610295862173e+01
2.236991526871418046e+01 3.960984406355727572e+00 3.923215206679340383e+01
2.227932909259094529e+01 4.564668736540383520e+00 3.933452408907314890e+01
2.218868061412288384e+01 5.168868576824098504e+00 3.943696329339773143e+01
2.255100148719087727e+01 2.754730993097755931e+00 3.902744372109708593e+01
2.077447279753354792e+01 9.468691889348827218e+00 3.937138324081005436e+01
2.200743622400421984e+01 6.377204398742519764e+00 3.964181152802890296e+01
2.175824822344402065e+01 7.068123357005821283e+00 3.979480681981916490e+01
2.150939197819641535e+01 7.758267572031561699e+00 3.994760152250410101e+01
2.254685773111592439e+01 2.107075525973465258e+00 3.891685842135947127e+01
2.253030842948291479e+01 -4.873542326983748563e-01 3.847536233601778832e+01
2.252616583023241148e+01 -1.136204604314435151e+00 3.836466197343847995e+01
2.209804013288686164e+01 5.773114122527337244e+00 3.953940460450346706e+01
2.066787137219036197e+01 9.735460120363654823e+00 4.001114071930135907e+01
2.101142673360989122e+01 9.139822318399916767e+00 4.025341262843170398e+01
2.010866521516228289e+01 1.056865120680268966e+01 3.883318847305505273e+01
2.032490886333596691e+01 1.033052318895171418e+01 3.976871584160508633e+01
2.024948399142637356e+01 1.042042445007177243e+01 3.935746088194728998e+01
2.202286208804830636e+01 -2.575973147445337563e+00 3.729085760687619455e+01
2.182160786736762148e+01 -3.151882979666933426e+00 3.686151504607043705e+01
2.143897265041935896e+01 -3.772534173173965222e+00 3.629989252175294467e+01
2.247257791598313759e+01 4.099376072407317828e+00 3.982817119831991448e+01
2.246044229086667698e+01 3.357834096297438453e+00 3.912983534190302493e+01
2.250739782936835809e+01 3.602844394321479626e+00 3.955983253408552969e+01
2.152153955215649717e+01 7.771699607018704548e+00 4.075135227458107323e+01
2.126659752316868435e+01 8.455355350601058362e+00 4.050263683866649700e+01
2.266123283101769559e+01 2.025932741393259295e+00 3.930486505300729050e+01
2.277153592134283144e+01 1.293521722322701351e+00 3.958380364079100389e+01
2.220250919561812708e+01 -1.981073065698063074e+00 3.766689416314739702e+01
2.241130594075182358e+01 -1.789184080810676258e+00 3.814856352905998449e+01
2.128346913770456794e+01 -4.586316552990470363e+00 3.616085032523927367e+01
2.234746663507453945e+01 5.026506039818634086e+00 4.005031376135712406e+01
2.259639083916356128e+01 3.061828565213055686e+00 3.950412994728053917e+01
2.264178367905782707e+01 3.369231166587174364e+00 3.998082905989430458e+01
2.189192910352079480e+01 6.732705031508236182e+00 4.032042321958839892e+01
2.217757657559679174e+01 5.701333295092799069e+00 3.984626244624099911e+01
2.205105924122291938e+01 6.126583168697449011e+00 4.030547281326997933e+01
2.071650806894509245e+01 9.114061018804884284e+00 4.065524797298967741e+01
2.058767354371686764e+01 9.587566370836645646e+00 4.031793800653627358e+01
2.016449727327696095e+01 1.003494975218115215e+01 4.038231233128270503e+01
2.270480814062456076e+01 2.273649762857882006e+00 3.973479142944938758e+01
2.267196334022430548e+01 -2.319169806394261735e-01 3.900917664585767852e+01
2.268157264207668078e+01 -8.140972482883193084e-01 3.895647051951618778e+01
2.257841294056315817e+01 -1.772800241434965951e+00 3.858374228161134312e+01
2.008155712801103832e+01 9.785410803777462974e+00 4.075174425693011671e+01
2.042187032506425481e+01 9.088344361930346338e+00 4.105670006698546359e+01
2.087349629677574114e+01 8.421389694488512490e+00 4.103780698107328817e+01
2.199820822514421081e+01 -3.212945633007819879e+00 3.728884111099525711e+01
2.188700373296192936e+01 -3.775588728270439454e+00 3.707342993926862107e+01
2.251732464977951409e+01 4.351851531662236816e+00 4.025420979742626315e+01
2.195857147436784373e+01 6.405891693445536106e+00 4.089130933230342180e+01
2.214078444640156462e+01 5.723382609919440256e+00 4.078299014541224921e+01
2.220452804375222300e+01 5.537015956309140563e+00 4.033105627379234193e+01
2.177631129552956679e+01 7.088657598429239926e+00 4.099965395177313354e+01
2.132488173187783431e+01 7.754983725697956132e+00 4.101880317596020831e+01
2.057370981728921322e+01 8.803000210078376853e+00 4.155267664506342840e+01
1.983304934308559098e+01 9.643581183244650745e+00 4.117851974048905106e+01
1.924505240731219402e+01 1.019832596600556052e+01 4.130013772927095062e+01
1.996460657177385301e+01 9.488242142305914228e+00 4.146032571382122001e+01
1.950718632595965829e+01 9.888342530414520937e+00 4.186414867053149180e+01
2.269356515859081114e+01 2.794252405182660937e+00 3.997278050173998309e+01
2.274058986076681421e+01 2.991913810670375207e-01 3.932829784055765288e+01
2.278896618560473541e+01 2.394969217701628406e+00 4.035128491906083781e+01
2.283980870049834522e+01 1.754973264340826233e+00 4.029730587927143404e+01
2.229645108626946026e+01 -2.442123658303593903e+00 3.793248352319284322e+01
2.161802666003747930e+01 -4.492355502777194864e+00 3.672318591324381742e+01
2.218174828930772691e+01 -3.094186283915680846e+00 3.771669335029267245e+01
2.271016885199539104e+01 -1.612142837841403553e+00 3.908851941397103502e+01
2.283680875386897924e+01 -4.924565609427935531e-01 3.954765360962557708e+01
2.280031155315817060e+01 -1.125489742976658381e+00 3.942370339894778652e+01
2.206704409166857417e+01 -3.746254633340859730e+00 3.750090315649926964e+01
2.232290431388834406e+01 5.041298066259402688e+00 4.067471553315731114e+01
2.268722589193894734e+01 3.677070652062158107e+00 4.045802461032648267e+01
2.221085145308436992e+01 5.813761984924243009e+00 4.123837511685437107e+01
2.199367194621931887e+01 6.450914281751160217e+00 4.111911510285496263e+01
2.142601546467906815e+01 7.565052935021149949e+00 4.134915033748006863e+01
2.107562711999434768e+01 8.041619125324722006e+00 4.169875802034194123e+01
2.160828575045425026e+01 7.155447360343513807e+00 4.191934751174684948e+01
2.186742197212207728e+01 6.501676799831667353e+00 4.180872084594881954e+01
2.016726393368312031e+01 9.107587152034964717e+00 4.212129547302844657e+01
1.865712644865214642e+01 1.075355689815575566e+01 4.142177664239103052e+01
1.905050036472837860e+01 1.028790096216124894e+01 4.226742049319565098e+01
2.288196358935006813e+01 5.602499200182260441e-01 3.986191095983229360e+01
2.292058180283552460e+01 2.264049107693550500e+00 4.086055831264815907e+01
2.289061194182422199e+01 1.113994009972011145e+00 4.024537031402932996e+01
2.246780656368519402e+01 -2.337402202716049260e+00 3.836734199102951948e+01
2.143348218251239601e+01 -5.378130530691537459e+00 3.662421440178034260e+01
2.195231493810713630e+01 -4.398465982831516463e+00 3.728506802408188747e+01
2.226258715100544450e+01 -3.566415084283666825e+00 3.798932505060464848e+01
2.243670254909087802e+01 -2.976992305687056195e+00 3.836869380304996469e+01
1.960865588287429162e+01 9.697847474298049164e+00 4.219443133444916327e+01
1.529642220876556102e+01 -1.337059020942509280e+00 4.686843041303320945e+01
1.557367617022526574e+01 -5.174367001471426031e-01 4.708837225633794077e+01
1.497777496247694451e+01 -7.792537699496830950e-01 4.718866999369908655e+01
2.250505412144954676e+01 4.359179477565061411e+00 4.056640024624117302e+01
2.212695617443365848e+01 5.846933540356955561e+00 4.169791067075773583e+01
2.238611903414825122e+01 5.193160381418350902e+00 4.158723543690215507e+01
2.242803885234895489e+01 5.176644258927969311e+00 4.135750845406487741e+01
2.116659288292693830e+01 7.837056080810449465e+00 4.198389322515450317e+01
2.072553120562279361e+01 8.517832209549716538e+00 4.204810558210526494e+01
2.273808811709787037e+01 3.036007040485211750e+00 4.040471748391561135e+01
2.299228657955764277e+01 -1.706464116031620182e-01 4.013978663911266409e+01
2.294143230267874145e+01 4.710563023015252870e-01 4.019335216271081634e+01
2.263060470073973818e+01 -2.408702226841307859e+00 3.880258805230611330e+01
2.169287290912269839e+01 -4.888346257786419180e+00 3.695460908070109696e+01
2.214783223417189362e+01 -4.218590051822899589e+00 3.777341352334237001e+01
2.294079072385530083e+01 -8.719083615399076947e-01 3.995970072813192076e+01
2.288923196656624270e+01 -1.574285873410931069e+00 3.977942104441576987e+01
2.253927879613657836e+01 -3.858454132617445520e+00 3.875115397225505376e+01
1.913615892244083128e+01 2.250271250725785155e+00 4.560724871044781281e+01
1.908875941469221971e+01 2.981877567812463603e+00 4.575256940905690328e+01
1.874774948071911851e+01 2.459511531975501430e+00 4.596521709315069160e+01
1.840665071424242072e+01 1.937023787426036314e+00 4.616916589624609202e+01
1.879525296390196942e+01 1.727563867067951398e+00 4.581960152792541408e+01
1.935265979311781948e+01 3.556168364150579020e+00 4.553670194613814459e+01
1.976705853401967161e+01 2.873177347525016856e+00 4.500884486287274200e+01
1.947540692662143869e+01 2.196272392897729020e+00 4.523211388897128415e+01
1.992939474714074422e+01 2.246124646417182902e+00 4.499636417880822137e+01
1.918357529484854496e+01 1.518947944238761227e+00 4.546194959153618242e+01
1.971892402792831689e+01 1.254424977878265457e+00 4.522310970764804949e+01
1.851700576673968968e+01 1.063895344851301772e+01 4.259085611940019334e+01
1.850168142556158912e+01 1.048612311467232594e+01 4.304578232425557616e+01
1.959409962044179210e+01 9.544598605986513107e+00 4.264890348896749828e+01
1.902775013832764373e+01 1.005869612464930718e+01 4.294970799920074711e+01
1.950086180551059911e+01 9.520304058269431380e+00 4.284723320660893364e+01
1.753429240727613703e+01 4.511359059007296612e-01 4.641549907967466737e+01
1.757326418356552367e+01 1.016233695942358795e+00 4.653054360957001734e+01
1.710152770888293361e+01 6.063430185145938234e-01 4.668370344261364835e+01
1.841304452972978467e+01 1.145892750468157972e+00 4.599962982189465777e+01
1.799646302430274503e+01 6.856679135732182129e-01 4.618095689378841229e+01
1.841943407403821809e+01 3.559830295780078702e-01 4.583149885670675161e+01
1.880146027755029792e+01 9.373956953204649611e-01 4.564910117693252545e+01
1.799018349321493915e+01 1.476876883769697058e+00 4.634897535462844331e+01
1.930728789578374105e+01 8.554157552493483196e-01 4.545193347141076856e+01
1.610168227242169081e+01 -1.605298480203417033e-01 4.696275884691137037e+01
1.595309484964798230e+01 -1.016814348346940733e+00 4.677553484490992730e+01
1.662975558840477674e+01 1.964233766315086338e-01 4.683736571879314425e+01
1.653069807302107819e+01 -3.744753647311375166e-01 4.671221966770255563e+01
1.704312570431732254e+01 -2.409842611672519952e-01 4.651192958572924852e+01
2.266624888040429653e+01 4.108194108307984038e+00 4.096726291509214235e+01
2.264527064655171529e+01 4.539453509038366086e+00 4.147652388997600781e+01
2.122109410992546330e+01 7.585088710356079567e+00 4.216032357014818643e+01
2.180255070120968952e+01 6.561124019281650455e+00 4.201977808187274377e+01
2.130391508347246088e+01 6.924352819973374373e+00 4.250397610505138601e+01
2.015987108114835635e+01 9.031135552863140958e+00 4.234846212441285473e+01
2.044710037744160047e+01 8.444001101678411558e+00 4.264201547301401973e+01
1.997395667775587924e+01 8.982130008304707758e+00 4.274467803817832845e+01
1.997465095408586677e+01 8.879341391258531502e+00 4.292628238034026111e+01
2.017569703525462188e+01 8.275126311996650941e+00 4.314501220088727251e+01
2.055217715369947484e+01 7.824369133870153981e+00 4.293111199180503235e+01
2.083380793182129409e+01 8.014855897155541697e+00 4.240135065629220890e+01
2.073255576435641601e+01 7.937674572888947289e+00 4.259611514512014452e+01
2.053701658317810441e+01 7.161341491708358653e+00 4.335884387830098063e+01
2.044399774721490814e+01 7.717766574902752197e+00 4.311008545301898209e+01
2.009421220599850955e+01 7.717981498666652840e+00 4.367750822469393057e+01
2.035881195662013710e+01 6.954012474406676247e+00 4.367440991557506180e+01
1.969552408016034661e+01 8.350582279861454182e+00 4.372561810578899610e+01
2.097985001282142647e+01 6.604682403775825605e+00 4.304011672209780670e+01
2.071198902030984001e+01 7.161078999107463261e+00 4.307512908586843992e+01
2.092806777289737852e+01 7.374328079902819688e+00 4.271753886857342764e+01
2.281483340970849127e+01 3.309656562624369691e+00 4.140525966508592859e+01
2.280387978063741983e+01 2.970669237992157097e+00 4.065938298381906435e+01
2.047289184513116922e+01 4.409210291953312932e+00 4.425949058650363810e+01
2.040797797993075235e+01 3.515934670945317642e+00 4.450565091101955773e+01
2.076173404508674736e+01 3.930337694399133941e+00 4.413933760747104884e+01
2.014058517671211135e+01 4.292739054503328155e+00 4.454351877118212855e+01
2.071840884757859413e+01 3.334968549060591148e+00 4.430422480549712816e+01
1.961654861315699350e+01 4.130454692418389584e+00 4.532084789960348559e+01
1.995380839553763153e+01 3.582867837140270684e+00 4.477658478914069207e+01
2.019700496825785763e+01 4.980673709865840237e+00 4.442263262671043123e+01
1.969180311437092001e+01 3.501579997394060673e+00 4.516166117499241750e+01
2.289960568053877310e+01 2.694902175073413453e+00 4.136952027722954028e+01
2.298341809738086283e+01 1.250770830672151890e+00 4.069840897383475919e+01
2.303715190432897941e+01 1.558324663583644965e+00 4.106096641627340205e+01
2.192076680827890911e+01 -5.131597780522118235e+00 3.750625482570320202e+01
2.283772613444227417e+01 -2.276068830905618068e+00 3.959934142207930563e+01
2.268271590616893718e+01 -3.043621737461339016e+00 3.902109397925100609e+01
2.234342536279412528e+01 -4.038643053925445869e+00 3.826195493926668689e+01
2.022089400271854487e+01 2.806588333534417945e+00 4.473858494760005300e+01
2.067511192481525484e+01 2.739944028616215999e+00 4.446774992643974400e+01
1.978430778448611704e+01 4.739075248190808942e+00 4.512853477457641560e+01
2.009195031357690198e+01 1.618244111101173610e+00 4.499023882569186128e+01
2.053495708782531182e+01 2.156489727792439748e+00 4.463103035147707232e+01
1.898670295607863423e+01 -5.771117607849108461e-02 4.562585471248737434e+01
2.080506416674455394e+01 4.525729699444698717e+00 4.397385436095708400e+01
2.052932696397442314e+01 5.097355174885049856e+00 4.413677614591589560e+01
2.071423605299372639e+01 5.358177201416761903e+00 4.382260408912940619e+01
2.043869903163293955e+01 5.929764710007197515e+00 4.398525695082825138e+01
2.025352236432662423e+01 5.669201461665705821e+00 4.429976754755492152e+01
1.952224403325932300e+01 8.377374645770769845e+00 4.409264624457818371e+01
2.013741743005890328e+01 6.364207098070871815e+00 4.420076402506467161e+01
2.002760318371329618e+01 6.584817565691697183e+00 4.466710749909169920e+01
2.002139789036116824e+01 7.058837017055490826e+00 4.410184163263294010e+01
2.032262037765701024e+01 6.624046297577658393e+00 4.388647353492979875e+01
1.797762515199743305e+01 1.091349057539458656e+01 4.314171989579855193e+01
1.973619430859018564e+01 8.629452114552586650e+00 4.345933309076743711e+01
1.929656132309256122e+01 8.984893079759507017e+00 4.377385473105039182e+01
1.793837753270964086e+01 -1.603125105110838611e-01 4.600863053784323142e+01
1.847192032012515028e+01 -3.554964536769756323e-01 4.583312362177672838e+01
1.783033081596082070e+01 -1.044979625122255618e+00 4.606975681074146678e+01
1.643161286430716217e+01 -9.452502322318697692e-01 4.658734824071033387e+01
1.633254838142650556e+01 -1.515637001890837166e+00 4.646283113219098482e+01
1.567567583899219663e+01 -1.835983038146853374e+00 4.655595670577774570e+01
1.689455890025532625e+01 -1.096554534813005244e+00 4.632461268554195044e+01
2.062350290389149166e+01 6.189831406277648718e+00 4.367116747585564696e+01
2.111988973205016862e+01 5.947047098964588052e+00 4.314616385134971210e+01
2.101832384930541409e+01 7.430839540085468542e+00 4.255007704258616741e+01
2.150828719519279275e+01 6.195812079704480446e+00 4.262095125864895806e+01
2.125991779189346431e+01 5.289491157393403142e+00 4.325207992815852975e+01
2.129228970724563652e+01 5.982312149979793325e+00 4.297844356094248752e+01
2.160482542156305641e+01 5.359763453183796322e+00 4.291670090555248152e+01
2.140020383106246982e+01 4.630751488924455650e+00 4.335802908788132015e+01
2.191763384323993691e+01 4.736691072923409962e+00 4.285483166979899039e+01
2.171305028972479789e+01 5.465913970731262950e+00 4.273802371181265869e+01
2.219179462313384477e+01 5.370386261738307354e+00 4.222077307331925766e+01
2.199710704838983233e+01 5.965940103897959368e+00 4.212028626620783456e+01
2.157426900786282076e+01 6.387575289495911690e+00 4.245833156651248430e+01
1.979357969097592473e+01 8.766871164448987841e+00 4.326184718631392911e+01
2.005779791943810153e+01 7.388522029453548079e+00 4.388991195341802865e+01
1.977174383232095778e+01 7.718298855366984235e+00 4.409739032632474931e+01
2.273001601849444242e+01 3.924793574685568220e+00 4.144093378501868585e+01
2.211561920229158318e+01 5.312786012129012470e+00 4.236686178017561843e+01
2.184482333160689649e+01 5.850413530144655816e+00 4.241263131568632616e+01
2.103040208226427410e+01 3.834795223953622489e+00 4.395578844019191678e+01
2.110279010627132479e+01 4.578267863701376506e+00 4.366578961084851329e+01
2.142699409123064314e+01 3.904765706283214399e+00 4.354553171765925867e+01
2.158875394686491234e+01 4.042205934664266032e+00 4.338425369848639690e+01
1.995210487243833342e+01 5.347835705661686312e+00 4.494857963649003096e+01
2.177710975706695962e+01 3.454279521255303020e+00 4.341031012738207551e+01
2.145375928328514803e+01 3.179603018747680920e+00 4.373234933809359148e+01
2.125554376870512385e+01 3.144481043590917402e+00 4.393734910312540620e+01
2.287408096782018063e+01 3.092038731278374808e+00 4.184756559612442572e+01
2.298432987065993771e+01 2.080567113690634518e+00 4.133363703240403453e+01
2.275965918975125035e+01 3.815824430303035975e+00 4.166211295533807402e+01
2.304611680545470875e+01 1.707258027404763845e-01 4.051654322284237963e+01
2.309994321231154046e+01 5.136833709185525398e-01 4.088753429327779543e+01
2.217819789973378519e+01 -4.824779806408604266e+00 3.811943268542193408e+01
2.304160447755323560e+01 -8.484524115362843677e-01 4.033677528085578956e+01
2.255952553003885441e+01 -4.262287423341961201e+00 3.898172443301439927e+01
2.273482841926858455e+01 -3.678538467714913995e+00 3.923960347473501997e+01
2.085536305806460788e+01 1.977461200490446380e+00 4.446288071830431221e+01
2.025468695319201728e+01 9.897010960170949945e-01 4.498411187073438100e+01
2.039491011013946675e+01 1.573465556689442879e+00 4.480744102629184056e+01
1.943107570154753461e+01 1.915255564245812725e-01 4.543651299736729499e+01
1.990452072303132880e+01 2.583789438084284629e-01 4.520801853982048613e+01
1.992495023947740407e+01 7.189676630479654662e+00 4.457900351382821924e+01
1.982231911531258817e+01 7.794439964126453901e+00 4.449059706936974834e+01
1.941186838268262704e+01 9.259008717445288639e+00 4.337823244210916585e+01
1.950264760998129177e+01 9.315078483535501164e+00 4.321020470510435274e+01
1.903039408571728330e+01 9.751960009534906604e+00 4.349424573397509164e+01
1.998984027035301381e+01 5.966130757079914027e+00 4.480851503659904722e+01
1.836971423745452370e+01 1.048713943259036796e+01 4.337304555588479360e+01
1.836609245991903450e+01 1.033304668528624148e+01 4.364535890987622224e+01
1.749536048891568996e+01 -1.131019334330084503e-01 4.630093479542592405e+01
1.745639161754103341e+01 -6.775994573246990615e-01 4.618665016766355080e+01
1.852441269209933949e+01 -1.066974009659517719e+00 4.583482107039773723e+01
1.531950480033693474e+01 -2.649654387341963790e+00 4.655731416973202386e+01
1.619516675673605377e+01 -2.223001741021426003e+00 4.643308857038793036e+01
2.088216226338655446e+01 5.670610366115447221e+00 4.356696035129067468e+01
2.114131929565139956e+01 5.150399997492023374e+00 4.346248574303466938e+01
2.238631170757489741e+01 4.775381337475779198e+00 4.232106999431677252e+01
2.212544428371997896e+01 4.069757457987836169e+00 4.288536023647956341e+01
2.197668184980549100e+01 4.122408941049539699e+00 4.300682872709171534e+01
2.203576570340048590e+01 3.507809416795360402e+00 4.315871548951623282e+01
2.196536470905570226e+01 2.866689674779041574e+00 4.343613050489827287e+01
2.252954303454393425e+01 4.149741092841568779e+00 4.230044534970247838e+01
2.247715181348438307e+01 4.098383555249389687e+00 4.248506273079712514e+01
2.267279332630995015e+01 3.524044121304443333e+00 4.227975322285870163e+01
2.298828066329451758e+01 2.369710251716348637e+00 4.203237489154047068e+01
2.205481000249765700e+01 -5.372137438527691877e+00 3.799608153151084622e+01
2.188919189193403625e+01 -5.865362498736116592e+00 3.772763450230632287e+01
2.238411444999309197e+01 -4.846395118252458722e+00 3.872369055619299161e+01
2.278627703038100094e+01 -2.977161269434790647e+00 3.941946839073754916e+01
2.309086455535441118e+01 -1.525661266914041470e+00 4.053352904861112194e+01
2.301168841539072574e+01 -2.312105057783774509e+00 4.025134713358823291e+01
2.107825630753448465e+01 2.597171149902743004e+00 4.419270831736059080e+01
2.139215205834697286e+01 1.788319243076393894e+00 4.409751375100559301e+01
2.103540871206744001e+01 1.215884693521491755e+00 4.446552819825459579e+01
2.148051957165280612e+01 2.454711947763482893e+00 4.391817444707218243e+01
2.160882143062098137e+01 1.845354378107378013e+00 4.395165370326830612e+01
2.036273253846951548e+01 2.338796969093333566e-01 4.498276881336109057e+01
1.955480584910284136e+01 -4.720069427322524103e-01 4.542023182558587990e+01
1.913700598962148902e+01 8.915819512573454730e+00 4.414029510589428185e+01
1.769782914235434035e+01 1.091577427641965237e+01 4.379597538429158021e+01
1.876108666606899078e+01 9.572842287844212095e+00 4.388418305010588938e+01
1.862728527825657920e+01 9.954789624469546183e+00 4.374451425737520793e+01
1.875192668193091805e+01 9.454307018274604957e+00 4.418748739282769122e+01
1.822572211667450404e+01 1.016097944910850437e+01 4.399423190290999486e+01
1.743086389840670236e+01 -1.399126755529715771e+00 4.617836563771083291e+01
1.906574974828193803e+01 -1.125375928644873236e+00 4.562797667558463388e+01
1.668183054912421781e+01 -1.957370511556842274e+00 4.636241429166584993e+01
2.233354861233759081e+01 3.401901685830250877e+00 4.291581585067527982e+01
2.209484507020365029e+01 2.893294878981207408e+00 4.331029639082379390e+01
2.256799876572912567e+01 3.421373420548149635e+00 4.264889272062094960e+01
2.281607003103000864e+01 2.898260218298757795e+00 4.225895656919544763e+01
2.306902806386018767e+01 1.466530117259484678e+00 4.129738847010362690e+01
2.315372982412870684e+01 8.527088960318317534e-01 4.125996452214656074e+01
2.316085815973996276e+01 1.070497735971572134e-01 4.119466311301037109e+01
2.220856230774642981e+01 -5.430970466719809764e+00 3.846545120817432917e+01
2.316798701254311510e+01 -6.423169860193430614e-01 4.113171562979447771e+01
2.317511645848314217e+01 -1.388779725641601237e+00 4.106343180571175822e+01
2.073510615814777935e+01 7.222180654050877058e-01 4.472753484962552051e+01
2.130372394120502477e+01 1.121433766272275534e+00 4.428121603757002589e+01
2.047065974748020523e+01 -5.210424034462879384e-01 4.498146595544360338e+01
2.006702212270635854e+01 -8.742403634454227745e-01 4.519849723766336069e+01
1.956717286573284653e+01 8.345415090374096678e+00 4.446536395410983999e+01
1.931198569362488726e+01 8.896502612741214122e+00 4.444001227163592915e+01
1.848862789237977111e+01 9.807523788041271118e+00 4.409075943291703936e+01
1.820364586635277249e+01 -1.411744587181881005e+00 4.595312052091674815e+01
1.956485613839384996e+01 -1.059896062674643424e+00 4.543011467034114048e+01
1.652858548976287878e+01 -2.578694408671238225e+00 4.634240365362528991e+01
1.605784249200389269e+01 -2.930082778667864929e+00 4.640336092180090333e+01
1.740536223207912769e+01 -2.120032441538628909e+00 4.617010093563725093e+01
1.703097602458833748e+01 -2.398924080043223217e+00 4.626207854051754254e+01
2.254183127110654539e+01 2.733499208687106830e+00 4.294611034981917186e+01
2.265890065367296557e+01 2.744014827328071338e+00 4.281255438706063643e+01
2.295927671261008030e+01 2.272813278315375829e+00 4.223800216481337344e+01
2.215401446170590560e+01 2.277887683875281954e+00 4.346163132294882558e+01
2.310248810440522149e+01 1.647385591352176659e+00 4.221673162303744675e+01
2.312810928820830370e+01 1.249843068179874450e+00 4.173869681312722690e+01
2.274993547827821061e+01 2.065703315728144585e+00 4.297604918888188053e+01
2.228458595187294122e+01 1.601177146458702127e+00 4.350039895365345188e+01
2.210056338231042972e+01 1.523378556918280280e+00 4.365891419699786269e+01
2.203318978250860383e+01 -6.014947187995144162e+00 3.820747823063575765e+01
2.267211222757326539e+01 -4.420426964157496919e+00 3.946215671465512997e+01
2.292280688164614588e+01 -2.777026829273305797e+00 3.992700628910296246e+01
2.288622868214677553e+01 -3.412552771479270941e+00 3.980160754955221591e+01
2.282913093496788903e+01 -3.990331205057072506e+00 3.993383084652473514e+01
2.121533923090512630e+01 4.548425353996138898e-01 4.447106521729396178e+01
2.173720200695106897e+01 1.235653696381420863e+00 4.398334715422151930e+01
2.100305800971377934e+01 -1.221774413311753765e-01 4.464074951479934583e+01
2.160474770350229790e+01 2.357673202294578718e-01 4.426591873107935271e+01
2.186554798406875832e+01 6.261455407191627298e-01 4.402108786023279663e+01
1.888208612587373381e+01 9.364518575902554431e+00 4.448751082137553681e+01
1.845202492113979531e+01 9.832746599931365239e+00 4.453499612099555094e+01
1.822183380406717745e+01 9.926312449006413630e+00 4.426420510606104841e+01
1.769194243887306683e+01 1.039830229432062758e+01 4.434073626902777221e+01
1.787677096537146681e+01 1.020817521820511686e+01 4.463804829436170252e+01
1.822689282256897769e+01 1.000023784281676420e+01 4.447813705816457031e+01
1.822239070606915945e+01 9.982606831844842432e+00 4.457613050303687174e+01
1.857691422005565940e+01 -1.778452684869700873e+00 4.583657068759983133e+01
1.797840352716802315e+01 -2.309316894605498938e+00 4.599905575306560479e+01
1.665029750868167113e+01 -3.238629834864620971e+00 4.626764664349173728e+01
1.737989295154447333e+01 -2.840178553000047845e+00 4.616185487192014847e+01
1.592051530926993586e+01 -3.637178530736310478e+00 4.637363540142656859e+01
1.562004503399500699e+01 -3.143481332934927597e+00 4.646544798110426910e+01
2.282076279884854131e+01 1.450971885675264916e+00 4.296616963346721718e+01
2.273135813065791311e+01 1.442456526732018851e+00 4.313646824801384838e+01
2.321028842302755990e+01 -4.881437328836680800e-01 4.163069184607029172e+01
2.185759394858665772e+01 -6.599664888397416718e+00 3.794917726561434534e+01
2.242451984326978121e+01 -5.366034974809057445e+00 3.916948120465136185e+01
2.223458427887420896e+01 -5.829938887658173918e+00 3.879052812439909559e+01
2.314011951373832687e+01 -2.202866465915940708e+00 4.073025981772882176e+01
2.318224626168479219e+01 -2.134327873670093911e+00 4.099504107866138014e+01
2.323857314715063183e+01 -1.158844793928281103e+00 4.181723355915413265e+01
2.303787032757136544e+01 -3.146131364797519758e+00 4.036453613857653977e+01
2.280359582049854339e+01 -4.695828887262748275e+00 4.031525209042449376e+01
2.294576864864200516e+01 -3.644377130345527238e+00 4.026514385271143226e+01
2.293225115791474522e+01 -4.090245025435169879e+00 4.051924634043189144e+01
1.957491927347073002e+01 -1.648209317165227894e+00 4.544010243243415914e+01
2.126258994955248127e+01 -1.407001705472800956e-01 4.450983716379570154e+01
2.130983464016556539e+01 -7.361173717082827306e-01 4.454860505226899647e+01
2.079082797955405937e+01 -6.990732488011420775e-01 4.481042965030934511e+01
2.204716710581326211e+01 7.695654313990870632e-01 4.385540398513013116e+01
1.716890618195561657e+01 -3.567294905599967425e+00 4.613535374602822259e+01
1.769851155812435195e+01 -3.255469113025503791e+00 4.605395301424012899e+01
2.313535834233310595e+01 9.516914114605028452e-01 4.217121918949381865e+01
2.241504048958141482e+01 9.251093750313029718e-01 4.353780789667310813e+01
2.310281225549450923e+01 9.842191003990599096e-01 4.239391969780383107e+01
2.318200727745507805e+01 1.821675202075237754e-01 4.144415205627899468e+01
2.208716937097546307e+01 -6.368431970950206633e+00 3.860179839725362427e+01
2.260932809071600502e+01 -5.163131147049393910e+00 3.968495718127832106e+01
2.254655467626181320e+01 -5.905714350028511639e+00 3.990772145411118998e+01
2.231671625052779717e+01 -6.137223849831779710e+00 3.925434310411175431e+01
2.267504091274647493e+01 -5.300934457110304976e+00 4.011142759806203628e+01
2.320110548550721674e+01 -4.394272486878452733e-01 4.208397156536319983e+01
2.323398260177853913e+01 -1.134424203778298113e+00 4.204387357867290120e+01
2.326686186773236642e+01 -1.830583866914335722e+00 4.200378356377947142e+01
2.322811897612458765e+01 -2.357243333828435539e+00 4.146569043843372526e+01
2.306082773148010645e+01 -3.485088668597717820e+00 4.072313153782834405e+01
2.318937606613420144e+01 -2.880124295564552739e+00 4.092699402150783783e+01
2.057859881559040716e+01 -1.275966436546019711e+00 4.497751507335522803e+01
2.179754460713494524e+01 -6.306302747501861816e-01 4.424916481247615963e+01
1.849662144995395963e+01 -2.547629215860945706e+00 4.583706365318243314e+01
1.619600469841716972e+01 -4.098691246138089994e+00 4.627651910986392636e+01
1.748741182539258432e+01 -3.982818033626680521e+00 4.602742839870843738e+01
1.908611369685244696e+01 -2.302094223257133088e+00 4.564836046095993538e+01
2.289152299907321364e+01 8.368576064356738620e-01 4.295552982080635473e+01
2.316823066252485930e+01 2.560589852480983919e-01 4.212407107008564111e+01
2.230162821265833983e+01 -6.402998147836907350e+00 3.960173171680128945e+01
2.291079047737722973e+01 -4.712433090590089080e+00 4.096352136747905348e+01
2.310314023688593466e+01 3.210575693197909586e-01 4.256899690857451901e+01
2.296228205625442342e+01 2.227927512873686400e-01 4.294327936344879504e+01
2.271280172185677770e+01 8.197855971548356768e-01 4.329528186438409421e+01
2.254535903308348921e+01 2.497895435490386784e-01 4.357728987986303082e+01
2.269425250395867266e+01 1.971488440877841031e-01 4.345613137811909610e+01
2.025103470567383468e+01 -1.792030683630377208e+00 4.513725778212423734e+01
1.992319900912950459e+01 -2.308526734658784552e+00 4.529850519739397896e+01
2.199385670757045830e+01 1.686557063799039996e-02 4.406093378523006265e+01
2.135709727223666121e+01 -1.331657287952354052e+00 4.458738815294386626e+01
2.099125945797539927e+01 -1.601516376521159302e+00 4.480337357687087518e+01
1.958499298824065349e+01 -2.236823231110824484e+00 4.545019454543160009e+01
1.695792156363191694e+01 -4.294407600591663154e+00 4.610886528136863660e+01
1.801717924663187276e+01 -3.670818234752732945e+00 4.594606715481778281e+01
1.841633312463853400e+01 -3.316825625657678245e+00 4.583759675041160619e+01
1.959507480274176672e+01 -2.825475256610733066e+00 4.546036569446793152e+01
1.833600960799915214e+01 -4.086373153418333182e+00 4.583816249275804466e+01
2.167908577332250886e+01 -7.197082560350095193e+00 3.809215908326316935e+01
2.205671123082373342e+01 -6.900260571089715356e+00 3.929575487578943438e+01
2.181202760451794376e+01 -7.397046388074590695e+00 3.899006856575164193e+01
2.235552361764975515e+01 -6.580748030309530705e+00 4.008627915142965747e+01
2.247745554208248464e+01 -6.346803308808472543e+00 4.056339197025164367e+01
2.268025731956645075e+01 -5.664058183369282240e+00 4.047553359705464970e+01
2.310347285324573718e+01 -3.420982041436547161e-01 4.275068370310990673e+01
2.310381026681066174e+01 -1.005244241912682135e+00 4.293282272789316067e+01
2.306860811781698217e+01 -4.030243785904127130e+00 4.126931458755039017e+01
2.279079221304501957e+01 -5.115249692932120951e+00 4.062461356854937122e+01
2.312901424433436759e+01 -3.454970670666754007e+00 4.109808526696110675e+01
2.202774541756930304e+01 -6.265174818573691073e-01 4.410534973902387890e+01
2.267570248946421074e+01 -4.256094740737373927e-01 4.362182817816726299e+01
2.160104772784860572e+01 -1.278751407180438449e+00 4.443758586954941592e+01
1.917528199179583126e+01 -3.245880061238277658e+00 4.558612591024859739e+01
2.049745953730016623e+01 -2.472156937932593390e+00 4.507523098789464200e+01
2.053802741004806975e+01 -1.874062121128474478e+00 4.502593235660579296e+01
1.780592279045417214e+01 -4.398339981689042055e+00 4.591952952919677244e+01
1.875570671504623377e+01 -3.666068256779299261e+00 4.571204981966710079e+01
2.191407543697307503e+01 -7.541116110927571725e+00 3.962786373729122147e+01
2.213842315032772490e+01 -6.995611766055403358e+00 3.977738709197199540e+01
2.156710950159211748e+01 -7.894309061130129201e+00 3.868409325859153114e+01
2.316431045073980499e+01 -3.026377443068426931e+00 4.138694145628632270e+01
2.320305476210411655e+01 -2.502806368987269270e+00 4.192636028988583519e+01
2.318533639281986325e+01 -1.417778937158929331e+00 4.246829870938326934e+01
2.318350837273035125e+01 -2.414217451442695506e+00 4.216258471153199849e+01
2.303566740844894412e+01 -2.268733696706743963e+00 4.281583992102459746e+01
2.303304453344977176e+01 -3.912467045506911045e-01 4.293805061148702151e+01
2.249345250601559698e+01 -1.136573360988435422e+00 4.382759756244696803e+01
2.206163953042310055e+01 -1.269897110041219079e+00 4.414976693634947935e+01
2.140438417642158342e+01 -1.927427463144907760e+00 4.462622259308193406e+01
2.107484354952726235e+01 -2.508068838329310601e+00 4.480953376764382767e+01
2.045689678543161349e+01 -3.070250867235637671e+00 4.512470698902522770e+01
1.943225175715199882e+01 -3.579134679092490501e+00 4.550815286194555398e+01
2.000590015986358594e+01 -3.247113145753186991e+00 4.531725290402065554e+01
1.802761547436136169e+01 -4.767115626560186392e+00 4.585340580330392157e+01
1.872146547737772693e+01 -4.585767988117076754e+00 4.572100629222332913e+01
2.236333329228098066e+01 -6.830264089498309765e+00 4.091080127963316215e+01
2.255804231136262317e+01 -6.280717678862912656e+00 4.114431785951164500e+01
2.281400442166575004e+01 -5.422382386045570435e+00 4.104354755043257796e+01
2.153924740101776081e+01 -8.237988406357610316e+00 3.906639116854547211e+01
2.306973882111445917e+01 -1.637055834050196390e+00 4.287432827150052361e+01
2.300159671913150561e+01 -2.900062233652422439e+00 4.275740512517417358e+01
2.300817980138469565e+01 -4.605735872278236442e+00 4.144060570879874206e+01
2.266071686802334284e+01 -1.136015974328704381e+00 4.361318293227262899e+01
2.133893593379714915e+01 -2.561360724963475555e+00 4.468192877667204499e+01
2.074548115096534318e+01 -3.088402834629172755e+00 4.499171871501241782e+01
1.926957786016810559e+01 -4.332093453404818995e+00 4.555599185094791181e+01
2.313924688205840852e+01 -3.172994455748608278e+00 4.184712396079250141e+01
2.294779786561102952e+01 -5.180791382465978145e+00 4.161177381898509964e+01
2.307543847011207561e+01 -3.841984830967091202e+00 4.176846801160211697e+01
2.216449869578901044e+01 -7.255757301538647397e+00 4.026482382955578032e+01
2.275283732756622257e+01 -5.730986201705050576e+00 4.137794293839377957e+01
2.310015631430935557e+01 -2.997852091176583134e+00 4.231825457528658063e+01
2.298179896551332391e+01 -1.570553225853411394e+00 4.309643508874575701e+01
2.301162844971065624e+01 -4.511237445828242265e+00 4.169006470642180773e+01
2.209553880634014789e+01 -1.913272263022433917e+00 4.419418775230852958e+01
2.176710120384045410e+01 -2.242205241303035113e+00 4.443231898238747135e+01
2.180067497019716427e+01 -3.191833662641835989e+00 4.444197810903011714e+01
2.127351889714229927e+01 -3.194998310543996745e+00 4.473565903615936890e+01
2.041633667121614337e+01 -3.668343744558449693e+00 4.517434543283466297e+01
1.997986826027109686e+01 -4.140587265288931285e+00 4.531728744958517296e+01
2.301680570944651905e+01 -3.581487844496188622e+00 4.247433226970475317e+01
2.216830855390174904e+01 -7.380767779221039326e+00 4.067690955068174219e+01
2.271847639316029088e+01 -5.854828896288763573e+00 4.178436695312656468e+01
2.197353313120619234e+01 -7.930561807792718021e+00 4.044332229849835159e+01
2.285979224561888756e+01 -2.135862040247668237e+00 4.326004611715350734e+01
2.264573501182906767e+01 -1.846201628449676058e+00 4.360454674820348941e+01
2.273778765903227850e+01 -2.701171665305384995e+00 4.342366405919303673e+01
2.231144608375025840e+01 -1.846609974372816376e+00 4.403309968745890757e+01
2.294062427651670788e+01 -4.674372043315401015e+00 4.212077034392144981e+01
2.266399254754393766e+01 -5.382633780793171674e+00 4.242946363687634204e+01
2.212944168248399990e+01 -2.556641071895527251e+00 4.423862462808634888e+01
2.077914499557464012e+01 -4.065487848445348718e+00 4.500953957142687756e+01
1.954338597964549251e+01 -4.612836823233496197e+00 4.546050547038638712e+01
2.026018753515512216e+01 -4.254746867763978813e+00 4.521094506081447406e+01
2.216465012280133706e+01 -7.444618555751682187e+00 4.156741630083009653e+01
2.248933900603569924e+01 -6.528335598289122466e+00 4.195681957199769130e+01
2.296752646792673502e+01 -3.531694746357444181e+00 4.269370295022383033e+01
2.293345586092360833e+01 -4.165124449329126399e+00 4.263056678454837822e+01
2.279875579408518860e+01 -4.774512751022325752e+00 4.252989869660744660e+01
2.147174575896552184e+01 -3.827338981323788580e+00 4.464287343440415157e+01
2.120806997037832886e+01 -3.828940023862031250e+00 4.478991860755819943e+01
2.263075768980225533e+01 -2.556362842592502460e+00 4.359591356048976252e+01
2.237261288673467163e+01 -2.911613472211877163e+00 4.391297423607404227e+01
2.201444363744888477e+01 -3.237069492004642335e+00 4.423568635229484158e+01
2.189934277113553307e+01 -3.918091967780688467e+00 4.422963199951808377e+01
2.010402712373101153e+01 -4.841147527919450688e+00 4.524764847011485358e+01
2.261578259956228010e+01 -3.266480295787640209e+00 4.358714190185938975e+01
2.277468952072636199e+01 -3.715254843247319805e+00 4.310821102699559759e+01
2.206907378502080164e+01 -7.687479516828255477e+00 4.100525921870818280e+01
2.265053663259333661e+01 -4.829185761752794903e+00 4.281235909086519342e+01
2.248308860960554156e+01 -3.989025539242476714e+00 4.348329793529561016e+01
2.237922005411959603e+01 -3.770088829346691206e+00 4.374429565949394316e+01
2.069230089691203744e+01 -4.980182506378207030e+00 4.500315653742550381e+01
2.252934336356460321e+01 -5.989081321070902852e+00 4.232927985459623699e+01
2.198920395425440688e+01 -7.668748624350151921e+00 4.185027957834957846e+01
2.226017797590024472e+01 -7.201923861238064717e+00 4.212929618983761770e+01
2.236782903323193850e+01 -5.492754104107405944e+00 4.299415234007685882e+01
2.221782986282940442e+01 -5.432226319567189599e+00 4.327802288178867229e+01
2.208530696778231217e+01 -6.155885154122082703e+00 4.317591345909220735e+01
2.235040199623366775e+01 -4.711246108170390023e+00 4.338040760663804463e+01
2.214267910229921554e+01 -4.273648596879886519e+00 4.390207783242225759e+01
2.190588580990410605e+01 -4.777741511291723420e+00 4.406028501024037780e+01
2.178406481018180330e+01 -4.600159302703113795e+00 4.422411862570528740e+01
2.114256938819543308e+01 -4.463300669184912195e+00 4.484446807666024171e+01
2.024185293181896128e+01 -5.497274649217564146e+00 4.516217923410442836e+01
2.072993914959205242e+01 -5.690862950796104158e+00 4.478041393894095279e+01
2.052341068606670405e+01 -6.305240047524660163e+00 4.474853659798181127e+01
2.121840513034301168e+01 -5.828055482437014767e+00 4.438454978509584947e+01
2.093626475551030097e+01 -5.077063060468047340e+00 4.481236796658212995e+01
2.239478010927761531e+01 -6.595369782073180254e+00 4.222926551463369549e+01
2.217271393949037517e+01 -6.680603862824577632e+00 4.265262338136570719e+01
2.187694167111115817e+01 -5.718618094161802112e+00 4.369753940501979628e+01
2.140568612933840598e+01 -4.873073342023390708e+00 4.453163399507169373e+01
2.166871169204780756e+01 -5.282638882139842451e+00 4.421891160456666370e+01
2.076743297785542453e+01 -6.374264198639961521e+00 4.455061378129791194e+01
2.144186753411390001e+01 -5.947553420578455707e+00 4.413717714934276160e+01
2.121511582555553588e+01 -6.611926301878265910e+00 4.405573763889169214e+01
2.005411586974742377e+01 -6.466855450517938309e+00 4.501920642572215314e+01
2.184771811844165157e+01 -7.745396198382164421e+00 4.224656397380086048e+01
2.166022026619034690e+01 -7.228969668921188862e+00 4.289791189732156340e+01
2.187286302671589766e+01 -6.692712413423771878e+00 4.303694033530154428e+01
2.164416993271597178e+01 -6.751415314542587254e+00 4.341482175303293900e+01
2.120283939638169812e+01 -7.347206757173809777e+00 4.365396713024844644e+01
2.144764415065048979e+01 -7.763317190971243953e+00 4.275898117000016185e+01
1.392652385279004434e+01 2.531186938863594360e+00 4.674695998018208343e+01
1.402977702104756474e+01 3.195783595258845811e+00 4.663226709022941918e+01
1.346317509185618455e+01 3.053609055856006727e+00 4.669987306851823661e+01
