1.170390333257077664e+01 1.851373073373228095e+01 3.877648357885026087e+01
1.451897902733388968e+01 1.623254117062639423e+01 3.730326958032275542e+01
1.486812590730388628e+01 1.586859529139049663e+01 3.680271419518724230e+01
1.260291918972444236e+01 1.776089972897738889e+01 3.844762734423625972e+01
1.081792629544887419e+01 1.931683365434778210e+01 3.859114719863409704e+01
1.037505937582099769e+01 1.971825425576808399e+01 3.849850363650994467e+01
1.471743556336371306e+01 7.464956353810001666e+00 3.072097136400245887e+01
1.440242739312791542e+01 6.810016522928036942e+00 3.024314245840463400e+01
1.592705952183861129e+01 9.782156214579867282e+00 3.284482931253391769e+01
1.625156709764580398e+01 1.175756687872480910e+01 3.440363522675080077e+01
1.629293834115213713e+01 1.096164256956533123e+01 3.399433342250950574e+01
1.550898473098014740e+01 1.468070134225891543e+01 3.613833273989529005e+01
1.535453067397100924e+01 1.504551764798882729e+01 3.641577241359073014e+01
8.792205645510225764e+00 2.099602932832366520e+01 3.744108817100605791e+01
8.860535858190976555e+00 2.062207796488149825e+01 3.852330924730455308e+01
9.385224041957943797e+00 2.024484760634170399e+01 3.873502785507174906e+01
1.214730197830951042e+01 1.811178591432732787e+01 3.886923831294777187e+01
1.407265824254183251e+01 1.657092811076289962e+01 3.777931408195467355e+01
1.362634404309307534e+01 1.690934619158188212e+01 3.825510631223114189e+01
1.551679649624845503e+01 8.972355224768435278e+00 3.212186185777463265e+01
1.550267203305550545e+01 8.433431519842489621e+00 3.195711955141183935e+01
1.615835919097223439e+01 1.053736043290902202e+01 3.357664892866055339e+01
1.621544470822701101e+01 9.975858213712150757e+00 3.332600485925507883e+01
1.586899803871598635e+01 9.212690593571126740e+00 3.261787681611419742e+01
1.626845461239136625e+01 1.313031594324375106e+01 3.546526569488842284e+01
1.635064576652206014e+01 1.241581508477646167e+01 3.492295069836080756e+01
1.531234151441676694e+01 1.538020906396202570e+01 3.684418963165370542e+01
1.496144957200538883e+01 1.574392793045983296e+01 3.734499979000005965e+01
1.320858070338143975e+01 1.720991398465698907e+01 3.889335628987997495e+01
1.109269142041365264e+01 1.881819753310785259e+01 3.900543506219903378e+01
1.009451323350618956e+01 1.957929286162126914e+01 3.900211289309454088e+01
1.052777097448609211e+01 1.926077791484528845e+01 3.898663557420078973e+01
1.524378766091765058e+01 7.504304168571091616e+00 3.137970625278751413e+01
1.547837842203297321e+01 7.947573361165909844e+00 3.179287838104164621e+01
1.616113781286331630e+01 1.372017575763244679e+01 3.583693852547838787e+01
1.595654902607791570e+01 1.424914933774453907e+01 3.627064263452301418e+01
8.336208886804268303e+00 2.099903121606397605e+01 3.831174774751441703e+01
9.706400171148132472e+00 1.987493378139183164e+01 3.900122623309616188e+01
8.838338213384613340e+00 2.036987945481343232e+01 3.906428217174233453e+01
1.162730243889168058e+01 1.828325395983307544e+01 3.918918064633820819e+01
1.461250747273965089e+01 1.610763819942935982e+01 3.784581352216684991e+01
1.417571813275850623e+01 1.643342828682654400e+01 3.837560639810911312e+01
1.267766826023683358e+01 1.766107951638948492e+01 3.888129331703211733e+01
1.373895181989168890e+01 1.675921297796492837e+01 3.890540327408716337e+01
1.068711609998311829e+01 1.887763814435196963e+01 3.936118772986031900e+01
1.110785591038431797e+01 1.845453403113754476e+01 3.950878245809268208e+01
1.498915505329585862e+01 6.909069844328202592e+00 3.089954668943318694e+01
1.581092292435885938e+01 8.643915522662830142e+00 3.239119287494262522e+01
1.575275754548467866e+01 8.075073309086052475e+00 3.216447131144447980e+01
1.620246291982593689e+01 9.193297482191256975e+00 3.301101929942717561e+01
1.650327577930032419e+01 1.016932471547396588e+01 3.380660025942579239e+01
1.666578841949553791e+01 1.115702593137621434e+01 3.458584749979259243e+01
1.575734013964189728e+01 1.489183826142262568e+01 3.688566550715228942e+01
1.542313609711369260e+01 1.523048836862490774e+01 3.749459045690161219e+01
8.313871820792069656e+00 2.074692977482044043e+01 3.885272590605479337e+01
9.159507769246019393e+00 1.999987963642793787e+01 3.933058840752568841e+01
1.211431785679045525e+01 1.783374685646591473e+01 3.936789944523220441e+01
1.264495953083126523e+01 1.738285673213135851e+01 3.937986626216398633e+01
1.014782661151478926e+01 1.919129243225902925e+01 3.949884927290286640e+01
1.058825079633920119e+01 1.862586249282007600e+01 3.982848040287113633e+01
1.613466165357187165e+01 8.754827495650534530e+00 3.280869719958422337e+01
1.480303536223764560e+01 6.185343703086093825e+00 3.054704663066755543e+01
1.569658974962040432e+01 7.505332050653463760e+00 3.193737897078497312e+01
1.656212068925302106e+01 9.408086923394067824e+00 3.360089188636436575e+01
1.679088505230182093e+01 1.036277847944973374e+01 3.428716751316985523e+01
1.668851382676442796e+01 1.186063088658007914e+01 3.503160964283088674e+01
1.661847639590809678e+01 1.263779578363691947e+01 3.565912809874937750e+01
8.758483337553055748e+00 2.014214181517357716e+01 3.949360722807262647e+01
9.480677665683854727e+00 1.962985748404773645e+01 3.959689364689266711e+01
1.159175919352226281e+01 1.798199817278529977e+01 3.972923368315181136e+01
1.470596857151592651e+01 1.598281870675416272e+01 3.838797765610057411e+01
1.506417753493100165e+01 1.560672266569735633e+01 3.794114607878345424e+01
1.357325708995567659e+01 1.659399543826670254e+01 3.940093449061252784e+01
1.302626015657345171e+01 1.690581039002524122e+01 3.963816972690862883e+01
1.533810276756878999e+01 6.837977450265169566e+00 3.130897592912585736e+01
1.702662752060589924e+01 1.130540877647107934e+01 3.514028007111278384e+01
1.670365688055206022e+01 1.223045876742530602e+01 3.542430351723577076e+01
1.652378004238333276e+01 1.328997428504155032e+01 3.611612537793902078e+01
1.640391277785129631e+01 1.381759732831283749e+01 3.640295527005364562e+01
1.620203357341658901e+01 1.440336059408550184e+01 3.692715059258313204e+01
8.291701841933869943e+00 2.049483745081360553e+01 3.939338468510839419e+01
8.909502699666720815e+00 1.982158401875809162e+01 3.984594880529598981e+01
1.426928521172731479e+01 1.630854726828449586e+01 3.891744791499966283e+01
1.208134641235733042e+01 1.755578087720983049e+01 3.986637868319643019e+01
1.098009602487668346e+01 1.813080768302766899e+01 4.019309550530287112e+01
9.716892095576968202e+00 1.920784577214652344e+01 3.994343988284336433e+01
1.006857846999581874e+01 1.879720844305762029e+01 4.014822063432075083e+01
1.564192778595871580e+01 6.935242955095688444e+00 3.171013685276505001e+01
1.526078597762827549e+01 6.353345461183901755e+00 3.107806385316781927e+01
1.626246074188117774e+01 8.259334203632089810e+00 3.282438171640227864e+01
1.647737893497276218e+01 8.605445239018388648e+00 3.317692270585206415e+01
1.620924091217356633e+01 7.664467922200478789e+00 3.259635191588936465e+01
1.692154554827373758e+01 9.622253727309962201e+00 3.419061401312363557e+01
1.707859911722853852e+01 1.055643826127243656e+01 3.476825033499375905e+01
1.553462480792128986e+01 1.508075340463654612e+01 3.814500963060095984e+01
1.590537716303549765e+01 1.469211103159470255e+01 3.775283348060812472e+01
7.766870255420440294e+00 2.087197998476080940e+01 3.918205690804775543e+01
8.172478584645846311e+00 2.012688225350046878e+01 4.007759413620978961e+01
1.340756337922055508e+01 1.642874895585355333e+01 3.989646866266495095e+01
1.253731048640257839e+01 1.709176811626378978e+01 4.000157632703975707e+01
7.744336365889934903e+00 2.061995051546391267e+01 3.972292232850121252e+01
1.047354656526211869e+01 1.839021244794714960e+01 4.035180717216346125e+01
9.255163950225371750e+00 1.938494392839367109e+01 4.019200767912278849e+01
1.614362627812563744e+01 6.964202903719428406e+00 3.232191373869161310e+01
1.700573848486772377e+01 1.233274965396790890e+01 3.610896893194271939e+01
1.712512164653240987e+01 1.180474959205517393e+01 3.582209079633729942e+01
1.736536165038367585e+01 1.074995921384901543e+01 3.524899292206029600e+01
1.688639962785574511e+01 1.285977411917077795e+01 3.639531740609148613e+01
1.627610317151608754e+01 1.430358424869879030e+01 3.736078049916223875e+01
1.516690865813158773e+01 1.546950593257674811e+01 3.853729911910265571e+01
1.479931687164047105e+01 1.585814341811087402e+01 3.892948100688936819e+01
1.387185699535037742e+01 1.623839479255561002e+01 3.957387479517067419e+01
1.433567320415316182e+01 1.604823572432011858e+01 3.925161404612813953e+01
1.155621651947098805e+01 1.768070988404670274e+01 4.026929114113130481e+01
1.294391749230978128e+01 1.661883512813080443e+01 4.021861791249174445e+01
9.549169684587441864e+00 1.896846447986953876e+01 4.046779809973023134e+01
8.600854953868108055e+00 1.963350953830918755e+01 4.043246152957294015e+01
1.558723093035871088e+01 6.366371312550870520e+00 3.148335985692292027e+01
1.511801204618833872e+01 5.606742217599943068e+00 3.076776818017576787e+01
1.691047324811485097e+01 8.942773879374302126e+00 3.391701466972342871e+01
1.709282227038219659e+01 1.005641997886323047e+01 3.459807455817404076e+01
1.724464659083530549e+01 1.127705148297707538e+01 3.553537643704854077e+01
1.676662950591776990e+01 1.338712346272786391e+01 3.668184268162976025e+01
1.664628468067167688e+01 1.391495676970696316e+01 3.696863113139889379e+01
1.424010952129571095e+01 1.578325243379644860e+01 3.993523059267885600e+01
1.204836727574618749e+01 1.727771955575977714e+01 4.036498185156912655e+01
1.052275967647491051e+01 1.806943937613615603e+01 4.082569565488444852e+01
1.002485628809777474e+01 1.842633651957297758e+01 4.081297628039322234e+01
1.609683701469869277e+01 1.455082239372726960e+01 3.835076604913112419e+01
9.029491020688391600e+00 1.913980697611748027e+01 4.078754090519241515e+01
1.590880238874615138e+01 6.515534088851217653e+00 3.191232835862552975e+01
1.553243505361387200e+01 5.797567051104079994e+00 3.125659314617720597e+01
1.675223594692634776e+01 8.017683109612836034e+00 3.334279565783540988e+01
1.658452352404672325e+01 7.196770099069287774e+00 3.291544446320560979e+01
1.688547517652476060e+01 8.417471189256604092e+00 3.368250728668074601e+01
1.735739840141216206e+01 1.019157321679168504e+01 3.502415460477845954e+01
1.735016473152395378e+01 1.246126292487271137e+01 3.674016528269966386e+01
1.743530857210721763e+01 1.205286354165881058e+01 3.650733769590892308e+01
1.529500930235075806e+01 1.537542331299870035e+01 3.893588951598668757e+01
1.636521102877225076e+01 1.425461674938045320e+01 3.786340745703783739e+01
1.498179279332431690e+01 1.545616140092156066e+01 3.946664451728067036e+01
1.247979168936265992e+01 1.680911572675755750e+01 4.054110550315755290e+01
1.352411897544389596e+01 1.618257000709602167e+01 4.021805719028882464e+01
7.731660093711441917e+00 1.996178229284021910e+01 4.049182971945130305e+01
1.102027814109951542e+01 1.771281531341669080e+01 4.083840139437103289e+01
9.527027552194835991e+00 1.878317757468216342e+01 4.080025599007929316e+01
1.020320459415461656e+01 1.777376932957886879e+01 4.124316411137824900e+01
9.811987317382886431e+00 1.822910327027397415e+01 4.109129838250625255e+01
1.588523807119551812e+01 6.006036992871232272e+00 3.173980193110191550e+01
1.733981465692382073e+01 9.075181245475864245e+00 3.457462690742887190e+01
1.734870066555201262e+01 9.633399686470720980e+00 3.479940217583531137e+01
1.752247011959691747e+01 1.139634118651762762e+01 3.605864276105794630e+01
1.764205006091475880e+01 1.086895974030118417e+01 3.577215206645175982e+01
1.701282412018667500e+01 1.337707844836611848e+01 3.704327207370536712e+01
1.151787080586183798e+01 1.735613493844956423e+01 4.085110405966872094e+01
1.312623317029970238e+01 1.621641351689980581e+01 4.075681456405981606e+01
7.869769754155323760e+00 1.957792824837538248e+01 4.086659833578423218e+01
1.685950874619532058e+01 1.375782978080242636e+01 3.763283296853195026e+01
1.579097753002161042e+01 1.489244243047750160e+01 3.894229874768926436e+01
8.449458262637500994e+00 1.935893241602701664e+01 4.082708228999479161e+01
9.420578965548154216e+00 1.868464768968188494e+01 4.093935782897786169e+01
8.764276798344104336e+00 1.869845962245441484e+01 4.122529164229669618e+01
8.459791736694553421e+00 1.918310363599591284e+01 4.099880583134481071e+01
7.889330394872969165e+00 1.922645290164492238e+01 4.121035119096504218e+01
7.921920943817689853e+00 1.848564852075507403e+01 4.174121672552382734e+01
1.059490350233738276e+01 1.731786323125621507e+01 4.139521609588304329e+01
1.110879120096147155e+01 1.726505233535907635e+01 4.115238766039231422e+01
9.247590201985058656e+00 1.828608443323279431e+01 4.130467128937541332e+01
9.650614000236393153e+00 1.751717403695264252e+01 4.167724517375272342e+01
1.022621516792814589e+01 1.714713360794780428e+01 4.168448882570351799e+01
1.659066169733381813e+01 6.423070547797701479e+00 3.270644413575160314e+01
1.623790232935047584e+01 6.214484090160239838e+00 3.222295972911796724e+01
1.733074385829505815e+01 8.516661109242942729e+00 3.434972572718616846e+01
1.765268660167637549e+01 1.015471493216621113e+01 3.538171948469468475e+01
1.737904373944345338e+01 1.283930438593566059e+01 3.711789696605787015e+01
1.781673287517770632e+01 1.157991460944616691e+01 3.666291472886581460e+01
1.470028240917796403e+01 1.537118433554367591e+01 4.006882146144828027e+01
1.368191702794235809e+01 1.582468507624487053e+01 4.070329652931452813e+01
1.201537394421715632e+01 1.699951527787168359e+01 4.086379807855464463e+01
1.169625696925546166e+01 1.670318715777064611e+01 4.128154521298343127e+01
1.243781180005363751e+01 1.655890324326739815e+01 4.095658703720388871e+01
1.257096681179066877e+01 1.660784857613454690e+01 4.081029136369708965e+01
1.657853760294294077e+01 1.408330844997820641e+01 3.834131578154630660e+01
7.290843254265845452e+00 1.979663577784342721e+01 4.090606175231602748e+01
7.319584130367340791e+00 1.926974059744726375e+01 4.142163221177198551e+01
8.499252129032683456e+00 1.825734929906542092e+01 4.166275546733237434e+01
6.749316375605197926e+00 1.931306307981341774e+01 4.163310683380031918e+01
7.343959293133667465e+00 1.871419493058748529e+01 4.181976460122951522e+01
9.074604497941388459e+00 1.788747385303079795e+01 4.166999615608203555e+01
9.790224593514015083e+00 1.679419787990045165e+01 4.192942869883930257e+01
1.576563480448730381e+01 5.233679276034188810e+00 3.145707590861658787e+01
1.703690462379636372e+01 7.987828727931087336e+00 3.373377271927601839e+01
1.702715139323235505e+01 7.429762795556136723e+00 3.350870785122756246e+01
9.088701185538724303e+00 1.716822341414743747e+01 4.195104714897903619e+01
1.774541353657115295e+01 1.230097790979577610e+01 3.719258806425219888e+01
1.540476549924165361e+01 1.506666724751439901e+01 3.941865578255909952e+01
1.423708632205049796e+01 1.543332412365171891e+01 4.064982379849158178e+01
1.235424815690818789e+01 1.618597520374909493e+01 4.129496893495475263e+01
1.286018158676738743e+01 1.611836185160411006e+01 4.104936029534668762e+01
1.628825849923335412e+01 1.440950626229723852e+01 3.894870131838948168e+01
6.515313043379212132e+00 1.971333929356974579e+01 4.133629057329517309e+01
6.766142033821857638e+00 1.894268523071117727e+01 4.189829149002721920e+01
7.893648872811851902e+00 1.833817768439591234e+01 4.181201082653673495e+01
1.098619382578657344e+01 1.686242210662407714e+01 4.154710817990595473e+01
1.080197164851098712e+01 1.677699625276428819e+01 4.169173116537375279e+01
8.395104037902376248e+00 1.735736922776652946e+01 4.207084639400454051e+01
8.793857896327349266e+00 1.771301617574045650e+01 4.180684496262056626e+01
1.694563535555012734e+01 6.632024203940257046e+00 3.319078474877645846e+01
1.732149479643361190e+01 7.957973305436242484e+00 3.412474913798081388e+01
1.770369867198244407e+01 9.255565782606351988e+00 3.510141417533559149e+01
1.759055348652670503e+01 8.728055040600185777e+00 3.475724718829415139e+01
9.383177391275175694e+00 1.662408992161083532e+01 4.209506533471301282e+01
9.117373509349667060e+00 1.638710548265748912e+01 4.227099451713147005e+01
8.557118093740442077e+00 1.669426038566464499e+01 4.230290695910695575e+01
1.328309393973416341e+01 1.567725543616135297e+01 4.114225167904429981e+01
1.799425295562978633e+01 1.023805829011914170e+01 3.598858469234787094e+01
1.791980373565026241e+01 1.098793309603294333e+01 3.629519333162429717e+01
1.717814025069493766e+01 1.327599619606177761e+01 3.764033984313088155e+01
1.516461004039162930e+01 1.505337903083839635e+01 4.000481354472340456e+01
1.190652911637500289e+01 1.606488187210957719e+01 4.165259359001859707e+01
1.707270402682087962e+01 1.360065413276909752e+01 3.829707218365020793e+01
1.678739975031632170e+01 1.392638331643345850e+01 3.895510586543931453e+01
7.957680954785616656e+00 1.804383739405645315e+01 4.190807794287803745e+01
7.287193834158848915e+00 1.841911750163006545e+01 4.196147623758668033e+01
6.187939808642195061e+00 1.917132820639392321e+01 4.197686994317017906e+01
6.179735316359384001e+00 1.935632941071375868e+01 4.184432722092893187e+01
1.031629047473785832e+01 1.665233813076957148e+01 4.185839928756110595e+01
1.622804794646183524e+01 5.472308472276598224e+00 3.208456100151077806e+01
1.687743715559781066e+01 6.050673816024246143e+00 3.300751436001652195e+01
1.664374726210677480e+01 5.615970154323758123e+00 3.263681857770556860e+01
1.762138378765805058e+01 8.201127923747078441e+00 3.459461007140070876e+01
9.677654168411299551e+00 1.607993376955914044e+01 4.223907985125860165e+01
1.024391327729961354e+01 1.618893158911611962e+01 4.205914116235316413e+01
1.137739945277675524e+01 1.640706586108758813e+01 4.169896840238435942e+01
9.062130174551207062e+00 1.599356872923738848e+01 4.237943434044667157e+01
7.996350652010798754e+00 1.700169696242218009e+01 4.233484719465966606e+01
7.860340897677783545e+00 1.753475350006064204e+01 4.214995454402426134e+01
1.296477086306546589e+01 1.538051988555694649e+01 4.155984742987972425e+01
1.370594348540914353e+01 1.523621674956011596e+01 4.123512796147525705e+01
1.811110249665086513e+01 1.176336187962887081e+01 3.726717667789732502e+01
1.819809131667727087e+01 1.110696368059063133e+01 3.681848626085540843e+01
1.749455331466310071e+01 1.288842281932245371e+01 3.801068780540012426e+01
1.581080372502008657e+01 1.462055008484542995e+01 3.954477149833704885e+01
1.479235002368682395e+01 1.504189867137990255e+01 4.059634063995687825e+01
1.243586054337276359e+01 1.572256330078760556e+01 4.160620341712403558e+01
7.416352975911036260e+00 1.783039735433407103e+01 4.215329281944015349e+01
6.681643910920781693e+00 1.849993691428287690e+01 4.211071780920259755e+01
6.858953494006259533e+00 1.805538376528503264e+01 4.223173503195926770e+01
6.076564796760885123e+00 1.858069374322564116e+01 4.225984276120807692e+01
6.371822404115229155e+00 1.789831552965034334e+01 4.243869965482508633e+01
1.731208436385261962e+01 7.399592409228686662e+00 3.389989092802368020e+01
1.730250464059526649e+01 6.840871927064968716e+00 3.367488623793088465e+01
1.768573973345098338e+01 7.633198284203235318e+00 3.445861808537414106e+01
1.789202720445324246e+01 8.540264134559004461e+00 3.506461402054799237e+01
1.081064343310863940e+01 1.629800402375067492e+01 4.187905713087928206e+01
1.020534247537108463e+01 1.577796590529116649e+01 4.218285990808506369e+01
8.445916315781843764e+00 1.590708819730780910e+01 4.251994813655288397e+01
7.511159166712324975e+00 1.641960892728008758e+01 4.257319703650365739e+01
1.793905803404368271e+01 9.560194034492333515e+00 3.551427842048972394e+01
1.780628203666221765e+01 1.232435247755477192e+01 3.765218684181738240e+01
1.825267657393468923e+01 1.053257714463176420e+01 3.658036702107396110e+01
7.829717217367818449e+00 1.582058963004121033e+01 4.266046150719570562e+01
7.294254035076268572e+00 1.607367877751870466e+01 4.271711058385377413e+01
1.534739268510327470e+01 1.465063311507006460e+01 4.054287614596634626e+01
1.583063116068388432e+01 1.434860935684766403e+01 4.014724380891291133e+01
1.446056337645673118e+01 1.491855171820376036e+01 4.096217467451832306e+01
1.174416273216078643e+01 1.587238591943149757e+01 4.174961476524374149e+01
1.123859896735691777e+01 1.567420077192119443e+01 4.193812506004752549e+01
1.728592135326496049e+01 1.344339549987391713e+01 3.896150252157285365e+01
1.631396152506365382e+01 1.404653552658976423e+01 3.975155327168343433e+01
1.680012144557382214e+01 1.374500133598594687e+01 3.935657261407627772e+01
6.874509656952586312e+00 1.761673346243879479e+01 4.239874387802063183e+01
7.435479224879298243e+00 1.730918871023754235e+01 4.236679295064580941e+01
5.869672199249309053e+00 1.817959362096884846e+01 4.247861057869103263e+01
1.073303582561822900e+01 1.547599460567024110e+01 4.212663938335422387e+01
1.126083475177614268e+01 1.517396329263961796e+01 4.207040725853295982e+01
1.211095436423200766e+01 1.533765026343061777e+01 4.180026332612963813e+01
1.107702710260591772e+01 1.472055508508522159e+01 4.218396488441651115e+01
1.048782517730602493e+01 1.487172625419962202e+01 4.227803549123488125e+01
1.008274917120010272e+01 1.547582809560876704e+01 4.225856347641298782e+01
8.442500797058759332e+00 1.550985045640354620e+01 4.258786275244450081e+01
8.161020356648192475e+00 1.534702278519370111e+01 4.271520532222293554e+01
7.192917111576312195e+00 1.701802276432611905e+01 4.248600077387543905e+01
6.708737945493020938e+00 1.679865332199257111e+01 4.265813787344302455e+01
6.276538495150860264e+00 1.774356175135101310e+01 4.246588533742144023e+01
6.301042869494526855e+00 1.743929364376760915e+01 4.258040908415242143e+01
6.224568840276758053e+00 1.657926827369420053e+01 4.283027213586681370e+01
6.759257067419201626e+00 1.632654566196130830e+01 4.277370876640389241e+01
9.054800920290844601e+00 1.519935667472507568e+01 4.251532100038351558e+01
9.667447051709334715e+00 1.488868676346348607e+01 4.244273817439951557e+01
8.492228701456834727e+00 1.487357968913045525e+01 4.276990238657314336e+01
8.823224351212711980e+00 1.440043574078106303e+01 4.282452433883296550e+01
9.513300868890491202e+00 1.435600708350446908e+01 4.264883490473743421e+01
8.273649820942450717e+00 1.463681327567770296e+01 4.288257624835338788e+01
9.399247451731433500e+00 1.416141494905536469e+01 4.279389582500791533e+01
1.349370399470920745e+01 1.503846281221589898e+01 4.151348790830940061e+01
1.822513579238117387e+01 8.966170167778349409e+00 3.564672151807084788e+01
1.847646466329469206e+01 1.122598209619017595e+01 3.734172433816136305e+01
1.832420800229669666e+01 9.994547555527113047e+00 3.639034505345816939e+01
7.244773928263031237e+00 1.574116723464735834e+01 4.281193938949784439e+01
7.724201381749470130e+00 1.487313369933915297e+01 4.294061351326710962e+01
1.412877952458372199e+01 1.479519815518038683e+01 4.132799766289721788e+01
1.402239099153238655e+01 1.469656626435083879e+01 4.146714807040934403e+01
1.752462416963870240e+01 1.300015351795864760e+01 3.863771694076136498e+01
1.641895138594825454e+01 1.375804608402392581e+01 4.049134899222831052e+01
1.178869070074636127e+01 1.487190158823945296e+01 4.201416832522306066e+01
1.247796703189091971e+01 1.480258484687334253e+01 4.185093867212867735e+01
6.660133193466085011e+00 1.566175815643249969e+01 4.296333773154838553e+01
7.174747423204226315e+00 1.510945466751187638e+01 4.299865011401161041e+01
5.727940096655901314e+00 1.726194671696023875e+01 4.276196030887471977e+01
5.679242970100341736e+00 1.787024983726399796e+01 4.253294916520079028e+01
5.081541181567148513e+00 1.799702509210461443e+01 4.260005783282814207e+01
5.689891891437294902e+00 1.683198223064547250e+01 4.288683369316063931e+01
5.155210743155350883e+00 1.708469696111900404e+01 4.294339479034400142e+01
5.768566344532887413e+00 1.608318435906947030e+01 4.305767591632972824e+01
1.089322969678918085e+01 1.426710294850075655e+01 4.229751173015015553e+01
1.028046778526060123e+01 1.457782954956437571e+01 4.237010977821189783e+01
1.154367194426025378e+01 1.426722035212578987e+01 4.216557673667362849e+01
8.253064158742093426e+00 1.445971968832666121e+01 4.293004605998998358e+01
9.209746313796973283e+00 1.383914983913012087e+01 4.307677837123283382e+01
8.569713043668034658e+00 1.397090806222235493e+01 4.320184421227515514e+01
1.020303337015543121e+01 1.431158094549981463e+01 4.247323259531854234e+01
1.301377397927173618e+01 1.483471378357376302e+01 4.169861401925746236e+01
1.829144790442176216e+01 9.531125709551993452e+00 3.607069911253804406e+01
1.823915782308353783e+01 1.166913607491587435e+01 3.766543466135068741e+01
1.853097616018166960e+01 1.065181645437904834e+01 3.710371858604386119e+01
1.776295626608778733e+01 1.255684495718161742e+01 3.831388845548731581e+01
1.494900478682130540e+01 1.450248067722976764e+01 4.098219210139312452e+01
1.588323538327560236e+01 1.420428044087076103e+01 4.051711096314194549e+01
1.455125586601147880e+01 1.435455595011884178e+01 4.142079048516860240e+01
1.701728482643834184e+01 1.339181442427448943e+01 3.998486555254319086e+01
1.231673902615611915e+01 1.456972996328297931e+01 4.195790841388680548e+01
1.219417839801286618e+01 1.426732374583929364e+01 4.203363295226070306e+01
7.683041902933859468e+00 1.451897554981327154e+01 4.303553327271445283e+01
7.112305637736636932e+00 1.457829114665415560e+01 4.314114437659100076e+01
6.625147066175518518e+00 1.534583687018594311e+01 4.305670119940243268e+01
5.461867062693416486e+00 1.658396234964451921e+01 4.300055013677318527e+01
6.075352128015951259e+00 1.558230356186992438e+01 4.311477152293368675e+01
6.541576663404691239e+00 1.463759386861005218e+01 4.324674442132027252e+01
6.308279199990964869e+00 1.511007238833127353e+01 4.318084832464319334e+01
5.470690158700835859e+00 1.584535839215334008e+01 4.315993639289313677e+01
9.974761347749302232e+00 1.392260875513202123e+01 4.276329491328623078e+01
1.151771199757475905e+01 1.394756831449401702e+01 4.225994229687284331e+01
1.112737649659903383e+01 1.344434276204392731e+01 4.270201428920945830e+01
1.055067498104403256e+01 1.368363825589476157e+01 4.273267431382842574e+01
1.284504398208326847e+01 1.426741438532543782e+01 4.190162011672983056e+01
1.800129046037764269e+01 1.211285191196837907e+01 3.798955928487219325e+01
1.858554542020297617e+01 1.007722494465310348e+01 3.686553475616860709e+01
1.831205243003737948e+01 1.178795027920746108e+01 3.820852628735215717e+01
1.578617433260465042e+01 1.410573165663120321e+01 4.073741144869522657e+01
1.537801457722101617e+01 1.411314368037355216e+01 4.103497785058286951e+01
1.341372633628093780e+01 1.429646667801139159e+01 4.174135529331647376e+01
1.753539223613381637e+01 1.310201245192905617e+01 3.944590002267516837e+01
1.766472910260143792e+01 1.296261291914679603e+01 3.901175081567444636e+01
4.655541961001508078e+00 1.693497074451501661e+01 4.306069188489539101e+01
5.963412795979396996e+00 1.483943757738706992e+01 4.328593282325702063e+01
5.459452933474551628e+00 1.553675128437607889e+01 4.321103197270502960e+01
1.169287692214191843e+01 1.333061951717571425e+01 4.256341745144168698e+01
1.214205258491169204e+01 1.362811126949212515e+01 4.222238110244181541e+01
9.848688919171680212e+00 1.370761167283305682e+01 4.295191517230711042e+01
1.048750204398928787e+01 1.357609024010234400e+01 4.282707136947279025e+01
9.156571443041391589e+00 1.381257827604520116e+01 4.315937578851420398e+01
7.893807047426583345e+00 1.419308729351697096e+01 4.321680493689535751e+01
1.864045693038567464e+01 9.502056691240648334e+00 3.662711512915655021e+01
1.876944516786099015e+01 1.067607192422190110e+01 3.744932087589276648e+01
1.871019365207170893e+01 1.116338017324230769e+01 3.796455101410005284e+01
1.817917394699642131e+01 1.210250046663732171e+01 3.855811432132131955e+01
1.398280045572321306e+01 1.432553134747679557e+01 4.158098401788662812e+01
1.335608964506746155e+01 1.395227919721399168e+01 4.187483607676821862e+01
1.433749706990600359e+01 1.380071079732647910e+01 4.166756057775505440e+01
1.386767074560646762e+01 1.363681865105731639e+01 4.184802210799747257e+01
1.695738029449229245e+01 1.331164512349071316e+01 4.046557434773189499e+01
7.217886481568920765e+00 1.441527476578597700e+01 4.323176890132261008e+01
4.865562903936151429e+00 1.610861152330561907e+01 4.320513084595707198e+01
4.260174298771553403e+00 1.637197460072961164e+01 4.325034058790352987e+01
4.843648856062316099e+00 1.549116581415255389e+01 4.330726449377606002e+01
5.385534085653082670e+00 1.504117469286934572e+01 4.332509468632511584e+01
1.032818640930365284e+01 1.349649406969921195e+01 4.307459453414586648e+01
9.742506071744283958e+00 1.365450012577897709e+01 4.311697585352344930e+01
1.311806080490111270e+01 1.362812824673710743e+01 4.202446975232114568e+01
1.276618689098887849e+01 1.330876412623264393e+01 4.218483290426442522e+01
9.104437729450840067e+00 1.380123854334047095e+01 4.326325988268267508e+01
7.939759369831507207e+00 1.401943532652712143e+01 4.323137571114766331e+01
8.798075289906343244e+00 1.369646435954300756e+01 4.336379247730810249e+01
8.111243473713651397e+00 1.381353817152370844e+01 4.335276552272203787e+01
4.465645661471675076e+00 1.308203623045843678e+01 4.290561974576198168e+01
3.828104349046990151e+00 1.288526381631414530e+01 4.271018661374389325e+01
4.293176393553079784e+00 1.231993418088638492e+01 4.303475836343470462e+01
4.698277621492702671e+00 1.279943009116359320e+01 4.306786081474733408e+01
5.103431133486465043e+00 1.327868670278168395e+01 4.310103853901237869e+01
4.610225571899499997e+00 1.346322793006133267e+01 4.300044575752221476e+01
4.117173750689394396e+00 1.364775077714923057e+01 4.289984431974992418e+01
3.804207981891031487e+00 1.336343538394982566e+01 4.277568896471236570e+01
4.230341157161801924e+00 1.391554337959489551e+01 4.292934748989791416e+01
4.836845743336724901e+00 1.399863608117663638e+01 4.305944416860144486e+01
5.577022012023713060e+00 1.372173279656246869e+01 4.321030998283868740e+01
5.735265528283028935e+00 1.337397356961780837e+01 4.320817129244593247e+01
5.578862976632142257e+00 1.310819782370149511e+01 4.325381852978733122e+01
6.368521778414959478e+00 1.346939882633127716e+01 4.331552589275659670e+01
6.051525704393137417e+00 1.416468180665757437e+01 4.331968026900595703e+01
6.054911689275055409e+00 1.293757203341131046e+01 4.340664629193921797e+01
1.804311627872737844e+01 1.248199429185972775e+01 3.906197522728793814e+01
1.506130873734043796e+01 1.397802806679777810e+01 4.140081702534579478e+01
1.749568735818448673e+01 1.286584178645856547e+01 4.043982731137251108e+01
1.622487889509870129e+01 1.356093966003448337e+01 4.093190322661840952e+01
7.310175452842916144e+00 1.406789998381410278e+01 4.326085733451943582e+01
4.227291007824314661e+00 1.544549940187506287e+01 4.340357010245656255e+01
4.806808098998806678e+00 1.524320123997622822e+01 4.336430808461578579e+01
5.976070553174563038e+00 1.464883339609305501e+01 4.326077448715172835e+01
6.680584468992055491e+00 1.411632876989696861e+01 4.329030260748222503e+01
5.410729373050762625e+00 1.466003940339814271e+01 4.327476770759331970e+01
5.461441362097562369e+00 1.433723482197063959e+01 4.331399403937727044e+01
1.225832741317558927e+01 1.321690090798825068e+01 4.242483423592847203e+01
1.163602900926761130e+01 1.327922581331993079e+01 4.265831370292958269e+01
1.091471385958137752e+01 1.333826297831130425e+01 4.303215335799743713e+01
1.017249245280886960e+01 1.346221282697027810e+01 4.338585176270994737e+01
1.339095190894083487e+01 1.298909923834982472e+01 4.214724826957065318e+01
1.282484567462241820e+01 1.310296206532173535e+01 4.228598987676056709e+01
1.406054379426302425e+01 1.288984853262604169e+01 4.202080481461447192e+01
7.424669968787554808e+00 1.393057747075847352e+01 4.334173989169821084e+01
7.634231611985275556e+00 1.365990421338575089e+01 4.353002815293041294e+01
8.268971031176887365e+00 1.361051688145058414e+01 4.349399633934023512e+01
9.638443063420451651e+00 1.363175748229906681e+01 4.332456686781891619e+01
4.548058570891019059e+00 1.207162343262615245e+01 4.314102961467284558e+01
5.443754842026310214e+00 1.408165971631030189e+01 4.318952131065998401e+01
4.871364007882175606e+00 1.450977778885734715e+01 4.330830433412779712e+01
5.209160437830149704e+00 1.230346788513954337e+01 4.328052952076602367e+01
4.281223499199725779e+00 1.468233999646968613e+01 4.330261328594728099e+01
6.578577662463135134e+00 1.399661631671592232e+01 4.338973381945034902e+01
6.531694513289479254e+00 1.276674838517137545e+01 4.355956977843446509e+01
7.001021485644970177e+00 1.356463372251983124e+01 4.342273022083666234e+01
5.870227449412676712e+00 1.253512235600610403e+01 4.342001459401283370e+01
1.896857348046139435e+01 9.633826329968353974e+00 3.715697642122607647e+01
1.856192760692902510e+01 1.161486583326032651e+01 3.860704709600295104e+01
1.900349767547360358e+01 1.061312553644207668e+01 3.807256517051214928e+01
1.557113793765658016e+01 1.360166832781304258e+01 4.138085128029977255e+01
1.483457106241014145e+01 1.380018159650225229e+01 4.153638637727043914e+01
1.437910692552265957e+01 1.332145051743053621e+01 4.182121415662477659e+01
1.778467460463896543e+01 1.276082846117009950e+01 3.992996036879146260e+01
3.940854922220576206e+00 1.604078101873636797e+01 4.334960062988924534e+01
4.845719763797654345e+00 1.467120964752989210e+01 4.328871668153475838e+01
6.591829163719411966e+00 1.407256323485333205e+01 4.332836118613099785e+01
1.175585231055844027e+01 1.324032903483223755e+01 4.264802122129655970e+01
1.164289479861609955e+01 1.325080765344249478e+01 4.276967424277948737e+01
1.079773617555666121e+01 1.331262639765188993e+01 4.326563271260044274e+01
1.238446066159458958e+01 1.303627717222980920e+01 4.259401400734890331e+01
1.389295632001693548e+01 1.273307223783406350e+01 4.222413370821367096e+01
1.301253094634328100e+01 1.283240419886891814e+01 4.254005798235886004e+01
8.229109528204974211e+00 1.348272174658831091e+01 4.365832027663876858e+01
7.803560895447978041e+00 1.299884767484574866e+01 4.370010431776626092e+01
8.439397338199052356e+00 1.311477794105418582e+01 4.377038087957250667e+01
8.475914353263064527e+00 1.280036498904220998e+01 4.393336152169710829e+01
8.276249190697814839e+00 1.356589339910440728e+01 4.355674003202084066e+01
8.903721693896681444e+00 1.356109491709867676e+01 4.345794976795097853e+01
6.738185732942596040e+00 1.404761108073789266e+01 4.333071241013376351e+01
9.485190395465490809e+00 1.357934924763444684e+01 4.337482304061325777e+01
9.632493440769417603e+00 1.355424318850696075e+01 4.337718763113654319e+01
9.538296269695450746e+00 1.351165634352057410e+01 4.342189539191105041e+01
7.083011767195984909e+00 1.321358300505011485e+01 4.354477156845045016e+01
7.106325783357319459e+00 1.382830217136815776e+01 4.345987394027508799e+01
7.167867696795639176e+00 1.288287589980341075e+01 4.362985571872071944e+01
1.894418709148353130e+01 1.110066322319401699e+01 3.858810103261708235e+01
1.906268784153225226e+01 1.012556161548235778e+01 3.755702746833959083e+01
1.842160762340727942e+01 1.200090329238578235e+01 3.911224117068510253e+01
1.787425059523184245e+01 1.267414519159570396e+01 3.944901568989242691e+01
1.666320560573090503e+01 1.301663788076874262e+01 4.112621521606663322e+01
1.608130257471704638e+01 1.322506526436754903e+01 4.136087088448665838e+01
1.150124191881155689e+01 1.318003565390624132e+01 4.298971329108094608e+01
1.142316979700702007e+01 1.316298642642620109e+01 4.314536333307561478e+01
1.215841565260819834e+01 1.305724546029538935e+01 4.283731733987040258e+01
1.439498563606490045e+01 1.247702174141096521e+01 4.230101619745431663e+01
1.364057810102116086e+01 1.262854458497387711e+01 4.248610539658231033e+01
1.267356609770823539e+01 1.286379178173449489e+01 4.290489000149335652e+01
8.355100755601155171e+00 1.344520061207138006e+01 4.368547973809098295e+01
7.876549245888229578e+00 1.236975005467267863e+01 4.402596053215710015e+01
7.204023127076715660e+00 1.256821744616659409e+01 4.379296523164979504e+01
8.918714128780697692e+00 1.347182392336801371e+01 4.358346380805276965e+01
9.075479060828875788e+00 1.323068712113738421e+01 4.384069300017443283e+01
9.677285618474817497e+00 1.319711592657035659e+01 4.380309806670010175e+01
9.561203759951842684e+00 1.337775910748037234e+01 4.361017968441518633e+01
9.629834005122917873e+00 1.350452182699348214e+01 4.341669389383628896e+01
6.090777511747108797e+00 1.230634847887614569e+01 4.359350859501878261e+01
6.541837760451742589e+00 1.187690377849613377e+01 4.384362130057482432e+01
7.208609572711877966e+00 1.212318390580875516e+01 4.393468671815967497e+01
5.649433477989342478e+00 1.184516224914110438e+01 4.362754733499423310e+01
4.547288724637781776e+00 1.161215313403181071e+01 4.333169596352708197e+01
5.875273555963032024e+00 1.163054616886586601e+01 4.375264199965868528e+01
1.820769401559561373e+01 1.224280270634839773e+01 3.963559676190262593e+01
1.511781680411002782e+01 1.324594025865176228e+01 4.165194691551135975e+01
1.659141168763908070e+01 1.284851307185585867e+01 4.134088691477914068e+01
1.756882749897950191e+01 1.244549232886501500e+01 4.086755232844983254e+01
1.208770105266168216e+01 1.302183152781129927e+01 4.294727889000175480e+01
1.137315149059238273e+01 1.314290676611718212e+01 4.335091072431430348e+01
1.077289911602528605e+01 1.330253490821782059e+01 4.336837966196277705e+01
1.020288846891374668e+01 1.328381761340131284e+01 4.363685657874835044e+01
1.473099568753467281e+01 1.279046669139086490e+01 4.189420652903653064e+01
1.489040932636964065e+01 1.300616630814554142e+01 4.179441202891950979e+01
1.322928671564939229e+01 1.270306239694445338e+01 4.277329065482769010e+01
8.501032982660365889e+00 1.249331974647698118e+01 4.406471090129795698e+01
9.666681671750756877e+00 1.315266218107097451e+01 4.387168047262897375e+01
5.208551402859005641e+00 1.138395791008001545e+01 4.366171326390642093e+01
1.879985129071574690e+01 1.151981699109916413e+01 3.916249530758503994e+01
1.919690133508619567e+01 1.049168993786252280e+01 3.848849920424383697e+01
1.927336858201534397e+01 1.006923356195902564e+01 3.811847258066251953e+01
1.935594999869725541e+01 9.574947713919865322e+00 3.766474591796609417e+01
1.803395222531210962e+01 1.241959567248774654e+01 4.041405039440802227e+01
1.596854028503283374e+01 1.261783504280426449e+01 4.161865605339806251e+01
1.540137155389451351e+01 1.269109731507863437e+01 4.176762508114531869e+01
1.653555021482268828e+01 1.254459268921560700e+01 4.146972981187478524e+01
1.204868778197823254e+01 1.301331707055256004e+01 4.302506976526355231e+01
1.082931654575179614e+01 1.327906417822599217e+01 4.353809375150682826e+01
1.027988170497352449e+01 1.316347076455094367e+01 4.376545693155779304e+01
1.025892975209158742e+01 1.307450275356182701e+01 4.390271997612334332e+01
1.426875485342248062e+01 1.242465018880692718e+01 4.243214324043457708e+01
7.417331586798705523e+00 1.200246980406295805e+01 4.408480082228965102e+01
8.492065976853067966e+00 1.227550002522969130e+01 4.424619418145422145e+01
8.455829064848535026e+00 1.195274333241747122e+01 4.440029633171931067e+01
7.803100732205696666e+00 1.172407596670840668e+01 4.433440046618041208e+01
9.125990126947606029e+00 1.261691336220023096e+01 4.410353266505865122e+01
9.725804457748639109e+00 1.304741870936126169e+01 4.401107117812259872e+01
6.958609506514851439e+00 1.163509188763412894e+01 4.414379685772940576e+01
5.853518951218219968e+00 1.132565905443178522e+01 4.393239768904694387e+01
1.917861656387731273e+01 1.103779208969426051e+01 3.921284365110200554e+01
1.933142594720581542e+01 1.052522633746588632e+01 3.894632129197695036e+01
1.879698005834785235e+01 1.149905098301548989e+01 3.961382086559024174e+01
1.489822867091934278e+01 1.222034121509308591e+01 4.237807396027831430e+01
1.710296706588333393e+01 1.247137704730417163e+01 4.132086608281849038e+01
1.638008910104900195e+01 1.201188881437033196e+01 4.188768055505407517e+01
1.197326163222633966e+01 1.298332543625291713e+01 4.333344669905621771e+01
1.085149124358171946e+01 1.299630544575931346e+01 4.393377325624901886e+01
1.144339951664128385e+01 1.291819874850207661e+01 4.396478830330217846e+01
1.088287065760855477e+01 1.312977588376030091e+01 4.372779187296677605e+01
1.148541823654390726e+01 1.309607686947263794e+01 4.369015739659583630e+01
1.084391632596336308e+01 1.318997826002125251e+01 4.366350066097384541e+01
9.751569133175880921e+00 1.274056326452733678e+01 4.414242913379963795e+01
1.257286460068040590e+01 1.282388878800965415e+01 4.331599830053210098e+01
1.378523016255323519e+01 1.254226572342131973e+01 4.264163793934019964e+01
1.330599934691161046e+01 1.263331505878574923e+01 4.288785937933850079e+01
1.317248063085292742e+01 1.266445945449334154e+01 4.329855030351807699e+01
1.589036462115210036e+01 1.235174550192517984e+01 4.182761628333190629e+01
6.499985466179158955e+00 1.126884674514358053e+01 4.420326315148317065e+01
7.151520505183439624e+00 1.149563551994241806e+01 4.426875178965943292e+01
5.888345864260768892e+00 1.096986485483922280e+01 4.412214025518327531e+01
1.841565326418237447e+01 1.195940894233984508e+01 4.001401236451895471e+01
1.555574405945387007e+01 1.203747164362460254e+01 4.223454641690977240e+01
1.698800797323189826e+01 1.207159905452578030e+01 4.163440016136329547e+01
1.102617356543218108e+01 1.283479333675025913e+01 4.413684726328234120e+01
1.037854319961029148e+01 1.286405434619717880e+01 4.418132673071913530e+01
1.112871251854157784e+01 1.283015606856678126e+01 4.412980459198408312e+01
9.744935167508213425e+00 1.252272205647584791e+01 4.432381787036919718e+01
1.205716017455769595e+01 1.294831955893225484e+01 4.358789647795084932e+01
1.434127407528990794e+01 1.238143659090849980e+01 4.250996325877519411e+01
1.457181298770858824e+01 1.217205614919936885e+01 4.285377823086115967e+01
1.393895243024592823e+01 1.240266140292432873e+01 4.287081655503697419e+01
1.322286566291609589e+01 1.268444727350440715e+01 4.309292218179380995e+01
1.262877990967070119e+01 1.280057916240311755e+01 4.348566387811128919e+01
9.111921256326178664e+00 1.218110135852400333e+01 4.446626154593020175e+01
1.621289421574931922e+01 1.185470644773370985e+01 4.209111313119819187e+01
8.457172782257501353e+00 1.176491401700953965e+01 4.458935079372278665e+01
7.146149347249703077e+00 1.131542998577449666e+01 4.445866303414725706e+01
5.981301562370514802e+00 1.080841152605963096e+01 4.433810244391193578e+01
1.948405056473151831e+01 1.001286652723062254e+01 3.867990700664461201e+01
1.949612700048659519e+01 1.044146185820192230e+01 3.933454945511503098e+01
1.880427345356070745e+01 1.147556986962466397e+01 4.058047992651703595e+01
1.841936512730218567e+01 1.194751340477705526e+01 4.049728639038482214e+01
1.820982534269885278e+01 1.198442173041729042e+01 4.076296964837494130e+01
1.758997627936387786e+01 1.201887568576883680e+01 4.136760899685701531e+01
1.031838510708685597e+01 1.239762131168729198e+01 4.451214857867191199e+01
1.095176489059876701e+01 1.273913107635900133e+01 4.436983251231545466e+01
1.205539814874585147e+01 1.292915072605228843e+01 4.385847282828222404e+01
1.102453118974533730e+01 1.278527077920110600e+01 4.422478951785734580e+01
1.536807336316089057e+01 1.196555127930219875e+01 4.259896114534014799e+01
1.377262622165754458e+01 1.250490109839108932e+01 4.328108838307634443e+01
1.320043629911705985e+01 1.265281552655922503e+01 4.338342393238167460e+01
1.687300316349074336e+01 1.167200580132546328e+01 4.194772883587084777e+01
7.802390409120980586e+00 1.136188277310924555e+01 4.471422893559119416e+01
6.630864156446801161e+00 1.085476068690624629e+01 4.459477375832615564e+01
1.931030849445570041e+01 1.086888741227707555e+01 3.972435522252983020e+01
1.910864752438149239e+01 1.110931033055700112e+01 4.016359598727267866e+01
1.092095778140581608e+01 1.250576306570600416e+01 4.453519212218828471e+01
1.187877546983647470e+01 1.279621089242263032e+01 4.407826810364502990e+01
1.203446334405110463e+01 1.284020412831509539e+01 4.399576093712587976e+01
1.212517688211206490e+01 1.291131593148586809e+01 4.368799554200444391e+01
1.167041944453511526e+01 1.270644952571400488e+01 4.426827253337630452e+01
9.715153874261586608e+00 1.228935978288027542e+01 4.448915620046331298e+01
1.276479450288978512e+01 1.272660905074472204e+01 4.368583603248057301e+01
1.262858652784332669e+01 1.276222770056035749e+01 4.402672358439590994e+01
1.520451989938922388e+01 1.194152495342179421e+01 4.283674665017834826e+01
1.428875031418800212e+01 1.230644132122662349e+01 4.316576913108419689e+01
8.424256433506618791e+00 1.154708872142335885e+01 4.476229884835873207e+01
9.045177941502483776e+00 1.173202153793420699e+01 4.481057538836121523e+01
1.583888909738086248e+01 1.171083856117050459e+01 4.281970555856830885e+01
7.216961049844023535e+00 1.110842061868647335e+01 4.465435803281492610e+01
1.964404466069757049e+01 1.025178849898501809e+01 3.990980969301217129e+01
1.838567432474887653e+01 1.154906132625288429e+01 4.111201608930673501e+01
1.807620775160707183e+01 1.156620951716907619e+01 4.141434092167263259e+01
1.743611904937676726e+01 1.148596597464082869e+01 4.178554768619222415e+01
1.090623893093963659e+01 1.236013961439418019e+01 4.473270427995468879e+01
1.152416598556380301e+01 1.261400235257597302e+01 4.455833258030639143e+01
9.700021727957935269e+00 1.214324189914368901e+01 4.468686344041377367e+01
9.666010431289871363e+00 1.191692539149139485e+01 4.485908222459810446e+01
1.340449817911959229e+01 1.254189206178535088e+01 4.368367739984596909e+01
1.318849661120141015e+01 1.260210169751686315e+01 4.393242469717132082e+01
1.480469917029484428e+01 1.210804792011111708e+01 4.305049386383410592e+01
1.531337801085712158e+01 1.190186338325243476e+01 4.283381765334763003e+01
1.433039827688130430e+01 1.225817098402534278e+01 4.328023026997016842e+01
8.481820924341407775e+00 1.136645452114931842e+01 4.495353525447160337e+01
1.635591151582740110e+01 1.169145618306838053e+01 4.238376440838094084e+01
7.391830256969266877e+00 1.095754380509399972e+01 4.488770708853112978e+01
8.069216750278785710e+00 1.096155255537827422e+01 4.512755651104750143e+01
6.980642213560446230e+00 1.055260095646115559e+01 4.505556052259640865e+01
1.981325565272708999e+01 9.845581019313760507e+00 3.945614624127606618e+01
1.963675952257727175e+01 9.499950203565710183e+00 3.841320498177967124e+01
1.988349066147339173e+01 9.374891404956640528e+00 3.899545988253277073e+01
1.944191187203360727e+01 1.070006086370035092e+01 4.023552979611006464e+01
1.918939643741654422e+01 1.100294661786763939e+01 4.066376907896385973e+01
1.028775303788319562e+01 1.210505308835027272e+01 4.490786424956119305e+01
1.203206953926598821e+01 1.278926719371311371e+01 4.406773232892265213e+01
1.296173675946892345e+01 1.254875070339955023e+01 4.435526967590732283e+01
1.231607935781182483e+01 1.262761675457735144e+01 4.431176102743808798e+01
1.319639370715242777e+01 1.257916702347537985e+01 4.403701953916903733e+01
1.532109775096206583e+01 1.190948286930060718e+01 4.293512069493949923e+01
1.422904886839713789e+01 1.233856569798573588e+01 4.348026655559404219e+01
1.404762291373098293e+01 1.235700684760308121e+01 4.368151853575057686e+01
1.331597275726434937e+01 1.256564003838851740e+01 4.391095664401210996e+01
1.400358260478441430e+01 1.236893031209949712e+01 4.379513479619561167e+01
9.723299740364058863e+00 1.173657909156432666e+01 4.504948281191508386e+01
9.159332814450863225e+00 1.137097337712988754e+01 4.519267899825891277e+01
7.524865567761111151e+00 1.075706407719817825e+01 4.509230265687578765e+01
1.645938480658286807e+01 1.144922860399980458e+01 4.265296607808181761e+01
1.728541826184045860e+01 1.129932011639075462e+01 4.213385553457919031e+01
