5.551582642323361405e+00 -8.566444200842836310e+00 4.167372374875719743e+01
5.553149545416322219e+00 -7.144582892096261517e+00 4.379587439765121815e+01
6.434290524764191055e+00 -1.062331882345969802e+01 3.705779134540738795e+01
5.969338626961278038e+00 -1.012394416267310149e+01 3.822080499008538368e+01
6.338713873750438488e+00 -1.050718878539179357e+01 3.735565193328829281e+01
7.078548980865338791e+00 -1.123504261696337103e+01 3.459364164151185150e+01
7.184277670004749261e+00 -1.874742007428666701e+00 4.700774846768992177e+01
6.405504296459427316e+00 -4.034351318938079523e+00 4.588751057305046999e+01
5.954815096336890434e+00 -5.291916327602892878e+00 4.518342660544688982e+01
5.779588801191933634e+00 -6.052302133439551035e+00 4.475014350317602663e+01
6.750440144438837997e+00 -3.007775344370008153e+00 4.642497966066290616e+01
9.121362847229320892e+00 1.928507315922044218e-02 4.820340756566889695e+01
7.848421124503897062e+00 -1.048699827841645060e+00 4.751006678357100554e+01
5.129405272873803767e+00 -8.852780264563929080e+00 4.074013256474891165e+01
5.844905923773309198e+00 -9.926841006592358241e+00 3.867322924357370084e+01
5.425588667252356778e+00 -7.978347348113060455e+00 4.266836399078103170e+01
5.437468069209216992e+00 -6.884074783331632474e+00 4.396737847981401615e+01
5.608530630497779335e+00 -6.468390331125560166e+00 4.435876084595475533e+01
5.952253591389461640e+00 -1.058871267961202989e+01 3.664721764030522166e+01
6.698987162138846152e+00 -1.110538946877760580e+01 3.501155938858286021e+01
6.311364803770320719e+00 -1.097572984351076286e+01 3.542932604734998137e+01
7.250680716755766753e+00 -1.134094397972712720e+01 3.360886246547956091e+01
6.967339331104809297e+00 -2.441088006412950762e+00 4.671638358120302570e+01
7.271928759071420778e+00 -1.278568756811418128e+00 4.726302069689867125e+01
6.101090172577595006e+00 -4.832397319927238755e+00 4.545298693653229805e+01
5.808540535880638345e+00 -5.751439063445945798e+00 4.491386457378904140e+01
8.525591903833161567e+00 -1.925041879607731210e-01 4.800880100986773868e+01
5.504981355432299495e+00 -9.329626370805160107e+00 3.992227826398085000e+01
5.076365892693373461e+00 -9.077022510804708233e+00 4.014453558492253649e+01
5.490040799830665286e+00 -9.537199447745868142e+00 3.940232030410321329e+01
5.560569209319503159e+00 -9.692361728191844605e+00 3.907078331645794123e+01
4.973734996781209006e+00 -8.286814260463211568e+00 4.180843318723115232e+01
4.891326816278972700e+00 -7.268419990825263355e+00 4.327237460201573072e+01
5.025763638341951278e+00 -6.349619067057330035e+00 4.422049113348360549e+01
5.977437299969024842e+00 -1.072890683238609810e+01 3.608516523933545272e+01
6.018760527712284869e+00 -1.029047966302798578e+01 3.772847594451647524e+01
6.544496769178727469e+00 -1.121161224076283069e+01 3.416871533339485723e+01
6.143327170648087865e+00 -4.500045603283820306e+00 4.561597140758876634e+01
6.045082195662118352e+00 -3.209132241104459826e+00 4.614140796183444593e+01
7.913010480544316216e+00 -2.607088289746125054e-01 4.780966088890070864e+01
5.051604625599229514e+00 -8.569929923730768451e+00 4.127404539954247298e+01
4.895878202263337364e+00 -8.003726046697769547e+00 4.234273636324591195e+01
4.893602484966005584e+00 -7.636032937149144217e+00 4.280762735022977239e+01
4.889050813779248550e+00 -6.900733699193439818e+00 4.373715629565659668e+01
5.162560575901527393e+00 -5.797659753232421664e+00 4.470414976900971737e+01
5.553390388448608661e+00 -4.570790704531345838e+00 4.542313076470432520e+01
5.470517606364795782e+00 -1.055412688378975616e+01 3.623689849144884789e+01
5.761392030824707966e+00 -1.035649385797071353e+01 3.724306486882214529e+01
6.033884749802454373e+00 -1.103876172235297481e+01 3.472561141615922509e+01
5.359434603929813079e+00 -9.867934992349677970e+00 3.834592261228907262e+01
6.478627591389322760e+00 -2.075195473524086065e+00 4.672432310032353087e+01
6.696315410300003101e+00 -1.508752366986909843e+00 4.701572035451295761e+01
5.799148506421927252e+00 -3.893354073139006388e+00 4.578219994452718566e+01
5.357934612319067647e+00 -5.183526002657515619e+00 4.506356682421852611e+01
6.261724329659427823e+00 -2.641947927918811168e+00 4.643286747149927862e+01
8.620901217162792562e+00 4.340014927750091567e-01 4.826050805971029689e+01
5.023310919735142654e+00 -9.301331556791069488e+00 3.954875104515327422e+01
6.655214940919354838e+00 -1.128221396899606965e+01 3.351217893972582829e+01
5.799208956731945364e+00 -1.093619136193852626e+01 3.501648751652579250e+01
5.604883924671470119e+00 -1.069923819502938045e+01 3.578017478845578836e+01
5.514877661210844551e+00 -1.010095125110238534e+01 3.781967486081887841e+01
8.008777992621157082e+00 3.657703093380004766e-01 4.806134021258564104e+01
4.518799529393739078e+00 -8.617630615172863884e+00 4.071701043735435377e+01
4.629406046088300641e+00 -8.787847571133054814e+00 4.042431726316007712e+01
4.970248001230527457e+00 -9.525672687131921279e+00 3.895287090034963029e+01
4.332106637430754859e+00 -7.938455565222909627e+00 4.199911237985237733e+01
4.341550048511525262e+00 -8.256621076101279044e+00 4.133178750198103302e+01
4.318130884100523481e+00 -6.856891369840119488e+00 4.342395781979188740e+01
4.549345857876655685e+00 -5.744853636133840702e+00 4.447175681891401666e+01
4.330673457422570038e+00 -6.627132891061682685e+00 4.369818266893791758e+01
4.238671615944835658e+00 -7.275932928662613541e+00 4.284116967600778025e+01
4.642612423035322067e+00 -9.006989009645312905e+00 3.990388524472434284e+01
5.327291490464677537e+00 -1.037996281180001645e+01 3.668370155779103925e+01
5.739392450259249934e+00 -1.084434472824947093e+01 3.532342615021441645e+01
5.364776390163249253e+00 -3.192045589938332206e+00 4.593879493175415973e+01
5.584910214190414557e+00 -2.849479080926749841e+00 4.613329086305269300e+01
8.240251870040472326e+00 9.957860037697627842e-01 4.832980982061676656e+01
4.322578812963838502e+00 -7.738911426037267560e+00 4.230815773729259632e+01
4.346201283324186093e+00 -6.159993608830899525e+00 4.406321045627838373e+01
4.961522897143195721e+00 -4.531674840008833804e+00 4.524915645936239628e+01
4.995676440305511612e+00 -4.211882217026750475e+00 4.539996998072048484e+01
4.401538657268580401e+00 -9.313087012466290560e+00 3.893103505583275137e+01
4.265427379891259640e+00 -9.017994595401569669e+00 3.951974209861383258e+01
4.954781788717905755e+00 -1.034921195972266794e+01 3.638031277878239678e+01
5.184100691620142420e+00 -1.020579825575949684e+01 3.713047041112069735e+01
5.757156654822769504e+00 -1.110176003640938802e+01 3.402212655719156231e+01
4.988753271392811328e+00 -1.051953688471761339e+01 3.582655852891866743e+01
6.072111017280827916e+00 -1.573782266496660975e+00 4.678893983419924041e+01
4.520205360293167551e+00 -5.442383361730794178e+00 4.466644063545944476e+01
5.085055096976808464e+00 -3.674566921968037025e+00 4.565201923904938752e+01
5.765241769690621965e+00 -2.183471797322714902e+00 4.645164090637471332e+01
4.129317347776366276e+00 -8.722900630164653890e+00 4.010844568478871253e+01
4.849060604005497765e+00 -9.701956582757530256e+00 3.830841179719856626e+01
4.646549211865368179e+00 -4.956033778691192992e+00 4.494160311787908313e+01
5.167369963258714449e+00 -1.071289769362052802e+01 3.521746332795402168e+01
4.727755400814726450e+00 -9.878411804484573011e+00 3.766331288121137533e+01
5.060460458931999916e+00 -1.007795938590173179e+01 3.741858147556624914e+01
4.606372757322734657e+00 -1.005498256360163722e+01 3.701777931880822337e+01
3.908257263254512281e+00 -8.382503005892402825e+00 4.069388996115934276e+01
4.503328639976089676e+00 -9.469706117889009178e+00 3.857502797637081215e+01
3.768145284693617647e+00 -7.873143755065264315e+00 4.165537372424990537e+01
3.750101949203707985e+00 -7.474470919178980211e+00 4.227362666448615158e+01
3.772397829947372827e+00 -6.353583266546214858e+00 4.365921045259474909e+01
3.746608277173113510e+00 -6.812955613095637020e+00 4.311042385564362434e+01
3.936048181609122398e+00 -5.691880257401635390e+00 4.423932816958389935e+01
4.370090329421867814e+00 -4.492589249884242797e+00 4.507530268397372453e+01
5.124355465513612096e+00 -2.489529917299890371e+00 4.612516304156468294e+01
4.684660269574074221e+00 -3.175475238952142121e+00 4.573621759156180389e+01
3.752597528508494928e+00 -8.105940142500374535e+00 4.114786962334122933e+01
3.664814368946614387e+00 -7.121194727506867217e+00 4.266661565489558683e+01
3.878831030317171358e+00 -5.087647063240810397e+00 4.462878626278612870e+01
4.438090024315672899e+00 -3.853059785946217009e+00 4.537681000065458647e+01
3.832760478210174515e+00 -9.100476355933743378e+00 3.890919214901124690e+01
3.628388194387502264e+00 -8.657841399765763057e+00 3.979204566775283070e+01
4.417356065045805913e+00 -9.634706351922615042e+00 3.800346498453590982e+01
4.412649676455869141e+00 -1.018675192591547329e+01 3.634725453265482997e+01
4.507037022555244299e+00 -1.048494937640176516e+01 3.541625921118158971e+01
4.107564914152443514e+00 -9.665891000511987130e+00 3.755714414950269742e+01
5.209380520920948499e+00 -2.041642189182276468e+00 4.632752942642524374e+01
5.449288978580399068e+00 -1.638833545367418765e+00 4.656238846682607146e+01
3.278157615863883656e+00 -6.447987404720159077e+00 4.323466862035138547e+01
3.323315013685158359e+00 -5.638846573782858584e+00 4.400711169905057574e+01
3.650077328080751471e+00 -8.858262029839664820e+00 3.932517167074630038e+01
4.036069451860440083e+00 -9.413699154725248874e+00 3.819691040678212346e+01
3.463092483599704341e+00 -8.402622779845838608e+00 4.023141060277450265e+01
4.218895511676861609e+00 -1.031854531179516243e+01 3.567657143212068149e+01
4.126541313720219151e+00 -9.992884926153788427e+00 3.663346916197200898e+01
3.996416902197807541e+00 -9.838626959052168885e+00 3.693440076120860738e+01
3.203841749874225986e+00 -7.807776335844489601e+00 4.131142866002502245e+01
3.297795422123459552e+00 -8.147405374447277637e+00 4.067076912067007299e+01
3.190742398189525986e+00 -7.508909783572141450e+00 4.177526187043837780e+01
3.177644247036919722e+00 -7.210034692703398918e+00 4.223909373599133232e+01
3.175482122569719401e+00 -6.769009206533173284e+00 4.279711159557902533e+01
3.214093560407937922e+00 -6.080015733140811562e+00 4.362023516878691254e+01
3.778610296307765015e+00 -4.453499911196436400e+00 4.490142917701552960e+01
3.781247286271544716e+00 -4.056029255941367317e+00 4.507602534736021482e+01
4.333670390043844023e+00 -2.643867658958213962e+00 4.582519514195386279e+01
3.127835868727074864e+00 -8.592827787209172286e+00 3.947588734789195541e+01
4.663813161669249752e+00 -2.129593472203099136e+00 4.611703156544298565e+01
4.003496314325373007e+00 -3.155292796971996161e+00 4.553331087248188425e+01
3.880439422657055548e+00 -3.494199612663592358e+00 4.535364318692809604e+01
3.502649582524276717e+00 -9.145165735061674184e+00 3.838629717673958908e+01
3.264284874613940790e+00 -8.887978282825706344e+00 3.888735984258296696e+01
2.863083281726718887e+00 -8.203474696323286963e+00 4.013441711299058312e+01
3.568681505102727414e+00 -9.357676370896548690e+00 3.781869139047778816e+01
3.784112166141190947e+00 -1.013140620946223436e+01 3.575841524876848609e+01
3.556072679224070665e+00 -9.524143318028475136e+00 3.732747903989690741e+01
3.646271375985265184e+00 -9.930729387961937604e+00 3.624881501353998203e+01
2.710354258333484534e+00 -6.288415178847476028e+00 4.305750081072612545e+01
2.973076687897932668e+00 -5.159217077804043150e+00 4.418279416434454987e+01
3.236559674383566065e+00 -4.732415963129755099e+00 4.459107446018330023e+01
2.687339686149558649e+00 -7.912308997542701228e+00 4.064764547584803012e+01
3.386617665791949339e+00 -9.622326104912611200e+00 3.685103802579615717e+01
2.625512447361473711e+00 -7.410358703175878858e+00 4.148322966846942705e+01
2.640149812062829060e+00 -7.742469196861234693e+00 4.096785456839561590e+01
2.604570185234669655e+00 -6.945308790263426957e+00 4.220452164484922264e+01
2.603704170549527852e+00 -6.724988274055185400e+00 4.248343623914630030e+01
2.709580164527784163e+00 -5.585652211568734593e+00 4.377451162161958820e+01
2.655385645766369596e+00 -5.806248072189587717e+00 4.358122958660348445e+01
3.187121615001216490e+00 -4.414409709588627884e+00 4.472754761915666677e+01
2.958709687484819550e+00 -3.755112951720430026e+00 4.494199957071659668e+01
3.322579902319882095e+00 -3.135204592803545687e+00 4.533046530218919656e+01
3.616132361832478992e+00 -2.682057056222664215e+00 4.558997568921011379e+01
2.546953449386708535e+00 -8.272045043202190584e+00 3.967970923381268733e+01
3.101135678513541549e+00 -9.301634016251204784e+00 3.744034850223223998e+01
2.898510900335636187e+00 -8.988570518180132751e+00 3.815294114249706325e+01
2.695885057726018719e+00 -8.675507345750144594e+00 3.886553175888119682e+01
2.627068530496018184e+00 -8.527785126937819982e+00 3.915959241794470103e+01
2.076857091269206812e+00 -7.677198503629417914e+00 4.062452439610195398e+01
2.093533909585270969e+00 -7.938989135945345055e+00 4.003109903263838021e+01
3.054185961500168744e+00 -9.662742887243201295e+00 3.633879430153758960e+01
3.166082927126175228e+00 -9.868583516776352482e+00 3.586423347200004486e+01
2.594699509166153550e+00 -4.377407645311255813e+00 4.455338584163489202e+01
2.345835964044876043e+00 -4.954854941478029851e+00 4.404808709036721837e+01
3.224521825705425115e+00 -1.003649708272018692e+01 3.538413448539824913e+01
2.587475131391966610e+00 -9.073984675805647271e+00 3.752881093795680556e+01
2.062023840361808968e+00 -7.345155099857809233e+00 4.113964768442431819e+01
2.096672527919315687e+00 -5.532475603059452851e+00 4.354222157561137152e+01
2.756756345633802230e+00 -3.008063826405372509e+00 4.513737337258388749e+01
2.883685899378630957e+00 -2.676482831591653788e+00 4.529571488490147146e+01
2.110211955412312879e+00 -8.200807208353221966e+00 3.943760906042088976e+01
2.776658899695735538e+00 -9.405967040484386033e+00 3.676765120631787198e+01
2.634065388292160748e+00 -9.245648858399885484e+00 3.706239213482498940e+01
2.545827801224254561e+00 -9.563144054251244697e+00 3.603132467323560206e+01
2.069409949454617870e+00 -3.907453428807109663e+00 4.450636107150226195e+01
2.304174879094111894e+00 -3.397529603698022704e+00 4.479791490950268695e+01
2.136878821687880681e+00 -8.644602048666992999e+00 3.830359199470153442e+01
2.126901908259680951e+00 -8.462818176122006264e+00 3.884367962415007014e+01
2.146846545709017562e+00 -8.826222950244822840e+00 3.776399007246506301e+01
2.686221494546724209e+00 -9.806480066884137869e+00 3.547991922350542637e+01
2.191510679168230613e+00 -2.881049265473282439e+00 4.494447131101526338e+01
2.156813943832313729e+00 -9.007848923893455151e+00 3.722437435500521019e+01
2.166790149611344862e+00 -9.189638544735331038e+00 3.668427445766461403e+01
1.537318705518859296e+00 -8.213131586466554168e+00 3.883990142264246259e+01
1.561425569944802971e+00 -8.562567677908115016e+00 3.786112240053115841e+01
1.550128640457987483e+00 -8.362589272546800956e+00 3.845487590899494990e+01
1.572722937279393163e+00 -8.762546209660808216e+00 3.726737174684603815e+01
1.582759794630558936e+00 -8.944281260013845269e+00 3.672751370074580279e+01
9.734711649675453771e-01 -8.262381216992789490e+00 3.806615461674336132e+01
9.477145925638515989e-01 -7.963436313334979921e+00 3.883612335993490206e+01
9.860351670162021964e-01 -8.480624029290664723e+00 3.741846123685664338e+01
9.985991625289373230e-01 -8.698868459836630151e+00 3.677076706764353276e+01
3.969754272816518603e-01 -8.162200083873210943e+00 3.767755382159649713e+01
1.455123776576147421e+01 -1.190262083668604670e-01 4.755151812307074266e+01
1.416356826535278479e+01 -2.785516709898522292e-01 4.761760563224245146e+01
1.339098899118430808e+01 -4.909869478664387610e-01 4.773077652114514535e+01
1.397018043136229792e+01 2.349384619314056621e-01 4.760252383591384984e+01
1.358394014599441846e+01 1.288797667445342743e-01 4.765908799445315935e+01
1.297507492411697072e+01 -5.380968946293376298e-01 4.778475763381358377e+01
1.377679212895703031e+01 7.484282995037525588e-01 4.758743546009900882e+01
1.275196266142942925e+01 3.502743505870665325e-02 4.776703353886522052e+01
1.315307083922628628e+01 6.783470146984106330e-01 4.766837580810583574e+01
1.216374093907325005e+01 -5.797281247985862640e-01 4.787483482571806803e+01
1.234623712881819024e+01 1.408357134429256280e-02 4.781208227123185139e+01
1.318504116516947455e+01 1.273224714756591602e+00 4.762391977896971440e+01
1.252882910195669197e+01 6.082069876768061434e-01 4.774930070149842720e+01
1.365299024433076980e+01 1.325590169991328615e+00 4.756321826170639611e+01
1.165116362768291580e+01 -1.573148632931374580e-01 4.789808409976578929e+01
1.271709208858042572e+01 1.220859963530357861e+00 4.768457245744573214e+01
1.390675076420468415e+01 1.390840758949177358e+00 4.752531054712700609e+01
1.121204192839596736e+01 -5.403274424022403988e-01 4.797250592192558827e+01
1.208984759886428328e+01 2.253163357433423108e-01 4.782372493559930149e+01
1.352916535104938767e+01 1.902861411278909287e+00 4.753900090703412928e+01
1.189351745752103540e+01 7.852298050341621760e-01 4.780792692071945282e+01
1.093457221438932692e+01 -2.948766532671184271e-01 4.798679378950169649e+01
1.290531039595528107e+01 1.833365151218617317e+00 4.761986681642415675e+01
1.159569647473526466e+01 3.626688543094944150e-01 4.786932920641163491e+01
1.109633757636157014e+01 3.336519845501328407e-01 4.792665669781255389e+01
1.218999453408977729e+01 1.301144979775664678e+00 4.773796499678489624e+01
1.403670769449568922e+01 2.033253597257515199e+00 4.746319368883523282e+01
1.206729797310789287e+01 1.800198672800293442e+00 4.771619515796058408e+01
1.309342729808288297e+01 2.445539966847477320e+00 4.755520566187893650e+01
1.125812690486912437e+01 9.622747382937224536e-01 4.786651621073583840e+01
1.071225251671669909e+01 5.094744251751155417e-01 4.795985447423175430e+01
1.166289811409943766e+01 1.381429015416679063e+00 4.779132381290846610e+01
1.016684508473154480e+01 5.706132357615596729e-02 4.805310418879185619e+01
1.247211119774528143e+01 2.219396693850012259e+00 4.764098305705984160e+01
1.151517778632368838e+01 1.605495886690302854e+00 4.779644027702330078e+01
1.071074497934498027e+01 1.350946692952761596e+00 4.792165378796394037e+01
9.892805069369915216e+00 6.719806032747253077e-01 4.806150367809165402e+01
1.177207653165281975e+01 2.248336187100517858e+00 4.772641392962407281e+01
1.116024313751724328e+01 1.973656242187411536e+00 4.782598895133592976e+01
9.757200521554761252e+00 1.384003671151058379e-01 4.810390933997202723e+01
1.002841280109119992e+01 1.205570635375014188e+00 4.801910081771966077e+01
1.069402680685708518e+01 2.187437094506428092e+00 4.787921800206632383e+01
1.016401858601675023e+01 1.739154635801625215e+00 4.797670277775654313e+01
9.371396456988392742e+00 4.626806894669121539e-01 4.814774896340675525e+01
1.122463579820012036e+01 2.636227391758182659e+00 4.778161984859329436e+01
9.135274961482236833e+00 8.690538698934404671e-01 4.816590767306826848e+01
9.649646186944146109e+00 1.304103879238308838e+00 4.807130624112755157e+01
9.802764299601156139e+00 2.372275987592868063e+00 4.806317360901369540e+01
9.587914266870763313e+00 1.693761085562419222e+00 4.808231755040042543e+01
1.043927710684968702e+01 2.693236730063422346e+00 4.794147336427552375e+01
9.011812243375306508e+00 1.648366318521626406e+00 4.818792151093956733e+01
9.251061539959863467e+00 2.108274933697094067e+00 4.815755735542759197e+01
8.435707009714397131e+00 1.602969156023997810e+00 4.829351733643874667e+01
1.558204695021354347e+01 4.626547106858424740e+00 3.127681818716757078e+01
1.543104029269768240e+01 4.033653779657493388e+00 3.103539870270999756e+01
1.503409761116595966e+01 4.660308254713930509e+00 3.065142771878168659e+01
1.486818273989921302e+01 3.665308348364197943e+00 3.034686823047605486e+01
1.601284993704991422e+01 4.087762544121826380e+00 3.171267812617339388e+01
1.528017337139987575e+01 3.441316128214636283e+00 3.079422808144677504e+01
1.565087339756133034e+01 3.595705310276833266e+00 3.123925952233147285e+01
1.596296744328474659e+01 4.753354858186277454e+00 3.173065894910736162e+01
1.573282008341499250e+01 5.218534884605524837e+00 3.151790269395574740e+01
1.612058043548525177e+01 5.254189141556200759e+00 3.196935872545280333e+01
1.535830482998055579e+01 5.084187514746011161e+00 3.107229351463520217e+01
1.546900767032497193e+01 5.615641814922130770e+00 3.126035515056787517e+01
1.505394953387417978e+01 5.420705354037429480e+00 3.076139237847316465e+01
1.588354612061702298e+01 5.810337960314232220e+00 3.175896955929404797e+01
1.656671969535826605e+01 4.880206849829499482e+00 3.248086585282347727e+01
1.635763025300859752e+01 4.698006598307808979e+00 3.217913835661284594e+01
1.658208896974513280e+01 5.497930216384250279e+00 3.260786104071545566e+01
1.659465790334066426e+01 4.141874278383535390e+00 3.238889584459342075e+01
1.512925671001645433e+01 2.848794943790782241e+00 3.055299568494927342e+01
1.474452710214034035e+01 2.772486988722628887e+00 3.010253600679665098e+01
1.451068808238072094e+01 3.287916865267328959e+00 2.989321328546542844e+01
1.554733928902269469e+01 3.003288037982511316e+00 3.105263953317895087e+01
1.539610877950399548e+01 2.410897011423017045e+00 3.081103118344802638e+01
1.594206629878651071e+01 3.251915090068686176e+00 3.153615409070947706e+01
1.637287823165545575e+01 3.455660029334662653e+00 3.205639085513748654e+01
1.497847412967812986e+01 2.256828710493286927e+00 3.031199095741836302e+01
1.581450644058028487e+01 2.565261498741734147e+00 3.131108967700071233e+01
1.623246638630740080e+01 2.719474141278972468e+00 3.181078998918064471e+01
1.665088876158848663e+01 2.873864667068444678e+00 3.231036943743145429e+01
1.683208119934944946e+01 3.584821810658594732e+00 3.259900209827640793e+01
1.567331903767541235e+01 1.848045655902428752e+00 3.112004455206841769e+01
1.517808760880255825e+01 1.739522088783098663e+00 3.053065943218184941e+01
1.453384475850949542e+01 2.122746909788733038e+00 2.982119629711773356e+01
1.692787204516334754e+01 4.225416130144611593e+00 3.283387082024333381e+01
1.694476028575387261e+01 4.934481952463654508e+00 3.297867522617840308e+01
1.735693656013226160e+01 4.949024430387407136e+00 3.351369388839246000e+01
1.726108501621397195e+01 4.308958242260631621e+00 3.327884465098466649e+01
1.699756648314279772e+01 5.646731681946682180e+00 3.317042823958313846e+01
1.722912246172995410e+01 6.081679030905728034e+00 3.354501042345501105e+01
1.745281809205727797e+01 5.589287335612087126e+00 3.374860980791724785e+01
1.716524464214089463e+01 3.668964269044960869e+00 3.304401704696437037e+01
1.616715730794434691e+01 1.999412883985857814e+00 3.170944326773039279e+01
1.474290456553617901e+01 1.661379060034331001e+00 3.003854805171542353e+01
1.706929741604404072e+01 3.028255695500913891e+00 3.280892272771384910e+01
1.651144615994451570e+01 2.370893374109170892e+00 3.212885392702587950e+01
1.688743195200592240e+01 2.468741830519749492e+00 3.257546806392729621e+01
1.652327312990552954e+01 1.348411383870390390e+00 3.210800155209935269e+01
1.595052887378824202e+01 1.285194164225517355e+00 3.142919882579479918e+01
1.670520265919004288e+01 1.908111239291018668e+00 3.234154355047509455e+01
1.787300351160441636e+01 5.014399102291876353e+00 3.415706001681601833e+01
1.754886846187709537e+01 6.230675516395500324e+00 3.398393164914823217e+01
1.749359153296153124e+01 3.776463091740118738e+00 3.346546693828402397e+01
1.743262337800606332e+01 3.199579555022056265e+00 3.328489325422319212e+01
1.537778452794277406e+01 1.221999987468407545e+00 3.074947683381933317e+01
1.434755116349677451e+01 1.579382112953112483e+00 2.960308616662606340e+01
1.450746792556055809e+01 1.066286370993094090e+00 2.976526772086508288e+01
1.496756732100392995e+01 1.079360691197074118e+00 3.028468935640251303e+01
1.708684943281353696e+01 2.014025405898242305e+00 3.278450248787017074e+01
1.727036266118552632e+01 2.485530475124808181e+00 3.301598378818362534e+01
1.634105238880181687e+01 7.878230755937662977e-01 3.187408354315261860e+01
1.773876709124275663e+01 4.198442765975791247e+00 3.384293897244403837e+01
1.778565006447574603e+01 5.725134310010226102e+00 3.418074994398164534e+01
1.729233289105594551e+01 6.659683785321614202e+00 3.372691028291377080e+01
1.400899138173921976e+01 1.210932157141315413e+00 2.922255325730875697e+01
1.520910140298966340e+01 6.789266118356152013e-01 3.055223819665571838e+01
1.709800387198549743e+01 1.373945827858783053e+00 3.276917460649692515e+01
1.747143457101568487e+01 1.942802098950324741e+00 3.322304930418764712e+01
1.601028094894416753e+01 7.004034194514506817e-01 3.148037767803150899e+01
1.557753268981097605e+01 7.043465383147802239e-01 3.096841990330435479e+01
1.779578024094821842e+01 3.370822966119970232e+00 3.376064186980244131e+01
1.789298194148512522e+01 6.274796109187374960e+00 3.441302329420322792e+01
1.764495218425352974e+01 6.872275706446584920e+00 3.421932437090060120e+01
1.480692795295894548e+01 2.899001527647674936e-01 3.009340440448134046e+01
1.531906833020810588e+01 1.228899533115253573e-01 3.066938951077030140e+01
1.671411306857294576e+01 9.192577915233507424e-01 3.230830422948511682e+01
1.770416017952900134e+01 2.610295853724811987e+00 3.357722496174302051e+01
1.819740342359416019e+01 4.364048502009108432e+00 3.443445920631241108e+01
1.815872435854473110e+01 3.541967955658972045e+00 3.423611168605931709e+01
1.814089483961272364e+01 5.677599683092689808e+00 3.460662461764560049e+01
1.427203999853026950e+01 4.712468483688516674e-01 2.949200622359702351e+01
1.376233766002763126e+01 4.814328351471317546e-01 2.893352497910990095e+01
1.441959355599857950e+01 -9.856796265148527747e-02 2.965132551473476497e+01
1.467132531234333648e+01 -5.639002179262184722e-01 2.992961840553348907e+01
1.577746800665130067e+01 1.862095758630260556e-01 3.118765323429245129e+01
1.615912210681921479e+01 2.281441998129616067e-01 3.164053658425318005e+01
1.657856038052630510e+01 3.573469541279986061e-01 3.212792148324110286e+01
1.510638635644446204e+01 -4.864784296235559746e-01 3.042170421073191378e+01
1.767273138184856407e+01 1.399489523108725653e+00 3.343034388168950244e+01
1.698064328984817450e+01 5.779027801155601773e-01 3.259939146769339402e+01
1.838906918788213929e+01 5.079775033194477096e+00 3.480042482651941782e+01
1.802494608873972126e+01 3.036830876818332303e+00 3.402179397446747089e+01
1.816684611837261443e+01 6.595807282820143058e+00 3.487419174169108516e+01
1.827675135713062105e+01 6.134162823901912809e+00 3.491037211495445547e+01
1.403661327623264121e+01 -1.237371648597494767e-01 2.921875525714091992e+01
1.554167751043155477e+01 -4.089907456089916793e-01 3.091408512706880529e+01
1.597721637960173702e+01 -3.314411205397060911e-01 3.140678703842886321e+01
1.639642319251625224e+01 -2.023275853296221949e-01 3.189413406316984734e+01
1.796751795834410004e+01 1.933596749718364594e+00 3.385145202666286934e+01
1.741536934792375391e+01 7.537506193774743402e-01 3.310638426401349932e+01
1.814926760652279469e+01 2.557910423580695092e+00 3.413715546711777193e+01
1.836797023354792913e+01 3.137451256997708438e+00 3.446576671077782095e+01
1.852173774982240673e+01 3.713143213577951851e+00 3.471167151281719754e+01
1.801105506410605273e+01 7.111050692149215813e+00 3.478781590267290369e+01
1.764602172501061261e+01 7.427235131250565559e+00 3.444550798764863231e+01
1.856930266350882874e+01 5.766803497805695677e+00 3.522390466651795293e+01
1.850438272248264937e+01 6.483528618437166102e+00 3.531450642651856242e+01
1.863697509018758680e+01 4.482603192664627478e+00 3.499401170158579788e+01
1.423625154080401423e+01 -6.412869755123413729e-01 2.943754819956012270e+01
1.498661934879235247e+01 -1.152896421439652430e+00 3.029506968246093734e+01
1.572016707452665152e+01 -8.318071876722666902e-01 3.112208894942882509e+01
1.533349858185660075e+01 -8.679910523966051228e-01 3.068439735061233620e+01
1.681606909367036806e+01 -7.307192002640083839e-02 3.238175894861026194e+01
1.723570969630372218e+01 5.619197515872826482e-02 3.286937760652639895e+01
1.801202694354432765e+01 1.367166390031830270e+00 3.385783793859284430e+01
1.787370689831884363e+01 8.571038238137914655e-01 3.363730546213894712e+01
1.765543770647578015e+01 1.854947555367955914e-01 3.335709768803722852e+01
1.837697553736830969e+01 7.349709342549784807e+00 3.535603072768954291e+01
1.868956180806086920e+01 5.050566485722971954e+00 3.521025089019842369e+01
1.801203314016412804e+01 7.665787199133298202e+00 3.501379231662952662e+01
1.353997589648223254e+01 -1.423795914326150824e-01 2.867383782538288628e+01
1.447027148154521825e+01 -1.195825700689915116e+00 2.971032186860024282e+01
1.380118670604235120e+01 -7.186136289345359529e-01 2.894551412592934980e+01
1.619641340284739073e+01 -9.118565384652383976e-01 3.166641063546778412e+01
1.847995324904270475e+01 2.099254831797644272e+00 3.451605080936955972e+01
1.663791768921660008e+01 -8.408277922999775056e-01 3.217990416490692240e+01
1.820988311985250618e+01 9.097298901026117379e-01 3.406835248644453884e+01
1.834495842575886826e+01 1.504643120076780693e+00 3.429227013190854478e+01
1.807474768637415963e+01 3.146882306220622483e-01 3.384433194817343349e+01
1.745898959495667313e+01 -3.576824558378770003e-01 3.313231880809270535e+01
1.875002213828769726e+01 3.288885688863472989e+00 3.496373130045646604e+01
1.888524823804842967e+01 3.884553272838939808e+00 3.518788244929589126e+01
1.861495417993252488e+01 2.693914761204617037e+00 3.473983744020974029e+01
1.876292802913987146e+01 6.247966538007292847e+00 3.561406459042962780e+01
1.899770735894304607e+01 5.856006447560655914e+00 3.584118614241383938e+01
1.896025167272142298e+01 5.199382453504584056e+00 3.562359646055299578e+01
1.892274284205061718e+01 4.541833615680285874e+00 3.540569714095994414e+01
1.830512029268374974e+01 7.912527349831614210e+00 3.549142597885926165e+01
1.546308949524771847e+01 -1.332126694917546539e+00 3.083712448223892011e+01
1.712996720360921188e+01 -7.263521810717358251e-01 3.275192933959678498e+01
1.641574426541736642e+01 -1.492498045176281707e+00 3.192594945840942700e+01
1.842943366935863025e+01 4.606416148984345815e-01 3.431317416340566950e+01
1.783081818047953249e+01 -2.788130579338126136e-01 3.356463839152092987e+01
1.896432721024401857e+01 2.708614532436651512e+00 3.519079059274064036e+01
1.874729256587242077e+01 6.878985541709317530e+00 3.575147884931415376e+01
1.903515145291547839e+01 6.512497907528086216e+00 3.605872408371094195e+01
1.923674658543199101e+01 4.826134850126831743e+00 3.590986886472985162e+01
1.923462897199590671e+01 5.536378520631324740e+00 3.608653970881596251e+01
1.794017867168794211e+01 8.228606017952566631e+00 3.514917268430992436e+01
1.874356112053063939e+01 7.588805404160086532e+00 3.592528725039132098e+01
1.338520343516113620e+01 -7.804734261820966967e-01 2.846063303394238275e+01
1.402406550745089220e+01 -1.246551930537114439e+00 2.920524208589274195e+01
1.470429235731119455e+01 -1.750303616774984361e+00 2.998324112653423157e+01
1.596128351091402209e+01 -1.470246721917695343e+00 3.140741458455013202e+01
1.520622606044644698e+01 -1.831726400234382490e+00 3.055239451558339425e+01
1.687925760654042051e+01 -1.479302593474460359e+00 3.246548099360541784e+01
1.852859933519942714e+01 9.973802293746977243e-01 3.448598316763021643e+01
1.878090898934785358e+01 1.352614577717167199e+00 3.484064380080067025e+01
1.907738042001536627e+01 3.316878046183326934e+00 3.538746379411266219e+01
1.889441604810805941e+01 2.024436576465668658e+00 3.504326011736612401e+01
1.923893485931606406e+01 4.115729919987746399e+00 3.573325132709803142e+01
1.947155141687629865e+01 5.216751100533403296e+00 3.633189275545905161e+01
1.856174437433888968e+01 8.163209264642308227e+00 3.592367341277523707e+01
1.820315151581928959e+01 8.570150954047052849e+00 3.562639783802914906e+01
1.567696183843792390e+01 -2.066683816544609975e+00 3.109294684618644666e+01
1.758679853499760171e+01 -8.724247078407033618e-01 3.328483383380915939e+01
1.734277175961551976e+01 -1.466280825406467647e+00 3.300501115613748482e+01
1.827330093888619444e+01 -3.036071954632693082e-01 3.408712441084279732e+01
1.916921578302595819e+01 2.217763318019954077e+00 3.541324580630987384e+01
1.939033337748777797e+01 6.034592729292041824e+00 3.642687214310277710e+01
1.907263065188192286e+01 7.169605332048865520e+00 3.627646441225297025e+01
1.959235694225220215e+01 4.346735595259279883e+00 3.627821549743885754e+01
1.962947941902073623e+01 5.552177834179764737e+00 3.663412741550668983e+01
1.935084818343342761e+01 3.625478830299161626e+00 3.582725000997938025e+01
1.911017510950255271e+01 7.827924761876888127e+00 3.649460028539152034e+01
1.934781869481176386e+01 7.224042348219289700e+00 3.666908964210666966e+01
1.929645975799937219e+01 6.650699002094221157e+00 3.645341531067668939e+01
1.494945396980190111e+01 -2.332250034342226552e+00 3.026776287030080681e+01
1.618071686268387310e+01 -2.050950044577672493e+00 3.166706550643656115e+01
1.533089642262082641e+01 -2.336099579084477185e+00 3.070274237261854466e+01
1.663527963413248401e+01 -2.073463666273139161e+00 3.218571198770477082e+01
1.802938612397588258e+01 -8.979191582670995597e-01 3.380744374235913341e+01
1.878377473851846347e+01 6.064780453598377363e-01 3.478156063824437183e+01
1.862787305678929428e+01 -1.581450567487670267e-01 3.455581110896801533e+01
1.923170077218653518e+01 1.518795340623685153e+00 3.543488884976370912e+01
1.913791419660643101e+01 7.522509048123257047e-01 3.524968086560298985e+01
1.926966699002372607e+01 2.748755649530108869e+00 3.558720340341927368e+01
1.979638277750496300e+01 5.096959549893037789e+00 3.674879916831776683e+01
1.971642950450776510e+01 3.505111533321415340e+00 3.634085623487450789e+01
1.852698740344903072e+01 8.998975624485792579e+00 3.621741557497004749e+01
1.709855003266952167e+01 -2.061107980852262767e+00 3.272495173317990691e+01
1.946276060691051057e+01 3.135231536013425746e+00 3.592124538329794348e+01
1.946195624956892445e+01 2.180634443323779426e+00 3.578694311313275023e+01
1.994539973239006159e+01 4.577495231403042375e+00 3.682259880640351213e+01
1.990796290367337917e+01 4.007315301322137202e+00 3.668877274048503523e+01
1.958573554977380127e+01 6.619467839003863929e+00 3.684377264857594980e+01
1.954262673889745372e+01 7.474499246354628035e+00 3.705691146548959836e+01
1.881835967400963128e+01 8.413890349814087344e+00 3.635591574686495164e+01
1.598921981213240606e+01 -2.726446943708327630e+00 3.145968037076546153e+01
1.512457705070437086e+01 -2.797578948000004839e+00 3.047499146311569618e+01
1.555672281337182561e+01 -2.762022815917415830e+00 3.096713769088863089e+01
1.776918499894826198e+01 -1.663934891127959448e+00 3.351087914111025867e+01
1.745308400198239696e+01 -2.014333180011306901e+00 3.314266290981630902e+01
1.685459518079111874e+01 -2.655284855604212346e+00 3.244518011089449061e+01
1.642170502435698864e+01 -2.690879286001114590e+00 3.195220416285022225e+01
1.847197563361935480e+01 -9.239048357395134303e-01 3.433005588656683926e+01
1.907065272223432828e+01 2.425031050995101606e-02 3.514111065009026191e+01
1.949218172489630874e+01 8.980888216755820164e-01 3.571797058086447407e+01
1.964430784661482221e+01 2.545787458153217386e+00 3.610243060567475482e+01
1.905041206390151487e+01 8.399081484463829739e+00 3.673471743311069559e+01
1.939145710881070173e+01 8.007824769831389133e+00 3.699490928526839184e+01
2.006079631810370856e+01 5.412285928040126315e+00 3.719255436678594151e+01
1.982317773922756743e+01 6.016098431618114972e+00 3.701810060297685112e+01
2.014800793709790838e+01 3.554514823834693527e+00 3.697389303086674062e+01
1.725766448410070097e+01 -2.556670908455690672e+00 3.291945733471328595e+01
1.656305239084675307e+01 -3.060365142475467426e+00 3.213153424865537033e+01
1.824779599387395024e+01 -1.579551965889076870e+00 3.407448745371333843e+01
1.891486678054987181e+01 -7.440155472110856483e-01 3.491541369742908074e+01
1.965446885541219757e+01 1.611868064486312591e+00 3.598691191549235668e+01
1.978182954254700476e+01 2.884613196663958323e+00 3.634920504285372544e+01
1.899074965627633560e+01 8.969220195379547178e+00 3.697440706268375976e+01
1.931399848357490967e+01 8.518546815133703376e+00 3.717564159353200637e+01
1.992201689368680562e+01 1.671680685965056146e+00 3.638341987538829159e+01
1.999745687819815387e+01 2.300188500249279233e+00 3.658053393882961757e+01
2.007277492762643689e+01 2.927696400119053521e+00 3.677732555430466732e+01
2.029849022758381238e+01 4.808288160223225027e+00 3.736706098224357930e+01
2.022322307151971543e+01 4.181185334116124253e+00 3.717041044449022280e+01
1.995258952097477945e+01 6.551432310362732991e+00 3.739687774768279382e+01
1.985819267100004737e+01 7.207824966929027966e+00 3.746435018671416373e+01
2.027748704088910259e+01 6.055524359095931786e+00 3.774366761637246981e+01
1.576823581839905941e+01 -3.316306931330290197e+00 3.123557896498955344e+01
1.766079191459327902e+01 -2.458044676219151903e+00 3.339380295172205138e+01
1.701493859108942175e+01 -3.169031605336722457e+00 3.265960893557787159e+01
1.936779344767963451e+01 4.146780583636242579e-01 3.554141771003659045e+01
1.984667616277648250e+01 1.044029963894783197e+00 3.618656046026126205e+01
1.627119178996817084e+01 -3.465546749270434379e+00 3.181754637761819282e+01
1.969610343172923805e+01 7.724491791177451105e+00 3.737975586450420451e+01
1.967268348111218401e+01 8.187697356875347054e+00 3.749513490601312782e+01
1.858337119379794089e+01 9.562079376692674160e+00 3.664676829106465306e+01
2.038913206403818634e+01 2.325931433715992647e+00 3.718010537103648971e+01
1.535933627230582310e+01 -3.412984900684486345e+00 3.077296538769202527e+01
1.806366009866261990e+01 -2.359485510167255384e+00 3.386784338616011780e+01
1.741805404531345758e+01 -3.070328655554140695e+00 3.313394459164796757e+01
1.867036104926209106e+01 -1.543404995068078600e+00 3.457262027449557706e+01
1.952052668357535836e+01 -2.421035403548508352e-02 3.572921991341562631e+01
1.935753016057494946e+01 -5.578291613729887688e-01 3.550065023223339722e+01
1.968360359136729798e+01 5.098462836855083280e-01 3.595789598842272738e+01
1.672325230594725198e+01 -3.573675294707486128e+00 3.234581707772903769e+01
1.946467486942973935e+01 9.028909627769246882e+00 3.767903904075792809e+01
1.893097188882125081e+01 9.540354453964830839e+00 3.721451518172155914e+01
2.017227966931466199e+01 1.256791373733140871e+00 3.671004324996949464e+01
2.021626520792513659e+01 1.819113762786620292e+00 3.685061969392315007e+01
2.044035678172941317e+01 2.994232304673280609e+00 3.734556446696284837e+01
2.028798545464789527e+01 5.432180379270066695e+00 3.755544604853218260e+01
2.026699741194840243e+01 6.677841836308632928e+00 3.793157494653364381e+01
1.996458834668929683e+01 7.744039987083211507e+00 3.780722878582926683e+01
1.919456706826413495e+01 -1.092745611662046423e+00 3.527212031528426195e+01
1.903160345519440000e+01 -1.627684597213542084e+00 3.504358159617487445e+01
1.597974712775979711e+01 -3.869476346278186263e+00 3.150400592741667793e+01
1.645133262447140510e+01 -4.040570738521704008e+00 3.205842238761015750e+01
1.995391557806066274e+01 8.367584320526505692e+00 3.799393517305873047e+01
2.049764240107337443e+01 1.469398634916862179e+00 3.723314190267861790e+01
2.020271399150973224e+01 7.420507966882560202e-01 3.671992584123289305e+01
2.053245273807515758e+01 5.028044400648519208e+00 3.783959553926329988e+01
2.046832691005515414e+01 4.225698555160795955e+00 3.754933456526404711e+01
2.063807416937083872e+01 3.643426960658898484e+00 3.773151059405915930e+01
2.025649543037941314e+01 7.300382342235679722e+00 3.811832956894394187e+01
1.846650519913264787e+01 -2.260550539962001615e+00 3.434185661146581481e+01
1.785305124069070004e+01 -3.073358303960063154e+00 3.365093069847000606e+01
1.717531477857862043e+01 -3.681770320581700950e+00 3.287406109260687259e+01
1.966663633270878364e+01 -5.304700582357835259e-01 3.591768740894018208e+01
2.002202578000460420e+01 3.837940588703286360e-01 3.641187107167580450e+01
1.685590295381576453e+01 -3.997227172675866580e+00 3.252318439244272952e+01
2.024595830833750298e+01 7.924136097025522574e+00 3.830542308011316521e+01
1.925628798213613280e+01 9.678820859754639017e+00 3.775355520805967302e+01
2.054916504602693550e+01 7.324499429907626036e-01 3.725969213527315560e+01
2.066346096761269280e+01 2.628753923659154612e+00 3.763733088417391315e+01
2.050408714454252390e+01 5.584238541294957336e+00 3.797507529867348808e+01
2.083687182486979950e+01 4.324526103246901343e+00 3.824011727534157501e+01
2.065589177560168821e+01 6.157457960036188283e+00 3.842173915818584362e+01
2.053387978433569927e+01 6.850347426809673124e+00 3.844203421639682006e+01
1.985890267404327147e+01 -1.499530986999120519e-01 3.618313442498033083e+01
1.759445024603264685e+01 -3.633575214544459087e+00 3.336980415304218894e+01
1.886864116722684415e+01 -2.161581052327647523e+00 3.481503533593555488e+01
1.936955538689837297e+01 -1.540916278741246259e+00 3.550048112377415066e+01
1.962551599766051424e+01 -1.079211818268964507e+00 3.585313547734140371e+01
2.080793550443753048e+01 3.060766442216574568e+00 3.791380514383226341e+01
1.993854930084125954e+01 9.088599437819114613e+00 3.838057470614268141e+01
2.023539970142248379e+01 8.547650754072982693e+00 3.849254428422185725e+01
2.075586721503169585e+01 1.156011152938683395e+00 3.761309544709032338e+01
2.072524267996933744e+01 2.182255431401642465e+00 3.767292316271302610e+01
2.076660813652652138e+01 5.247988855171402456e+00 3.831110313759977259e+01
2.063448433374069069e+01 7.404533405212616159e+00 3.879544999221623414e+01
1.859432135882376258e+01 -2.670180834759310784e+00 3.451285161036055626e+01
1.831980789568067536e+01 -3.179172102300104719e+00 3.421043962398205451e+01
1.928824530070936305e+01 -2.021167768738576509e+00 3.538286545233818714e+01
2.032567641059551278e+01 2.599352461881956344e-01 3.687649524103294141e+01
2.019728053985448568e+01 -2.771245718278591563e-01 3.663705154330492775e+01
1.804531183689818263e+01 -3.688156543862389558e+00 3.390802928359357082e+01
1.777084932224817138e+01 -4.197094150498553944e+00 3.360563468361326755e+01
2.092696257820907491e+01 3.620720345937636697e+00 3.825128842907417237e+01
1.964199965623226518e+01 9.628988821502161954e+00 3.826872905530284186e+01
2.043486468193889039e+01 7.976315270417455139e+00 3.864393654658888266e+01
2.082265829074535546e+01 1.681782985268165831e+00 3.775568735908522200e+01
2.097789013173634132e+01 2.477800795881086149e+00 3.809619783588550490e+01
2.083424841443521558e+01 6.832336465940811898e+00 3.894707607092113477e+01
1.996992537112992849e+01 -7.138886439136473694e-01 3.632337822164526386e+01
1.733573618776842551e+01 -4.194470881735980150e+00 3.308854768430263960e+01
1.810559401812908575e+01 -4.191909763301800318e+00 3.402176190944037870e+01
1.842700594277810211e+01 -3.910469756545277953e+00 3.440007027513646420e+01
1.970784920222093817e+01 -1.880800933474113368e+00 3.595069539051439023e+01
2.117671429729018229e+01 3.159641684691282482e+00 3.860502801081200630e+01
2.104803891227932766e+01 1.312313413191021017e+00 3.808031186579782457e+01
2.114798660345976344e+01 1.894371965034604033e+00 3.827874088132988106e+01
2.100578482004846492e+01 4.903713557301951909e+00 3.866997119537205663e+01
2.119105631564104186e+01 3.791507299602395964e+00 3.876738766756101029e+01
2.100029561563583869e+01 5.467502903465157438e+00 3.878060260896614153e+01
2.103427345989626929e+01 6.259389512779875986e+00 3.909890169195836052e+01
2.078164256276700428e+01 7.465171026885267125e+00 3.934489907246904039e+01
1.873002513240587419e+01 -3.248482775964441682e+00 3.472621883261599862e+01
1.900443978107835363e+01 -2.739638564501945872e+00 3.502852591247855685e+01
1.932349123616727837e+01 -2.508289748496129956e+00 3.545434655152882186e+01
2.004876885483763260e+01 -1.227210666570172526e+00 3.642106406915808492e+01
2.047281647318619591e+01 -3.559882822300104999e-01 3.706118187835158295e+01
1.707611905182073642e+01 -4.700972650321111779e+00 3.281762497820951552e+01
1.749599445376741613e+01 -4.706773570683356667e+00 3.330278222180090353e+01
1.826290321696982133e+01 -4.613750242305107108e+00 3.424989730774742469e+01
2.120539595710951275e+01 4.423352974647244196e+00 3.892824306043267057e+01
2.116235784839548373e+01 2.527315166048889505e+00 3.844196562917875326e+01
2.007545601835798621e+01 9.055999083151199613e+00 3.875806261161348942e+01
1.991561563329271678e+01 9.563923722617575507e+00 3.902341187329606953e+01
2.039863308736195080e+01 8.615899790058982433e+00 3.910289427953914299e+01
2.094817352923007547e+01 7.309812846948013920e-01 3.788204402347344057e+01
2.059651408402346107e+01 8.273533132129776146e-02 3.728611795091340042e+01
2.121973300433757004e+01 5.055201147041046283e+00 3.908931832430987185e+01
1.787973583526970955e+01 -4.660227451122873177e+00 3.377669437050075629e+01
1.864593902851794383e+01 -4.567287518532846313e+00 3.472293715822038962e+01
2.012761429180780937e+01 -1.740406610400842657e+00 3.651874360942505859e+01
2.037290565373008633e+01 -9.393115444774902123e-01 3.686269730739505235e+01
2.066371394910440173e+01 8.070855474124448037e+00 3.949867404524755443e+01
1.955033602110374602e+01 1.012115297422952054e+01 3.872277582583695477e+01
2.084832483390066571e+01 1.490178585476106543e-01 3.768380500686916434e+01
2.113234176010065823e+01 6.299843451428684737e+00 3.946510055613869383e+01
2.103062540410784109e+01 6.912504764049453243e+00 3.967966286455388314e+01
2.123406720200581432e+01 5.687108929478779551e+00 3.925055470359653498e+01
1.932993385017364929e+01 -2.936177728831447009e+00 3.548355176747442385e+01
1.914024349679586479e+01 -3.317797866969907528e+00 3.524199765184823008e+01
1.887945951446810966e+01 -3.884601734721992994e+00 3.496107643668165110e+01
1.807021700050114177e+01 -5.379709213061261153e+00 3.410363525828880427e+01
1.842994653204375055e+01 -5.114301536905920820e+00 3.452051203395210877e+01
1.995018060192227694e+01 -2.272994718437045147e+00 3.630119416539721300e+01
2.054822683636275826e+01 -1.599745519802313165e+00 3.708793907410259294e+01
2.142525559115715339e+01 3.974068409069936081e+00 3.924823996503221224e+01
2.142456704305633863e+01 2.204660009774166873e+00 3.887030495021337373e+01
2.024202067859718923e+01 9.059667236822383174e+00 3.928192737335754003e+01
1.975555908016506024e+01 1.007226314570644021e+01 3.928901780245092823e+01
2.129511402444019907e+01 1.215713717132461680e+00 3.848244894135454786e+01
2.156460858488815546e+01 1.507078150525546389e+00 3.905742687623555298e+01
2.064825707160192891e+01 -1.017147593848220177e+00 3.728657041481882572e+01
2.114523924348837269e+01 3.437287869871715196e-01 3.818491562121920424e+01
2.153142226964156336e+01 4.543197611638714051e+00 3.956958034251862699e+01
2.092879662305305999e+01 7.525810852656715788e+00 3.989448585222171317e+01
2.056185999956263544e+01 8.684152190214422973e+00 3.971344865291803927e+01
1.963468553395379956e+01 -2.704110878252615091e+00 3.588976203465715287e+01
2.074835151410415435e+01 -4.350223577297102628e-01 3.748531299545618367e+01
2.032085725105401863e+01 -2.174923229824787363e+00 3.680404933749640151e+01
2.138267305412076169e+01 5.115426701475628946e+00 3.940998991357052716e+01
2.150291691254305704e+01 3.278838349631435722e+00 3.924755877744075860e+01
2.168702939292274223e+01 1.968479969157546305e+00 3.936189862408797779e+01
2.114384764587919818e+01 -4.350047251292880057e-01 3.813791193473928587e+01
2.144214798667841038e+01 5.378898148724337025e-01 3.868602367774892059e+01
2.015923662657040083e+01 9.450074018070836246e+00 3.961072541582908713e+01
