1.430933996885275006e+00 2.201375406315471572e+00 2.041271837646759835e+01
1.997524201840252589e+00 -3.974069136433425187e-02 2.023162932067953790e+01
2.152796803109004564e+00 5.787769151691560809e-01 2.037303401839463746e+01
2.216732530108248334e+00 1.226510252145231794e+00 2.049218270475410719e+01
2.304268629513488875e+00 -6.584941256933271037e-01 2.027308658106792549e+01
1.913557367949257015e+00 1.829411060176306947e+00 2.049667622633461761e+01
9.090171643851804317e-01 2.807168778571727419e+00 2.035348078815144746e+01
-1.106922903273315772e-01 3.360605692412051315e+00 2.034511617551931550e+01
-5.667610673482746941e-01 3.572322004283676300e+00 2.037043299043252276e+01
4.887719612321504425e-01 3.094423203105148179e+00 2.035920279903431407e+01
2.798862946244763172e+00 -1.196230555274415686e+00 2.037818076214333018e+01
2.074682768886122908e+00 2.362478404947693456e+00 2.062659813100781747e+01
-7.441467820684241063e-01 4.068115757678529398e+00 2.047309497495056618e+01
2.696831613800234617e+00 6.499508110095292279e-01 2.054370265298054221e+01
2.541952120081093724e+00 3.142110623232055588e-02 2.040241265803897264e+01
2.463356733331523163e+00 1.815577972785642924e+00 2.065586048023883592e+01
9.089799840945343989e-01 3.404911413835579381e+00 2.044615199844346876e+01
1.686048761611258939e+00 2.909227313285439820e+00 2.059732917851825817e+01
3.993742664938216280e-01 3.681606358597954376e+00 2.044199647591899804e+01
-1.768016275574228191e-01 3.922260593883633462e+00 2.046794980910865647e+01
2.852096125302411522e+00 1.268458583141864215e+00 2.068511748089002111e+01
2.980541088286269957e+00 -5.069124925435299911e-01 2.049045700902933476e+01
1.297479100317097123e+00 3.455817507041069714e+00 2.056805633259763866e+01
3.333526173680885218e-01 4.243109728236545308e+00 2.056477933276863013e+01
3.496119111507861810e+00 -9.652732387613125464e-01 2.060846371382421793e+01
3.240913375203378965e+00 7.210664227067022924e-01 2.071436905259400874e+01
3.085877744458506822e+00 1.025081806040883392e-01 2.057302093654934794e+01
2.787040447397791887e+00 2.530450241066905193e+00 2.075099250433772369e+01
3.163086774071234064e+00 1.867331384949019402e+00 2.077118421042291274e+01
-2.432434093806275788e-01 4.483880362652533869e+00 2.059078039394328385e+01
9.089513398594503135e-01 4.002296642734886944e+00 2.053877842186947689e+01
2.306196351561623281e+00 2.900252951047454619e+00 2.069624847515041210e+01
2.095703780992824949e+00 3.546459469727424541e+00 2.070157567456304193e+01
3.452229950282379445e+00 1.333072054679089513e+00 2.078523454886617117e+01
5.806756349103107118e-01 4.567304727493012528e+00 2.065211921251758653e+01
3.562969689686212416e+00 -3.958410853192666501e-01 2.067602308499370878e+01
1.502298202088880208e+00 3.774398218092489099e+00 2.062017910658882869e+01
-8.198377349731644781e-01 4.724608331937009353e+00 2.061678101407949981e+01
1.412409837427476278e+00 4.338088353396376107e+00 2.068155916881390866e+01
3.840272882317037340e+00 7.883211994191461347e-01 2.081450204811165605e+01
3.629820205344056028e+00 1.735900000000001331e-01 2.074361478810607551e+01
2.689191135498524510e+00 3.318472706365585889e+00 2.078296944396969437e+01
2.514102507796659447e-01 5.132251069267378618e+00 2.076545373180367449e+01
-4.488966514248642903e-01 5.210963510372162766e+00 2.074780945400944532e+01
9.694655329337424909e-01 4.630925546690047412e+00 2.068332969012903533e+01
3.871333104082620213e+00 -7.396152678773204592e-01 2.077425891334089414e+01
1.919576584402441277e+00 4.101742523386771033e+00 2.074534482070263408e+01
3.721947475542563222e+00 1.824487693373913588e+00 2.085818573920609253e+01
3.283008092827361057e+00 3.090343130118249793e+00 2.086439174535402330e+01
3.702049173527493853e+00 2.431557908822553404e+00 2.089171795420591238e+01
1.029984762552554445e+00 5.259524830638455661e+00 2.082787431729244787e+01
2.554584515282504409e+00 4.164332503026053622e+00 2.087514508065326169e+01
4.050726263611654332e+00 1.403020839283177112e+00 2.088539494864352974e+01
-7.795789097715602467e-02 5.697315948406176389e+00 2.087881703675321887e+01
1.472916101947795875e+00 4.966716543328077549e+00 2.082611776157374806e+01
3.976977080352396943e+00 -2.864836991033228308e-01 2.084892757417070897e+01
4.257499490316174473e+00 7.281580330208226037e-02 2.092489014175411199e+01
3.080610181357212873e+00 3.631405926227417424e+00 2.090118461399247707e+01
3.877378628071228128e+00 2.861987615550422248e+00 2.094586985327615025e+01
1.915895594004763502e+00 4.673885942692414197e+00 2.082435441908740259e+01
5.918189715078790991e-01 5.968451639692405664e+00 2.096900646679909741e+01
4.261363479193012616e+00 2.018068299596374793e+00 2.095635557180652242e+01
4.698828840236509485e+00 7.806087560305747797e-01 2.106446075454311639e+01
3.668739698330991228e+00 3.471663045477446197e+00 2.099104150230963484e+01
1.090162382607005709e+00 5.888933110528432380e+00 2.097260482633756240e+01
4.324433537045665688e+00 -7.468855247821629684e-01 2.095435660278889856e+01
2.419999473009462054e+00 5.010082807888181833e+00 2.096733166016095495e+01
4.591810050005824984e+00 1.540205640289445954e+00 2.104513953193212572e+01
3.372377277219428482e+00 4.048861287302139012e+00 2.101497219765366609e+01
4.472176893870394743e+00 2.633458834523956238e+00 2.102738175615686700e+01
4.263345973640396913e+00 3.243184235221011402e+00 2.107253508353672800e+01
1.472840212808033344e+00 5.576354175393619883e+00 2.095812940674457892e+01
1.925383467564599549e+00 5.381534224463707439e+00 2.097893401189720919e+01
4.605207713060318397e+00 -3.874769678288555452e-01 2.103036142796096897e+01
4.886002265773101705e+00 -2.806905093276701457e-02 2.110637422335036106e+01
9.691915271265699738e-02 6.420767013139583312e+00 2.104974982246616477e+01
-4.074385002628362340e-01 6.262522595586603735e+00 2.099221286040135226e+01
1.150273985018784195e+00 6.518162080604107622e+00 2.111729367215927056e+01
3.114261232836374571e+00 4.677503776190817142e+00 2.105336591139440117e+01
4.806166184227717686e+00 2.061013665257023675e+00 2.111570351625947239e+01
5.253275008833932169e+00 3.925579814459569938e-01 2.121987907670190765e+01
5.140185577371218173e+00 1.488399513872820545e+00 2.120403423235565299e+01
4.054497543525100056e+00 3.852978777346304451e+00 2.111770303828224726e+01
1.828030674745030781e+00 6.204312517238069091e+00 2.114356742365610486e+01
3.845590050351910261e+00 4.462970144417864660e+00 2.116289421172799834e+01
4.746774713572596838e+00 3.081115312323347233e+00 2.122236272108063204e+01
4.526721111458245517e+00 3.606466508013232541e+00 2.124613877206792623e+01
5.027710884916396950e+00 2.431817929276949286e+00 2.127908445333546794e+01
6.242182496504418143e-01 6.780055177545755818e+00 2.115368244845721080e+01
-2.472926940635716830e-01 6.774275987801905430e+00 2.111470154907400953e+01
2.434302969048232956e+00 5.770092030816371675e+00 2.113393252160384250e+01
2.924088344429605968e+00 5.346253062678305135e+00 2.111031047568206631e+01
5.474376915573032854e+00 9.154434612612274424e-01 2.129240934025904863e+01
9.815679840775529130e-02 7.041913580700163600e+00 2.119007180743974317e+01
1.613742750257477265e+00 6.809919476898471657e+00 2.124489394312025681e+01
3.636657572016078976e+00 5.073064958050124140e+00 2.120810119165883023e+01
5.299771961736142956e+00 1.913258784399869405e+00 2.134367747705847407e+01
4.544052306024298993e+00 4.295666054869024642e+00 2.139308875628715612e+01
1.210347075670765715e+00 7.146962221027484574e+00 2.126188329348666528e+01
3.428028872180621356e+00 5.682302924576441150e+00 2.125325180657245028e+01
5.807069706858690061e+00 1.471990646469322872e+00 2.153745139654716212e+01
5.302128460797528753e+00 2.879366485290669520e+00 2.147387426470561067e+01
5.021178879869427014e+00 3.528275745908667549e+00 2.141717195038856048e+01
5.583146196835090613e+00 2.230296019149067721e+00 2.153059192564654012e+01
2.565515496002697127e+00 6.519694295921203420e+00 2.131455290906057343e+01
2.996683247517754722e+00 6.101059347872020311e+00 2.128391171950637073e+01
2.134331620470477198e+00 6.938381453330596749e+00 2.134518839767980580e+01
6.139823598013783856e-01 7.300685298539644208e+00 2.127080715769188046e+01
4.118673293514440559e+00 4.824119640435925227e+00 2.133981996643202805e+01
1.702839412776112393e+00 7.356958850320508780e+00 2.137580656768570009e+01
3.962995906615943920e+00 5.367697858005310962e+00 2.139166699608743372e+01
5.295686564471208335e+00 3.975393039777882720e+00 2.161200416554071779e+01
1.270397299358411169e+00 7.775509986392356687e+00 2.140641402387916159e+01
4.498174113035901200e+00 5.053075890607471976e+00 2.153007082852148457e+01
3.912405862977485604e+00 6.079443864293016198e+00 2.149364895401273756e+01
6.140018655928086488e+00 2.028378375927013089e+00 2.178254247445861935e+01
5.033839381027811477e+00 4.738325055680298270e+00 2.166851043277750577e+01
5.576947275992196751e+00 3.327005992772073206e+00 2.166884390250957892e+01
5.858290382111844607e+00 2.677705291202773008e+00 2.172560110574163517e+01
2.972666026849291931e+00 6.691830710263106496e+00 2.144213933299293728e+01
3.373974287552546247e+00 6.348821257593387557e+00 2.142647814421933461e+01
2.204072926461329462e+00 7.424703483707231655e+00 2.149303611026452643e+01
2.712937043671475923e+00 7.207235345380968994e+00 2.153319331353187494e+01
5.570722748748321962e+00 4.423102224291240780e+00 2.180713588284973881e+01
1.917898044770941945e+00 7.966706945304964371e+00 2.158624426855637068e+01
4.547371519241560911e+00 5.750143359838771673e+00 2.166530342727896041e+01
3.818131616007207629e+00 6.608226660022842758e+00 2.161744957112112431e+01
6.511818042649895943e+00 1.141028208650380016e+00 2.184567932702712767e+01
6.415381728848974952e+00 2.475482053400152704e+00 2.197743480429219787e+01
5.851933332118861131e+00 3.774597670023058793e+00 2.186383702385786520e+01
3.319924829530040977e+00 7.015377921280801843e+00 2.159971082712696600e+01
1.375221331051599050e+00 8.372961665642419504e+00 2.162925065642960121e+01
4.912379681988940483e+00 5.283501535054271336e+00 2.171709776601006681e+01
6.696819309945665211e+00 1.826679211244322865e+00 2.203416583286148622e+01
6.020199514053575562e+00 4.241463351426007833e+00 2.206268032791587430e+01
5.398743213129335139e+00 5.035612300453586876e+00 2.184909556127018604e+01
6.133634206924063470e+00 3.125056354797520530e+00 2.192063406449181073e+01
2.565115660685112431e+00 8.158216666356128854e+00 2.176639118130004746e+01
4.397464429783094708e+00 6.477033389949254705e+00 2.173433609163592450e+01
6.922037094074772412e+00 2.450219509078913394e+00 2.229934648670914399e+01
5.861977281146816487e+00 4.954231025123879029e+00 2.209667206311482701e+01
3.265833155562769541e+00 7.682552106370176936e+00 2.177309981984820908e+01
2.076639568142125469e+00 8.651281998110306404e+00 2.184841599026992043e+01
5.054559815287455571e+00 6.261862520290990552e+00 2.193306561117488229e+01
5.226665560295090884e+00 5.648618430334277463e+00 2.189107818512422909e+01
3.892213084285120583e+00 7.129316928113384577e+00 2.178379131378775924e+01
7.032952111081169910e+00 1.215878374026950537e+00 2.219249633483273954e+01
6.470590058236732389e+00 4.059747755281288839e+00 2.231833755192974067e+01
6.539652321856025630e+00 3.380621754612419316e+00 2.223201460970940246e+01
1.480184975982289597e+00 8.971223046773234344e+00 2.185238367376916102e+01
7.135922263785698938e+00 1.696010628296414247e+00 2.237546532315827719e+01
6.395677781997055611e+00 4.803033124465796000e+00 2.241188405572806630e+01
5.578791813504038188e+00 5.772179383684818532e+00 2.212207613121231020e+01
3.211759110090392610e+00 8.349612742037971103e+00 2.194645486299032200e+01
4.882645493687629568e+00 6.874556977023813964e+00 2.197500411728175607e+01
4.464707652890266054e+00 7.243257817786468600e+00 2.196788281231679818e+01
7.418759349575604567e+00 2.475710775841182265e+00 2.270716451415310999e+01
6.153766466319739337e+00 5.485377176826038870e+00 2.238627501656510788e+01
7.147924835855761216e+00 3.073373789934205291e+00 2.256452583645726406e+01
3.629292032174679328e+00 7.980814548676637088e+00 2.195360737161558262e+01
1.943980793735957446e+00 9.193316620969058661e+00 2.201031927366285856e+01
2.831529231394849688e+00 8.804258888339157707e+00 2.203448814465859584e+01
5.402557108067549407e+00 6.588760174481910425e+00 2.220857104701019935e+01
7.576330516829515638e+00 1.565237096725339283e+00 2.271704316794136247e+01
7.693249845574260171e+00 1.019581644643345886e+00 2.270496772468814939e+01
7.369408053337762610e+00 6.047402789699818371e-01 2.235096029266730611e+01
7.746001375161963409e+00 2.033306392155815434e+00 2.291600525745501216e+01
6.922526650827789396e+00 3.877814595778106721e+00 2.257430603331919983e+01
6.742403534912873475e+00 4.402138374800714793e+00 2.255847802113162714e+01
4.046954364331429410e+00 7.612004501291923297e+00 2.196075067467035069e+01
2.451493238226785110e+00 9.258718114310244829e+00 2.212247618874965482e+01
5.923793717285439797e+00 6.302720873009032054e+00 2.244233359693468088e+01
3.224584951329825699e+00 8.895007884352082783e+00 2.216579677083178979e+01
3.688052811461526304e+00 8.588281378722722792e+00 2.219313140240764426e+01
1.585076571029533588e+00 9.569092042308351864e+00 2.207536459706892273e+01
5.181620428560414382e+00 7.203975004652448000e+00 2.226087153466921720e+01
4.822321877968184012e+00 7.422332143768302970e+00 2.215293487185122956e+01
7.879679452621203062e+00 4.789604012761486951e-01 2.275199074897870233e+01
7.915630914270637142e+00 2.501188907174434650e+00 2.311498244654163159e+01
7.644793538046990022e+00 3.098895045318010411e+00 2.297231309189758264e+01
7.142404357809421178e+00 4.275790272157613536e+00 2.279135104698077541e+01
6.910338196808430311e+00 4.856308203438095106e+00 2.275290465551359631e+01
6.678195207106865539e+00 5.436970947371960072e+00 2.271444665675679531e+01
6.446449397052204766e+00 6.016738240892431477e+00 2.267604575339586148e+01
7.374049999999999550e+00 3.696274559441668384e+00 2.282972746086179328e+01
4.165345792982968476e+00 8.249316414352165339e+00 2.223115142660770616e+01
3.237405690619809207e+00 9.440312257947800489e+00 2.238508868204542424e+01
5.702152352832429827e+00 6.918311630695184178e+00 2.249458046843077597e+01
8.017316279366815124e+00 1.434321077929820998e+00 2.305899617775761001e+01
7.706580613327312257e+00 -7.375532533065665142e-03 2.250974211167839911e+01
4.762020826421321296e+00 7.970035340705533322e+00 2.233083376491273597e+01
4.164489861888888811e+00 8.826975590742932809e+00 2.243983952420349226e+01
2.070901427426860675e+00 9.712700355851790590e+00 2.221036332173145311e+01
5.481115466943358605e+00 7.533686484686437090e+00 2.254701578278695706e+01
8.186987149907672290e+00 1.902191633789398706e+00 2.325795919769144859e+01
8.319773775529473170e+00 6.627038297983338655e-01 2.315644728280116738e+01
7.329804207881959854e+00 4.725552184198190453e+00 2.307577139354352624e+01
6.999465201796978953e+00 5.953752532779772899e+00 2.313197445841839794e+01
6.224411628375412953e+00 6.631732202743016558e+00 2.272828365684532770e+01
2.661000593563824790e+00 9.849404991566750311e+00 2.240745185907801584e+01
6.002213687326723779e+00 7.247844049181017212e+00 2.278059615981554842e+01
8.358638699448917464e+00 2.448103458530564769e+00 2.354269046326163561e+01
8.087646297382638849e+00 3.045905181416370677e+00 2.339988723624533051e+01
7.816682346323342578e+00 3.643481044429018212e+00 2.325712551966994113e+01
7.557002301708184433e+00 4.228880005146839594e+00 2.313316640341550112e+01
7.311030315161303861e+00 5.293645280177271317e+00 2.321644387384626995e+01
6.588125517266696818e+00 6.499663345429488537e+00 2.295550000686807124e+01
4.701731071349267488e+00 8.517754114425981626e+00 2.250872834879879747e+01
3.703020635473039501e+00 9.224765546899352131e+00 2.244911316920266131e+01
3.250236690355206459e+00 9.986184463611404993e+00 2.260459510307717679e+01
5.400392394526568829e+00 8.263786240081742562e+00 2.278414623931832139e+01
8.458149535296977106e+00 1.303439921874590901e+00 2.340086676301969248e+01
8.181445134078076720e+00 2.207611884272941971e-02 2.291217011760789646e+01
4.641414213908067410e+00 9.065845259095409503e+00 2.268673491619803428e+01
5.780595266452969838e+00 7.862962822761004666e+00 2.283280307559177658e+01
8.629991610168382010e+00 1.849588421311196385e+00 2.368576740835369066e+01
8.530499967107621373e+00 2.992915367007072724e+00 2.382745688580568810e+01
8.043060081131702788e+00 -6.179300179983534536e-01 2.266818331849728096e+01
8.603711189634969614e+00 1.091901684929897920e-01 2.338561022387714772e+01
7.739999434855645788e+00 4.761571206961818348e+00 2.343670576777607906e+01
7.210539885952513828e+00 6.492029698545775496e+00 2.348882613893966465e+01
6.730044267000719671e+00 6.983225036158652088e+00 2.323518876839091618e+01
7.552678758765494216e+00 5.890758615829716938e+00 2.358761125053070273e+01
7.999676886045548940e+00 4.176161246770170088e+00 2.356062155488161025e+01
3.722143948357353960e+00 1.004335662691924469e+01 2.277826788986376982e+01
4.181652160123301876e+00 9.554622756343199796e+00 2.273251137087743246e+01
5.020641508161130417e+00 8.664865930768410607e+00 2.273544204803771507e+01
6.190786792559829443e+00 7.892078410984870729e+00 2.315341416819362763e+01
8.742038206014891344e+00 7.499769382791211525e-01 2.362991056430853831e+01
8.259353303424223469e+00 3.590684213950744219e+00 2.368455565994866063e+01
8.801645427874888128e+00 2.395016746832986154e+00 2.397039200511505896e+01
8.896422272848287349e+00 1.265403149797402094e+00 2.388835554919657511e+01
8.430710587257028266e+00 -6.908382433542179513e-01 2.308035126998565900e+01
6.479155732390581512e+00 7.502174937668712573e+00 2.323153512335975179e+01
5.822317573077389063e+00 8.487027531580556783e+00 2.313847356359318752e+01
9.068214211536488989e+00 1.811280186077606214e+00 2.417314398500471739e+01
7.923084664794897591e+00 5.294479644327033441e+00 2.374041826662745791e+01
8.182944960640899268e+00 4.708663059550942442e+00 2.386438524626882440e+01
8.442520471920493819e+00 4.123288769117119834e+00 2.398820366614247845e+01
8.373804439189516557e+00 -1.132043778879053608e+00 2.294768120640669196e+01
4.632961213602611927e+00 9.613558470848115434e+00 2.295668250463928928e+01
5.442081156872711212e+00 8.887912398402489700e+00 2.308971761771106301e+01
8.702062872196195897e+00 3.537884286161971481e+00 2.411201763859790148e+01
9.025978806040853897e+00 1.963025899104767769e-01 2.385904926714327345e+01
9.180380126492510229e+00 7.118509737200297005e-01 2.411747301031681090e+01
8.973298297287911396e+00 2.940335672874618833e+00 2.425505225669651921e+01
8.922074035339640830e+00 -2.837214657054636380e-01 2.367576838159708075e+01
7.136025589379054068e+00 7.015085228334330125e+00 2.359482062412694603e+01
7.833171327894438818e+00 6.358466200275110225e+00 2.398100697350480459e+01
6.871890721392230006e+00 7.466518639259877688e+00 2.351438345188428158e+01
7.951579955853739889e+00 -1.289210463064066392e+00 2.263616450865214702e+01
8.818168820762128490e+00 -7.637465329858029728e-01 2.349251673612856450e+01
5.062485907957163356e+00 9.288801965517937020e+00 2.304094545748167278e+01
4.169040207479106641e+00 1.037588549564503815e+01 2.313723969888187071e+01
6.601945112858448539e+00 7.921192029734536177e+00 2.347345515752840939e+01
9.239504105955099078e+00 2.356882432522896753e+00 2.445769064164723972e+01
9.334782890396059685e+00 1.227351362774517618e+00 2.437594023619461581e+01
9.505542755497923935e+00 1.773429006827776488e+00 2.466052670337000663e+01
8.366144351581262129e+00 5.241659186942933424e+00 2.416823030200311351e+01
8.106299953965320881e+00 5.827728366535709803e+00 2.404333733044709476e+01
7.560385200294896357e+00 6.888519889979053623e+00 2.391873035957822324e+01
9.205629866455213417e+00 -8.366548481736060250e-01 2.390468578315765313e+01
9.309578296190125002e+00 -3.567070454405989466e-01 2.408796381613158388e+01
8.704492520872024741e+00 -1.646097045485400923e+00 2.322720408458855346e+01
8.269389372159086093e+00 -1.649461512116580320e+00 2.289740924529482058e+01
4.624528596876449349e+00 1.016098614809711087e+01 2.322648119966661540e+01
3.710943214545301849e+00 1.077313281880513962e+01 2.313787061782691623e+01
6.232383576267978675e+00 8.516201555076062135e+00 2.345902490126955442e+01
8.885077765160305674e+00 4.070418754555718444e+00 2.441577910499071180e+01
9.464082216272307946e+00 1.585855500482654667e-01 2.434641458279474335e+01
9.409181995554924072e+00 2.902373601174874640e+00 2.474227384521500994e+01
9.772009444163487046e+00 1.189272772347281792e+00 2.486378438193724705e+01
9.143140725436179395e+00 3.485083282855899078e+00 2.453950062416584643e+01
7.287021199283322481e+00 7.419677210296452330e+00 2.385629727104857523e+01
8.625891638910307080e+00 4.655758023050871941e+00 2.429206075455008573e+01
9.120440693753236516e+00 -1.498462709862717013e+00 2.370577181492101815e+01
7.860226725677549986e+00 -1.960741392063691801e+00 2.260418812048261117e+01
8.502645988175419944e+00 -2.146239306168193028e+00 2.310210834793610957e+01
5.052680838000672914e+00 9.927718800397848042e+00 2.335593408938234106e+01
5.484177781207251634e+00 9.511961240614644097e+00 2.339548731321462327e+01
5.864074515900774998e+00 9.111308224893981844e+00 2.344424442204399384e+01
6.643546188119969997e+00 8.545379538650989204e+00 2.377921184362791251e+01
9.675303271568445496e+00 2.319376000496856882e+00 2.494514761333135411e+01
9.618584383307052121e+00 6.738782657822428579e-01 2.460490371647187047e+01
8.235871772854993722e+00 6.395313526659470504e+00 2.435504153348543710e+01
7.978964477112787890e+00 6.838024825179299881e+00 2.427695381148343401e+01
7.013899988331095514e+00 7.950347060460845050e+00 2.379389641215033890e+01
9.517429943635823619e+00 -1.497854879170384734e+00 2.414011988067050396e+01
8.300882749329199228e+00 -2.646381554173331985e+00 2.297703180068431195e+01
4.616107431973232700e+00 1.070859760608275657e+01 2.349636220168753198e+01
4.159082856590095467e+00 1.101459151208634601e+01 2.345191844898162969e+01
9.902202903623127384e+00 1.203590350720451507e-01 2.483392181515066000e+01
9.941657402579721747e+00 1.735710657292608650e+00 2.514823761851114270e+01
9.548039130239226679e+00 3.586067375231951182e+00 2.499370940278183539e+01
8.739338104916461347e+00 5.190987406325404230e+00 2.453111179921604901e+01
8.581279499994364457e+00 5.971145275723919177e+00 2.455376711579843629e+01
7.907181593577915280e+00 7.545872033756483077e+00 2.445626524506544897e+01
7.448959233722812101e+00 8.129033978815133565e+00 2.424584500402330178e+01
9.747677358269458026e+00 -3.948237707616387704e-01 2.457526321315531348e+01
9.593100000000001515e+00 -9.095649999999999569e-01 2.431686496457835389e+01
9.035159897449917210e+00 -2.160249409792059705e+00 2.350683900612416011e+01
8.833421625931540788e+00 -2.660562912829628424e+00 2.338177900232249229e+01
9.314057897458342339e+00 4.067635295613374780e+00 2.484823466362726307e+01
9.055908096590018275e+00 4.653005032593914514e+00 2.472455468986536076e+01
9.840896237583544703e+00 2.944903735290559599e+00 2.521694595103606673e+01
1.005510829892252112e+01 6.355558032239972954e-01 2.509262784344257113e+01
7.095290049653811160e+00 8.491472095630900441e+00 2.410086325386039618e+01
9.441756404574119799e+00 -2.086175634185575500e+00 2.396342803946714639e+01
5.472684197532697858e+00 1.024180171642338522e+01 2.375522143755545912e+01
5.905804777441470144e+00 9.734887102932336944e+00 2.374966681639771338e+01
5.039860729915301540e+00 1.074918996171803798e+01 2.376075790523999487e+01
6.273767795955571991e+00 9.140412975702091103e+00 2.376448840932221174e+01
1.020831758089464714e+01 1.151188675210222057e+00 2.535160032068007752e+01
9.139549084002094759e+00 5.362560215169691169e+00 2.497498598488714450e+01
8.365405798426058581e+00 6.962699494586825466e+00 2.466664727896415599e+01
9.861778998385034356e+00 -1.371968131318491491e+00 2.459852750092108664e+01
9.830939116653903298e+00 -2.037375375936813615e+00 2.446884881654457544e+01
4.607698929094272700e+00 1.125627891696380267e+01 2.376626983007657046e+01
9.485050482069679489e+00 4.650255299438109446e+00 2.515704617598065340e+01
1.016354461438654688e+01 -4.233149712057506786e-01 2.508933009259405011e+01
1.031665450165950659e+01 9.183145728040997824e-02 2.534822374897182229e+01
1.013383013209335104e+01 2.303489656243177031e+00 2.544030518726182777e+01
1.040043750532220024e+01 1.719670968507738262e+00 2.564365501841099615e+01
9.952940527004100701e+00 3.687032413059693869e+00 2.544784154693146050e+01
8.709446064133652854e+00 6.770014800403845179e+00 2.493958600884055699e+01
6.761592281267523319e+00 9.298274718788302806e+00 2.420996689488531572e+01
8.494939773240206549e+00 7.530057174459663827e+00 2.497824633844036768e+01
7.884074035940270342e+00 8.307744272252286066e+00 2.469784941906056019e+01
1.000898075939826093e+01 -9.384609354559392269e-01 2.483047488929863533e+01
9.366049998186314340e+00 -2.674750176012830494e+00 2.378671773137262591e+01
6.283310738154868069e+00 9.965054334551384230e+00 2.414425886712017899e+01
9.674866627718207823e+00 4.116345925931168992e+00 2.524398568556779665e+01
1.046989166435834306e+01 6.070581149563037959e-01 2.560712613455517683e+01
1.032551540270230817e+01 3.034131614326570858e+00 2.575582037802880819e+01
9.054471227497277397e+00 6.114490570047792950e+00 2.506392247785929683e+01
7.491497211888011876e+00 8.615921079555864281e+00 2.449568959614131458e+01
1.013043414216495641e+01 -1.834330208277817675e+00 2.488020743395349399e+01
9.800184242255042477e+00 -2.702897015074295695e+00 2.433933924373490498e+01
5.944136972647636519e+00 1.025399064928820714e+01 2.403194924743590732e+01
5.531658621714053758e+00 1.096410272191070057e+01 2.415108744011180875e+01
1.061952055258367977e+01 1.235195938936843874e+00 2.582950685575811889e+01
7.176636824321503738e+00 9.032285919548149522e+00 2.440765451696593757e+01
8.230767798966216020e+00 7.973489259970062193e+00 2.489387852589862149e+01
9.656345478311051167e+00 5.233760866253566846e+00 2.546636642955185081e+01
9.440948751333074540e+00 5.757228308254662252e+00 2.537113201859009237e+01
1.042474801534000761e+01 -9.673840025725125580e-01 2.534456172824156184e+01
1.022852526182247601e+01 -1.363853670206445212e+00 2.505525674877851472e+01
9.673529936434286824e+00 -3.058990851043563719e+00 2.414143607414748516e+01
9.004561114685447620e+00 -3.315535205585216083e+00 2.363998091123890433e+01
4.980047195757143719e+00 1.152481462835621429e+01 2.411493776053050908e+01
9.955533700913489881e+00 4.463126387618349789e+00 2.561872020908948144e+01
1.073128054939036780e+01 6.330381599460532804e-02 2.586252552143009353e+01
1.057793812519811816e+01 -4.520399875807992185e-01 2.560352410802697776e+01
1.059241314920177857e+01 2.287576040271135369e+00 2.593546814780349408e+01
1.076512061808000631e+01 1.753235743812201930e+00 2.606214173455537875e+01
1.035789877913780188e+01 3.787998237795763945e+00 2.590198706515311855e+01
9.215755071719797797e+00 6.823703320034080200e+00 2.545346555088217855e+01
8.937053267385371313e+00 7.531457740295601333e+00 2.541062251529965366e+01
7.788542379635146062e+00 9.029982673649746161e+00 2.493222664361980634e+01
1.023404891931428651e+01 -2.731027402565873174e+00 2.489161541949122380e+01
9.360016194536219913e+00 -3.260312485491799972e+00 2.389747958844150233e+01
6.291137111223533473e+00 1.042935544424860161e+01 2.437713099419942608e+01
5.982503310266534591e+00 1.077311491482881323e+01 2.431424007547864008e+01
1.090720348377979398e+01 6.368842829713519116e-01 2.611057042786853089e+01
1.103082607052882480e+01 1.319209295318115371e+00 2.630750651814384256e+01
1.061636860324545850e+01 3.372293265824340747e+00 2.612111534073284602e+01
9.526893253459869371e+00 6.257881227917871492e+00 2.557422009818404973e+01
7.258059136567020175e+00 9.573579873712812827e+00 2.471471841163532090e+01
8.624583474125554261e+00 8.097856707254601716e+00 2.529009832355098553e+01
8.319026249894022840e+00 8.486388142000869550e+00 2.514968271526137400e+01
9.827714262950493662e+00 5.817402316856078670e+00 2.577547129166776685e+01
1.058195458498204999e+01 -1.606417395479767807e+00 2.546711863000463794e+01
1.039912409360083068e+01 -2.296752190064846655e+00 2.516196426638731154e+01
6.661784682219818343e+00 1.019531616279069830e+01 2.453895366809317480e+01
9.353984759862616016e+00 -3.845688502985016299e+00 2.400824728763817006e+01
1.078434370076582027e+01 2.855212265747232969e+00 2.622719918615174706e+01
1.106326128829170408e+01 2.075564140891442033e+00 2.644256441058847784e+01
1.012012321554425753e+01 5.214467040493214967e+00 2.595719772712651263e+01
1.083956929134483183e+01 -9.963405330946754068e-01 2.585925205830209705e+01
1.026107058272999950e+01 -3.279001224519996427e+00 2.487103326594033703e+01
9.980811400062114203e+00 -3.442982992475305259e+00 2.449595850087073501e+01
5.352628930741747837e+00 1.179345951839355777e+01 2.446376028931506141e+01
6.020899508510045628e+00 1.129224569953406920e+01 2.459653080962977967e+01
1.044159586023320863e+01 4.551738988176869505e+00 2.615672783455039507e+01
1.099300116069142064e+01 -4.811403951284759506e-01 2.611830080009499966e+01
1.076300793681173396e+01 3.888992024489865695e+00 2.635626831608902165e+01
9.687912535889060095e+00 6.967260122482018758e+00 2.596351658193270140e+01
9.377051857817148672e+00 7.532862895068982212e+00 2.584299486724547990e+01
9.066129688626059391e+00 8.098859303928531261e+00 2.572235714163489462e+01
8.420984003062660150e+00 9.162565738361388767e+00 2.553351651323747973e+01
1.086443761685067244e+01 -2.181978744645697965e+00 2.575335493915000029e+01
1.066779952885229754e+01 -2.759150030178933122e+00 2.544374428585682679e+01
7.647361313528980631e+00 9.701484984772255515e+00 2.510514520226673341e+01
6.529865370538352032e+00 1.085905163212822799e+01 2.476549988582384287e+01
1.105925731836067705e+01 -1.604080262875500207e+00 2.606340946890623655e+01
1.116875719334445627e+01 9.278610230210571075e-02 2.636615187808478211e+01
1.097622517309419976e+01 3.422586828967485673e+00 2.651884909278158986e+01
1.144163831281345267e+01 1.403117911012259800e+00 2.678491538079292411e+01
9.999144704092920222e+00 6.401162571706203508e+00 2.608410909466153171e+01
1.029135624355868117e+01 5.798579017096720634e+00 2.626654483166804965e+01
8.754099939311389633e+00 8.665083356469999387e+00 2.560164022151040442e+01
8.087424645632271591e+00 9.660707050254593753e+00 2.546526881902746098e+01
7.339507512213366169e+00 1.011502144639545797e+01 2.502186630003290091e+01
7.041609790666243818e+00 1.042587604156037351e+01 2.493417256794628045e+01
1.063160000000000238e+01 -3.484259020011772012e+00 2.532438479867197501e+01
1.138818500482068963e+01 7.096890112733884592e-01 2.666750394683659664e+01
1.127742463039908216e+01 2.757436183987812317e+00 2.677433776432064150e+01
1.058393509676120203e+01 5.195166609897866827e+00 2.644803620015866485e+01
1.125458465639810512e+01 -1.025299999999999878e+00 2.637399128843411944e+01
6.059313144705105181e+00 1.181124606380689990e+01 2.487874672242199026e+01
6.536767148561426488e+00 1.177238664204053897e+01 2.521714705106785104e+01
1.130645183194916825e+01 -2.182941732725049988e+00 2.632922959488624315e+01
1.096120679640003104e+01 -3.185021028070055493e+00 2.580185736078227876e+01
1.105112315520701927e+01 -2.792262670316626227e+00 2.593815438125650985e+01
1.087610044594505254e+01 4.592517177900583114e+00 2.662931449961913088e+01
1.145626213859023323e+01 -5.059184143111676857e-01 2.664710043748809554e+01
1.144187109804182079e+01 3.385439143449208821e+00 2.704268254292001217e+01
1.155109968829293443e+01 2.152616083446059037e+00 2.700651367363318300e+01
1.169576107171016055e+01 1.012527210648095588e+00 2.704438882348277673e+01
1.116814929579386728e+01 3.989985741293895050e+00 2.681056238861365415e+01
1.011261846369089668e+01 6.957204836104329715e+00 2.635135065298386792e+01
9.816570303596371616e+00 7.437418913484576954e+00 2.621953193865343579e+01
9.340226303699479260e+00 8.343928149616182566e+00 2.604631856526676259e+01
8.828749055738452256e+00 9.199956885492463599e+00 2.588004991091482410e+01
1.149081481168484409e+01 -1.491751823718540093e+00 2.663642849079169039e+01
7.754154478735072686e+00 1.015840899549212395e+01 2.539704651283165049e+01
5.725207166417114912e+00 1.206202633985741279e+01 2.481249217702623966e+01
5.160382759791716900e+00 1.227903742410910404e+01 2.463155547837994419e+01
6.978111680995535693e+00 1.121412287649121353e+01 2.527319006105916444e+01
7.420900000000000496e+00 1.065608192086460271e+01 2.532879574963253333e+01
1.165825676164506319e+01 1.421318006804794809e-02 2.692061655120327046e+01
1.185238294788560331e+01 1.487009264847208634e+00 2.726223348709724448e+01
1.041193389326944896e+01 6.589743248733614500e+00 2.653400793773169752e+01
9.139999283137489883e+00 8.879740365317816853e+00 2.601923627670014483e+01
8.515731427364153561e+00 9.617081947249902285e+00 2.579552488861835613e+01
6.097767815454849583e+00 1.233047709502226930e+01 2.516108304636236781e+01
5.593045162079926413e+00 1.279857039677937891e+01 2.515229965725078642e+01
5.043183544729900269e+00 1.278544380510852285e+01 2.485102751595720605e+01
1.143452474329453139e+01 -2.825193455545481402e+00 2.643368703125718966e+01
1.171554282324700402e+01 2.780790755650299761e+00 2.727481998527358442e+01
1.185989446752289389e+01 5.333700941142074381e-01 2.719363407084727413e+01
1.070429963091734038e+01 5.986819913072555011e+00 2.671567201968294114e+01
9.718883550848570252e+00 7.992821114095033153e+00 2.629216081783622627e+01
1.103793459629254237e+01 5.022043732711061637e+00 2.687132932664039231e+01
1.166091015010360010e+01 -9.658069002255262880e-01 2.685191318519777681e+01
8.001894873421282028e+00 1.041880243430116515e+01 2.570433363211594013e+01
7.461463818294419070e+00 1.116851203014743454e+01 2.563013024570103937e+01
7.502005683959463767e+00 1.168064843532879493e+01 2.593090995279117195e+01
7.776936741993823787e+00 1.089983557488624477e+01 2.571720279612726401e+01
1.181559866180391261e+01 -4.908970973107938951e-01 2.706697469251504273e+01
1.172741697651413695e+01 -1.958930067622873361e+00 2.689931402896204560e+01
1.131719699986359373e+01 4.549380474851916212e+00 2.706381220953664268e+01
1.160049862291769784e+01 4.150212854844637533e+00 2.728249738877699215e+01
1.198922022539181675e+01 2.175880166348004519e+00 2.750701961083879254e+01
1.206140387859527330e+01 1.052154365733089847e+00 2.746646853778293362e+01
1.108526177095355258e+01 5.547677288470675094e+00 2.701631988823191932e+01
1.022603073305668531e+01 7.512696686095763354e+00 2.661834851538809943e+01
1.048638430455151216e+01 7.090433338835565813e+00 2.674803239577166991e+01
9.614323826775216020e+00 8.588974422834414923e+00 2.637027624639119594e+01
8.903457730677391879e+00 9.735205859375220427e+00 2.615865091721936508e+01
9.181192747054657488e+00 9.360430264722600313e+00 2.624719558793529117e+01
8.441211426136911555e+00 1.016836305880199554e+01 2.595937478413103250e+01
6.955365686923667745e+00 1.214533875928030149e+01 2.574321298025805049e+01
6.411391468410605476e+00 1.261005173742160324e+01 2.555548105241562951e+01
8.133068971336285813e+00 1.114363772467306646e+01 2.610533800425734086e+01
1.211615805216690234e+01 -2.045823563337521023e-01 2.743820921801847845e+01
1.162654838688615477e+01 -2.430679224383581083e+00 2.672219901033421507e+01
1.192830078955715756e+01 3.565597869382278517e+00 2.757365403194265951e+01
1.082467118131896910e+01 6.778269746211666558e+00 2.698330463588742845e+01
1.122005890274795803e+01 6.223262463167992031e+00 2.727689281014552947e+01
9.525702978390988562e+00 9.094269508170764738e+00 2.643661748861383742e+01
1.189993802793460809e+01 -1.455678225248871360e+00 2.711693242008538718e+01
6.096225482666556950e+00 1.290741083763209929e+01 2.553323900426774529e+01
8.016088730921946848e+00 1.179019538406585710e+01 2.636279632571202924e+01
8.193019172985490428e+00 1.067759562695173692e+01 2.596486289754807686e+01
1.234222280992466736e+01 4.196498053478149304e-01 2.774735999366833283e+01
1.206687285366752960e+01 -9.063692765181696753e-01 2.732939677434812609e+01
1.226289183232663937e+01 1.570849635969232327e+00 2.773926922618577606e+01
1.227200497629632103e+01 2.885873397258061246e+00 2.787273241817501912e+01
9.976889960286932535e+00 8.328701115819482581e+00 2.662788001540449656e+01
1.146622428751578404e+01 5.108509221060765881e+00 2.731701570272248958e+01
5.560388724546107220e+00 1.329678092809229817e+01 2.545417134806096371e+01
1.208779005061660250e+01 -1.948595249732958834e+00 2.732192618185478494e+01
1.174956550465014260e+01 4.709547506436372544e+00 2.753575344342639752e+01
1.161544819363501446e+01 5.668219331705831365e+00 2.757054125773727904e+01
1.078837263531205082e+01 7.517576568579573681e+00 2.715885183830483740e+01
1.033954478504937136e+01 8.068433297630329903e+00 2.688547827372664401e+01
1.003381621309383398e+01 8.926802850486820873e+00 2.685520207981719309e+01
8.978247783850267894e+00 1.027099298519249615e+01 2.643741094281924120e+01
9.444642027640924198e+00 9.789784176529629178e+00 2.664557481631493729e+01
8.555658943057164123e+00 1.070731069400832070e+01 2.627138723632102568e+01
6.725226940870470571e+00 1.288978717801473550e+01 2.595011720255768140e+01
6.094878401618738728e+00 1.348439262852640397e+01 2.590542121628590877e+01
8.489636876142608202e+00 1.138772215158966361e+01 2.649394817304359151e+01
7.542550253594483500e+00 1.219269341398573303e+01 2.623163007033391736e+01
1.259741783670272852e+01 -1.551174889688807790e-01 2.800267493032169597e+01
1.247287844615027197e+01 -8.469259597753734381e-01 2.780692260601755095e+01
1.234709766823439026e+01 -1.503495285165539874e+00 2.763942372549928805e+01
1.244080517942013664e+01 2.107513333901883001e+00 2.797779850666138657e+01
1.251807859593072259e+01 9.960777508572719041e-01 2.799449867424266714e+01
1.203290575919114147e+01 4.310457967300649784e+00 2.775449690813294268e+01
1.245576979834351050e+01 3.746573086179974865e+00 2.814806788817285366e+01
1.123725676115844330e+01 6.966699849649073961e+00 2.743211454104918445e+01
1.176451116113974571e+01 6.227197014959175547e+00 2.782378133714753332e+01
9.910847008938555192e+00 9.308575626947375170e+00 2.685359471861313096e+01
7.162161943812252574e+00 1.260576328877046670e+01 2.614755656403891848e+01
5.527828577993743053e+00 1.379498608961621464e+01 2.575603597819303658e+01
8.393102496963756209e+00 1.182991003705094357e+01 2.665801186403047041e+01
1.279666149791176899e+01 3.180754934268084977e+00 2.845492637419247117e+01
1.277326609937087376e+01 4.213104872506735488e-01 2.824978115492943687e+01
1.154186528557074354e+01 6.651444634183807381e+00 2.767915521766052933e+01
1.045334410961594251e+01 8.625308120968719905e+00 2.715291374878443165e+01
1.182917848982499187e+01 5.221453053160202806e+00 2.770932234483912993e+01
9.052933899088440484e+00 1.080599421988372022e+01 2.671523268000257900e+01
8.100239100138153958e+00 1.230617493392506567e+01 2.669733272782778499e+01
1.287836954844697246e+01 -7.875597128123030810e-01 2.828383753609668716e+01
1.269067216019160860e+01 -1.243144357842344006e+00 2.804997238343031896e+01
1.270440186984444431e+01 1.701304975317567747e+00 2.822333886256403090e+01
1.213662998748271349e+01 4.940250739311220052e+00 2.797393176852593655e+01
1.261872788548551405e+01 2.644178420354129866e+00 2.821635022177020247e+01
1.217802905817636727e+01 5.680549001179617363e+00 2.814937230854734906e+01
1.085455700301824322e+01 8.309959253483954811e+00 2.744759024531551361e+01
1.029571114595707115e+01 9.522850516881478100e+00 2.727012247195857952e+01
9.489701012389632595e+00 1.043179071843869998e+01 2.694073911265251553e+01
9.926467216891229128e+00 1.005759124138711336e+01 2.716622581288611471e+01
7.039048979587439803e+00 1.316948555889063144e+01 2.634470737563265530e+01
6.601928613806679280e+00 1.340088132581177582e+01 2.619686599851494435e+01
6.093665598929829841e+00 1.406199035231996852e+01 2.627799587380439306e+01
8.845714723556795889e+00 1.163145715519476830e+01 2.688202434151036258e+01
7.583476905086544484e+00 1.270457633381201568e+01 2.653224965157267690e+01
1.302845783590717943e+01 -1.534577056833038577e-01 2.850511751098186508e+01
1.298511851370373194e+01 1.069027377468083184e+00 2.850411481801305413e+01
1.246557672591990240e+01 4.470798336465049871e+00 2.822678596649064886e+01
1.288232050102666371e+01 2.237982045709759671e+00 2.846186772662904474e+01
1.297476865472895646e+01 3.717707485061466866e+00 2.869374511924499416e+01
1.130441561253706517e+01 7.753313802072775651e+00 2.772021745336897069e+01
1.164972444218102865e+01 7.155048591522519708e+00 2.788080515450148766e+01
1.191342433161699610e+01 6.785505620485871248e+00 2.807675485014840433e+01
1.056698799081686069e+01 9.181147627523380095e+00 2.741974575358868549e+01
9.127586232735271921e+00 1.134071798559166666e+01 2.699290596289010224e+01
8.576454663244373222e+00 1.208257594503892207e+01 2.692520854602239311e+01
1.276681558703669062e+01 4.141324130167931550e+00 2.851397271824090041e+01
1.325307471329341169e+01 4.655059563924317523e-01 2.877218587727310251e+01
1.314591324487001955e+01 1.831759917271585270e+00 2.870740990913749968e+01
1.305760607176953769e+01 2.973537917290643762e+00 2.871545876123225938e+01
9.466781319150086915e+00 1.092656156690287261e+01 2.711870165584893755e+01
5.338236175372115255e+00 1.447616189466204339e+01 2.607907906760159733e+01
6.717118561682911881e+00 1.386218770590563487e+01 2.657369507844812873e+01
7.980859581264199143e+00 1.283082839837589262e+01 2.688843194455123253e+01
7.624890359127819650e+00 1.321670607309746970e+01 2.683300636940218098e+01
1.256930195035666031e+01 6.323936702328561310e+00 2.866602581446934650e+01
1.068073274975656339e+01 9.737193288345160624e+00 2.768667870336245684e+01
1.031201024444246706e+01 1.027163723443411847e+01 2.758273947791795067e+01
1.255889425625920452e+01 5.186125348866451823e+00 2.845091664143158638e+01
9.571802701295712978e+00 1.134141184760025034e+01 2.737457688447764070e+01
9.941898950508136323e+00 1.080653862228797202e+01 2.747867346851131387e+01
7.352701448046087052e+00 1.344900011975754595e+01 2.673904826801352286e+01
8.433446112290821972e+00 1.280177579112393893e+01 2.720220289353864729e+01
9.202250000000001151e+00 1.187549368324780019e+01 2.727059956105889782e+01
1.289848536901300413e+01 4.631223049458433216e+00 2.869933592903486641e+01
1.350247789863675507e+01 1.189344607794324826e+00 2.907012925059028419e+01
1.332888087854290227e+01 2.487522720412840727e+00 2.896202460446116334e+01
1.315286132068978908e+01 4.254481034032225217e+00 2.893255466945180743e+01
1.347814247777521501e+01 3.221549923157566830e+00 2.918763422956752862e+01
1.206225081613058059e+01 7.343398434712350209e+00 2.832956898294805725e+01
1.231571938242798581e+01 6.833814936635853599e+00 2.849775662165478707e+01
1.102588778889355936e+01 9.138945460579988023e+00 2.784736642319697708e+01
1.137164430937938242e+01 8.539808660921929473e+00 2.800828090378562507e+01
1.171705236602540090e+01 7.941384517485351680e+00 2.816899105699558348e+01
5.714845432000211112e+00 1.484608603125308868e+01 2.655070779297548356e+01
6.092552271038536027e+00 1.463923633570593807e+01 2.665033957808512710e+01
8.817964515635217992e+00 1.233848524378562139e+01 2.723642125294348659e+01
8.048865992476150311e+00 1.326541682573015812e+01 2.716794287471763525e+01
1.358742653527433575e+01 1.962215364103360393e+00 2.919148307866762337e+01
1.343255788495656589e+01 3.801290655456271761e+00 2.919098288894439719e+01
1.282316096705495490e+01 5.813412424988559479e+00 2.883448352288128191e+01
7.666625109139814320e+00 1.372872463720613467e+01 2.713369169621731203e+01
6.615877086957004494e+00 1.472027903606556798e+01 2.705951037444279095e+01
7.140681209725575407e+00 1.422455891598122868e+01 2.709660059887587735e+01
5.101833772202993167e+00 1.508265651724368261e+01 2.639277861590961649e+01
8.857638054043377451e+00 1.281809311850761013e+01 2.754367568340612138e+01
9.213171771873998495e+00 1.243400286761624862e+01 2.760080189978779686e+01
1.384062153339773005e+01 1.553578969279692856e+00 2.945084095681827563e+01
1.279875150399228190e+01 7.016440807171974825e+00 2.905024701207687343e+01
1.307699654482146556e+01 5.302812882041781251e+00 2.900293064897986994e+01
1.129116899598967017e+01 9.422666443556300564e+00 2.820549671051679042e+01
1.072525212706772457e+01 1.032853465397385584e+01 2.799864740299327792e+01
1.214814177066842227e+01 7.956466795470201525e+00 2.861032742204681512e+01
9.808556199700788625e+00 1.163745278736660893e+01 2.773356154420260467e+01
1.038067734812976894e+01 1.077597747682416518e+01 2.787860898931426945e+01
9.550291866937287821e+00 1.215772746968395168e+01 2.772824942409089388e+01
1.377138349566309294e+01 2.631323104019268833e+00 2.944834545020603755e+01
1.333108527354997008e+01 4.791529719762843698e+00 2.917155040865457494e+01
1.355915442412614880e+01 4.277901860722190364e+00 2.936928195835753286e+01
1.378728316987602831e+01 3.763970197475290380e+00 2.956709915064201866e+01
1.246300118832401971e+01 7.562451956729354663e+00 2.880150588097803066e+01
1.313567054350137120e+01 6.412928020459380818e+00 2.928870295755952924e+01
1.182248338408878929e+01 8.463451606994070175e+00 2.844069907871179481e+01
1.105979975863401776e+01 9.994093784549280102e+00 2.815172576830510209e+01
6.091511993265872782e+00 1.521606080243780745e+01 2.702240671841673247e+01
7.987996469060853144e+00 1.402831174820457605e+01 2.755715053922336466e+01
7.651089542550817413e+00 1.424253740232944487e+01 2.745553048383616357e+01
5.536352287912244208e+00 1.560217597215874008e+01 2.700433995278933352e+01
8.689330307433035472e+00 1.331417115893861869e+01 2.769758860438217596e+01
9.987195121923328145e+00 1.192947675765602789e+01 2.803588091810028970e+01
1.402894080061439297e+01 2.092670824897470361e+00 2.967555737640644864e+01
1.320933711998037552e+01 5.825011171761008022e+00 2.924920100141401136e+01
1.027183068385949660e+01 1.137856730811807182e+01 2.805201749459750715e+01
7.636003521018841056e+00 1.475680104485712185e+01 2.777764830531399909e+01
9.224089931515393914e+00 1.299233111561152931e+01 2.793088818233635351e+01
9.898599894999426496e+00 1.244017265991989518e+01 2.818625283482220212e+01
1.401507023379735983e+01 3.250584968786164541e+00 2.976465280221511733e+01
1.405506246229289502e+01 4.424019315043183909e+00 2.993932178917751230e+01
8.357990970910334383e+00 1.377135894397830107e+01 2.770039428459615749e+01
7.012104546731487531e+00 1.514597065637913254e+01 2.760421395219705687e+01
6.388603955229261722e+00 1.553518252929542598e+01 2.743077152754421633e+01
1.345399578623712955e+01 5.400433726130249745e+00 2.942514693130041437e+01
1.424283679949406789e+01 2.737029106070755002e+00 2.996222021078927256e+01
1.374677750945074983e+01 4.978269575514364220e+00 2.965649450130065290e+01
1.328183664602887681e+01 7.199202912060429504e+00 2.960282765251592352e+01
1.357693159552662188e+01 6.009104190052156014e+00 2.967874977913729850e+01
6.041561149758090110e+00 1.577369580204629962e+01 2.740303830562784526e+01
1.037436185469098326e+01 1.206065619309230286e+01 2.846124955900623021e+01
9.235014050001542074e+00 1.355086136794339957e+01 2.826108527860495911e+01
1.437499625784241708e+01 3.618972070908978544e+00 3.020744751985401066e+01
1.369971950385678916e+01 6.616766541532190793e+00 2.993200045434210566e+01
8.309812593306372008e+00 1.432825897643543200e+01 2.798112652779240150e+01
7.621194470448529046e+00 1.527091787722654459e+01 2.809967105493018380e+01
9.740982340470726086e+00 1.313674684878784404e+01 2.845270756624472597e+01
8.771646541269712216e+00 1.393955012920051750e+01 2.812111378967648889e+01
