9.276899908556588414e+00 -6.438860734249916895e+00 4.569396453241692058e+01
1.233003848253189538e+01 -1.568703066299843352e+00 4.721550931797083450e+01
8.714614573695191879e+00 -9.840917650267664740e+00 4.401330408863253751e+01
8.735567991940756727e+00 -9.523865469468038469e+00 4.445480659004777380e+01
8.512926479125779267e+00 -1.093670431911125362e+01 4.208695014976901660e+01
8.531038107053356967e+00 -1.128260229249636204e+01 4.115882692314762181e+01
8.693663590891667070e+00 -1.015799938336026109e+01 4.357184291887844552e+01
1.250068709468697392e+01 -1.171339399757241750e+01 3.192120672339404663e+01
1.314395887951110353e+01 -1.095829168834574219e+01 3.066816022028229938e+01
1.053377252673085707e+01 -1.240694498308945803e+01 3.541026132513487568e+01
1.039560231427464565e+01 -1.239902566304524001e+01 3.579942937038470063e+01
8.810326036849861708e+00 -1.183843714464871510e+01 3.950252455882589686e+01
9.124864083069276433e+00 -1.211322560096004963e+01 3.840627578036816914e+01
8.216445571646231016e+00 -1.140223537345415039e+01 4.067315865107342887e+01
9.346634809714977621e+00 -1.232815960705097602e+01 3.648027737817103855e+01
9.251747471714967475e+00 -1.224305616193303337e+01 3.745657831444151498e+01
1.079779668600206932e+01 -1.240777909375046484e+01 3.466160958979290996e+01
9.809044289400691952e+00 -5.376726349275990025e+00 4.596101955740907385e+01
1.076206427184227188e+01 -3.896851523127665473e+00 4.636637012331853924e+01
1.030497758084761450e+01 -4.369113140109089244e+00 4.622418184364488525e+01
1.066351932208873166e+01 -3.312709647133253110e+00 4.647305593540750124e+01
1.111234526341057105e+01 -2.174885222083608571e+00 4.691494850096139402e+01
1.165996927953131390e+01 -1.619350521911187668e+00 4.725153436793634398e+01
8.628948724706816620e+00 -8.119423001758518055e+00 4.531847748447923152e+01
8.584160061609424019e+00 -7.276271460887938858e+00 4.544865054741268295e+01
8.764385395029158587e+00 -9.273097390193946410e+00 4.474353249847351321e+01
7.998481748485821718e+00 -1.114571137787294575e+01 4.127601970346292148e+01
1.228736070104548972e+01 -1.158169640713238913e+01 3.133539140113908772e+01
1.191337896174893096e+01 -1.180560315772172686e+01 3.183131718755283046e+01
8.718344851383449168e+00 -1.200373875766778653e+01 3.874475327799235203e+01
8.249128166868858969e+00 -1.158535145920523490e+01 4.018228978535137941e+01
9.778005602474815205e+00 -4.817195701594645385e+00 4.607479751617530184e+01
9.282993557699192877e+00 -5.824978965856376867e+00 4.581142859928389299e+01
8.634111030897114958e+00 -6.866107003588051150e+00 4.552849958793147778e+01
8.757135157743014986e+00 -8.439677561767441105e+00 4.517932136519762309e+01
8.674246551294304552e+00 -8.854173084847973385e+00 4.494217616977739027e+01
8.124892116645879625e+00 -9.622144133171820712e+00 4.410981479040880515e+01
7.890173416439172804e+00 -1.084555308123167983e+01 4.201361887359300340e+01
8.231803937263670434e+00 -1.042722302077208063e+01 4.291999263143924992e+01
8.097021161441757542e+00 -1.004501212874551719e+01 4.352105144461700803e+01
1.134983236558639064e+01 -1.217842932043356541e+01 3.291855135463735849e+01
1.153939773485896936e+01 -1.202951105818200261e+01 3.232715434596547510e+01
1.116026554018222861e+01 -1.232733260199577963e+01 3.350989049357301752e+01
9.695806591849811085e+00 -1.238274961825585052e+01 3.572914987348072202e+01
8.401531522868012303e+00 -1.169513777372994134e+01 3.983770042017020785e+01
8.628693889036016529e+00 -1.216899502699081204e+01 3.798699235467015001e+01
1.020683348892509201e+01 -3.785137461205049902e+00 4.633089353147813227e+01
9.253982216532131488e+00 -5.264671215853224950e+00 4.592547103103281358e+01
8.641935961768446361e+00 -6.049837085244574197e+00 4.568525054342611469e+01
1.056512169621875330e+01 -2.729623949988660314e+00 4.657956412000972080e+01
8.181554521350175690e+00 -9.120671543286604788e+00 4.468679035114472953e+01
7.702721407330194836e+00 -1.050606764536578197e+01 4.256890151522175358e+01
7.264408459548725716e+00 -1.094170233637119161e+01 4.144430790767128769e+01
7.429188881001241640e+00 -1.120452985748216612e+01 4.083355690113273084e+01
1.098628956153014613e+01 -1.239780776163393661e+01 3.384182501204137594e+01
9.972207741465686226e+00 -1.239857518440578232e+01 3.495084189631248961e+01
7.901313060196708982e+00 -1.171714573815801153e+01 3.941526790818987536e+01
7.596377289627669782e+00 -1.149756905562687948e+01 4.010446800338572615e+01
8.521637800685288866e+00 -1.222939866114089469e+01 3.718748632529837295e+01
9.749910539681206245e+00 -4.257538821113333150e+00 4.618868303826437227e+01
8.680990268527750686e+00 -5.605118093123933498e+00 4.575892606488761061e+01
1.099804945426391001e+01 -1.515388246212394874e+00 4.727087181922755832e+01
1.010849347619040195e+01 -3.201436329096741584e+00 4.643755202604152288e+01
8.177005214410733913e+00 -8.564685616070441654e+00 4.497748213033023035e+01
7.997464740756708323e+00 -6.681758282375615643e+00 4.548055653156399103e+01
7.267640130144325639e+00 -1.075441855377524192e+01 4.194030269927647936e+01
7.174005096357019440e+00 -1.058468802952034515e+01 4.221804526335590424e+01
1.100510084535535604e+01 -1.200311637164636025e+01 3.187612933825505834e+01
1.094946481010923733e+01 -1.215866775421577195e+01 3.258061554051349873e+01
1.064901077570568511e+01 -1.240401220095777823e+01 3.405755180114912406e+01
8.821142505647449283e+00 -1.233918075403163073e+01 3.603439221726367236e+01
1.050021881096877863e+01 -1.240024143775370291e+01 3.345347862800660721e+01
8.030879389371859745e+00 -1.193495606986752833e+01 3.858142371601856269e+01
9.222353887372479520e+00 -4.705375675882478959e+00 4.603929549972010449e+01
9.651632606254763047e+00 -3.673416485540976328e+00 4.629544713898513919e+01
7.897109507740013967e+00 -7.507551953688174962e+00 4.532071294479789003e+01
1.045039021815184377e+01 -2.070724494191015896e+00 4.693467300034601664e+01
7.920136381030899564e+00 -7.923529296061224692e+00 4.525569203945938312e+01
7.513769427173212279e+00 -9.720526810444043875e+00 4.376454994711556878e+01
7.556420278593414253e+00 -9.344399948570789149e+00 4.419729602581704597e+01
7.402939876457521606e+00 -1.022943767654299130e+01 4.292105693232229413e+01
8.406908656241117939e+00 -1.228980117618544021e+01 3.638795909775944892e+01
8.995887925666853135e+00 -1.236647296434968091e+01 3.565883967162238832e+01
7.401053143989017258e+00 -1.173914299668415495e+01 3.899281692388485965e+01
7.172375303569398675e+00 -1.157447924719004284e+01 3.950971653541301976e+01
9.955458391472305379e+00 -1.239520970363514074e+01 3.397250188753963585e+01
8.101433438627822170e+00 -1.215954883825024702e+01 3.755195743427345434e+01
7.945882210435567750e+00 -1.207805710481151884e+01 3.792146156446432315e+01
8.652333895627691618e+00 -5.045467646175247900e+00 4.587289992175920617e+01
8.001466949536563789e+00 -6.273582953563439979e+00 4.555904834179285956e+01
8.127545175726455184e+00 -5.829331441446497841e+00 4.564532076272416106e+01
9.837389014384822161e+00 -2.520444496115671562e+00 4.655887441582925135e+01
7.676024832970352207e+00 -8.268511199729729810e+00 4.501632031257120303e+01
7.500201432011420977e+00 -9.931996750652638539e+00 4.347024547106466486e+01
6.644977087301738194e+00 -1.066324872008413394e+01 4.186697009110656609e+01
6.933648799754603687e+00 -1.106320981045935348e+01 4.095665024302639523e+01
6.859650783263252727e+00 -1.126332614540590171e+01 4.039089950546033947e+01
1.035953204765620050e+01 -1.228782312162950063e+01 3.283401267573246685e+01
7.514664950822086631e+00 -1.190027586083667899e+01 3.838755749547771501e+01
8.853443556958625393e+00 -1.237018439611866683e+01 3.503999527446843842e+01
9.410647315998485141e+00 -1.239019280387565303e+01 3.449142322809547068e+01
9.194205057581481100e+00 -4.145811650618569821e+00 4.615317189895193906e+01
9.591773640757253361e+00 -3.140962818119224398e+00 4.640400130252334066e+01
8.078535355996297795e+00 -5.385015499647733961e+00 4.570640894027757639e+01
1.033566849750015493e+01 -1.411350413706969675e+00 4.729029979673720874e+01
7.596790793849603318e+00 -8.690013895551013334e+00 4.477558362754698607e+01
7.285561902179095384e+00 -7.118835030107907080e+00 4.531268356910110384e+01
7.599070871507812797e+00 -8.968339520270712129e+00 4.463008504370896645e+01
6.526979684704561357e+00 -1.088278721351350242e+01 4.122784302690838842e+01
6.730980839134621085e+00 -1.038226113455198707e+01 4.238458081963750601e+01
6.943693818369348847e+00 -1.140980242849257209e+01 4.002664373264259012e+01
6.959173378502394591e+00 -9.317511670606416274e+00 4.399601409696293075e+01
1.021883813141497832e+01 -1.217538262020471507e+01 3.221450256909982812e+01
8.295644737257802603e+00 -1.235019608103173816e+01 3.558850734138361105e+01
9.806674574698696745e+00 -1.239142885172608111e+01 3.336846054173229703e+01
9.998826505189811087e+00 -1.236772359380552544e+01 3.305041742186812570e+01
6.900472506001528394e+00 -1.176114616570730931e+01 3.857009646353557031e+01
6.783647537983341635e+00 -1.158694537093221300e+01 3.920026679723174112e+01
7.575898362244648965e+00 -1.215009841825329495e+01 3.711680874264010299e+01
8.622141751347026428e+00 -4.485694424025114202e+00 4.598687848420564706e+01
9.165900996949204682e+00 -3.534029314534447686e+00 4.628156026099007647e+01
7.360090439607244406e+00 -6.499446194150690914e+00 4.543258428083754552e+01
7.211088369791681885e+00 -7.727645315199548115e+00 4.519290228530734765e+01
9.722458135933791823e+00 -1.861204785748159063e+00 4.691388278329422690e+01
9.137442508595679413e+00 -2.922394751571643745e+00 4.640992007370548578e+01
6.902909407824944665e+00 -9.819681945581720584e+00 4.341940511411461046e+01
6.816927599429448925e+00 -1.010122902405846368e+01 4.290187597982369283e+01
7.015493128327806360e+00 -8.815725559422807223e+00 4.457327432813018220e+01
7.676856631228996974e+00 -1.224541082953053994e+01 3.613495197684823523e+01
7.264173584641433479e+00 -1.198710542494263187e+01 3.785589995939605501e+01
6.290827221537250047e+00 -1.132201481207349403e+01 3.994878831798039442e+01
8.849082189092976947e+00 -1.238179968487980176e+01 3.403201418005485834e+01
8.672119199888523866e+00 -3.918391891715274244e+00 4.611937182448107109e+01
8.049745701092207995e+00 -4.825528811506008431e+00 4.582046168909437256e+01
7.418389398852971439e+00 -5.831067345466252938e+00 4.554333014296498305e+01
8.644204517717707148e+00 -3.306843796670520419e+00 4.624781205363342451e+01
7.113291055077964664e+00 -8.271293594802182625e+00 4.488306556790097801e+01
6.059436246469399379e+00 -1.067143276222290105e+01 4.143656992913589221e+01
6.408877131789022741e+00 -1.110246823031607377e+01 4.058816682641766249e+01
7.051098238456275702e+00 -1.214063923665002953e+01 3.668137899210586284e+01
8.153496966147192992e+00 -1.235389688008662468e+01 3.496967551803241037e+01
7.476571793647979192e+00 -5.165009430043832062e+00 4.565395941086833176e+01
9.702774818185435635e+00 -1.174213669730805654e+00 4.730269268755576917e+01
9.108940408997060700e+00 -2.311037968058188952e+00 4.653822602626683391e+01
8.615997693304803917e+00 -2.695177535580998818e+00 4.637626239748573909e+01
6.744490116393497381e+00 -6.533586494660130306e+00 4.533552960514953156e+01
6.019483143554134941e+00 -1.047977966523030702e+01 4.180912246220663775e+01
6.264892070785258227e+00 -1.012316614791317448e+01 4.254516319991378737e+01
5.988013766342262123e+00 -1.087397415855578764e+01 4.087302707478025354e+01
6.350807695200586522e+00 -9.842004682862018683e+00 4.306255724149073671e+01
6.363713789844803514e+00 -9.217696806674659626e+00 4.383582764268814458e+01
6.473538230069983079e+00 -8.838637893552300895e+00 4.430237143124807631e+01
9.497410457248241400e+00 -1.233519388118408422e+01 3.264733984457635785e+01
9.113119723580982878e+00 -1.238261524254207302e+01 3.328340482476630768e+01
7.591163241906605741e+00 -1.229073561827905614e+01 3.553518172824820454e+01
6.160251426846312661e+00 -1.148315831348138616e+01 3.920701581329250729e+01
6.400036249490469231e+00 -1.178313407160542603e+01 3.814750482537608178e+01
8.011078964810124603e+00 -1.235759568862228974e+01 3.435084003050523194e+01
6.581722252212871993e+00 -1.189610860459436914e+01 3.779028673317743170e+01
6.475542674024158174e+00 -1.197288986124055121e+01 3.720301597986459541e+01
8.101572093438621280e+00 -4.258304641088759723e+00 4.595308333492423714e+01
8.150702787866565657e+00 -3.691110284032820932e+00 4.608562421865475756e+01
6.837255920504372142e+00 -6.225966479437746059e+00 4.539933342508022918e+01
6.633281496575813563e+00 -7.451368254404997060e+00 4.515572186943226995e+01
9.089409171388037834e+00 -1.624622710053690744e+00 4.692618992675321010e+01
6.673370734577933838e+00 -7.730327697992742664e+00 4.503861157297613715e+01
6.253886320829145085e+00 -9.598132134754447264e+00 4.336931803385256501e+01
6.532585603264545071e+00 -8.138659066525491426e+00 4.478690141042641670e+01
6.391800934860835781e+00 -8.547348364676150112e+00 4.453521428685674266e+01
7.727755693438230544e+00 -1.233088158971956005e+01 3.513854947812172469e+01
6.525814641861624743e+00 -1.213118026929005566e+01 3.624602229857018187e+01
6.029815942273424767e+00 -1.164410744320626634e+01 3.846604134304160993e+01
5.781522284059129824e+00 -1.131483922407950438e+01 3.954096485458899224e+01
8.287519724690575629e+00 -1.237339758017857783e+01 3.357259767753651403e+01
8.122673664314499220e+00 -3.079642308572600129e+00 4.621409296444624459e+01
7.527316499758581969e+00 -4.597844784525432438e+00 4.578669222946318484e+01
6.924695692351814813e+00 -5.223590422548372914e+00 4.556544130337777432e+01
6.602944110468135896e+00 -6.981704627244764261e+00 4.523594826584193385e+01
8.460344665443855661e+00 -1.954691570205913775e+00 4.652447483786687599e+01
5.824375157574334771e+00 -1.015027258980951075e+01 4.224434637680152349e+01
5.394055503517136252e+00 -1.029633321889157926e+01 4.175126673559854851e+01
5.645213773088600284e+00 -1.096965506648028743e+01 4.039046309916081157e+01
5.647369570019395546e+00 -1.116741637404663656e+01 3.989043231605136697e+01
5.474053215725223964e+00 -1.067957713733675185e+01 4.100627859382804274e+01
5.931980988281670086e+00 -8.861571010201686249e+00 4.403164478975826057e+01
5.604780215308351465e+00 -9.376542664868582122e+00 4.331921982607084942e+01
8.995992534850110189e+00 -1.230265558553518979e+01 3.224426827772621351e+01
7.868546657048046455e+00 -1.236129259496506982e+01 3.373200726389704585e+01
8.143443041721647901e+00 -2.530249769689077777e+00 4.634429920329889541e+01
7.577874270434387327e+00 -4.030888502420376440e+00 4.591931786723559128e+01
6.796708300714947804e+00 -5.704736458735928828e+00 4.547284451225446844e+01
9.069915049887651293e+00 -9.370827067128544297e-01 4.731514342258048345e+01
6.314802433814145743e+00 -5.952698318120815735e+00 4.536611991857920856e+01
5.798799503306849346e+00 -9.864055492484007814e+00 4.270575762716613610e+01
5.389572490130285942e+00 -8.884565983171517800e+00 4.376047174579510113e+01
5.769057370799295370e+00 -8.279383751828266469e+00 4.449720634251512053e+01
6.135595686016397821e+00 -7.733293812628550867e+00 4.488427581252594223e+01
6.889982217836317702e+00 -1.223127746159448037e+01 3.548182508201484353e+01
7.159743259463821730e+00 -1.231156267384276681e+01 3.468859088692519776e+01
5.899312391671008626e+00 -1.180512852744501373e+01 3.772466809695281142e+01
5.272703762559841856e+00 -1.130766087302224854e+01 3.913352941726097356e+01
8.419549449445446143e+00 -1.237380116288652232e+01 3.319830829210921053e+01
5.757609700946384024e+00 -1.190752188206407602e+01 3.694138793656713915e+01
7.630516420220880391e+00 -3.463908998634914305e+00 4.605192049591018133e+01
7.690464556122279305e+00 -2.841603655289812735e+00 4.620498204227672545e+01
6.862431958784998010e+00 -4.804241072029949322e+00 4.561972321611570180e+01
6.054679516930843164e+00 -7.174719687268530599e+00 4.511849656329686553e+01
6.128627868887925878e+00 -6.568426949546023685e+00 4.523838327221524480e+01
8.440445722408460583e+00 -1.267813112414527765e+00 4.691234667385869272e+01
5.247070228036318618e+00 -9.885931909292800412e+00 4.234912851502809161e+01
5.499542959326474190e+00 -8.542990176832883975e+00 4.412825437494397818e+01
5.342098072248835372e+00 -9.599002670751854538e+00 4.283333942263924854e+01
6.000008999127161680e+00 -1.212171383013927972e+01 3.581041879450323506e+01
5.343750034706735264e+00 -1.153240346939549710e+01 3.831553941470419744e+01
7.725957550414642050e+00 -1.236498749562017352e+01 3.311318119214195832e+01
7.124368567152687959e+00 -3.108200733791790960e+00 4.603438710071574036e+01
7.750948433690351358e+00 -2.220067122575626772e+00 4.635783991074188037e+01
6.913138858496615136e+00 -4.237627566067876828e+00 4.575245592528852256e+01
6.373249723077846873e+00 -5.280951020127103490e+00 4.547693952586912758e+01
4.751753622967103574e+00 -1.034754126512659411e+01 4.119074521930807720e+01
4.768424291068215304e+00 -1.011282613755823157e+01 4.169338551639209101e+01
5.003577506492731253e+00 -1.101274068456761945e+01 3.983203312032867416e+01
4.888429060772551793e+00 -1.068769635340740187e+01 4.057580210215996175e+01
4.955551523682999004e+00 -9.154902018319242885e+00 4.326910816909062873e+01
5.597910333906568781e+00 -7.736413828701798501e+00 4.472993802522606899e+01
8.110282887918772943e+00 -1.231754033371962542e+01 3.247724600930271066e+01
5.615892954882377275e+00 -1.200991713984864973e+01 3.615796281331120099e+01
6.179465102400665266e+00 -1.217178475798243831e+01 3.542840727639671172e+01
7.159689643305203965e+00 -1.232860488110762986e+01 3.367594459406807772e+01
7.185626093425232064e+00 -2.486343916774725660e+00 4.618748336264281562e+01
6.963183048261301522e+00 -3.670673065025324533e+00 4.588518524912378638e+01
6.248473896614456180e+00 -4.443449939020275075e+00 4.558552734204564416e+01
7.811554968954746769e+00 -1.598167187962373115e+00 4.651077813147288964e+01
4.695270866496461970e+00 -9.907707152910445458e+00 4.199243990699457640e+01
4.920004146968816272e+00 -8.511632394234048604e+00 4.389041694780953407e+01
4.749616447592432067e+00 -9.575858209418973033e+00 4.252007580555486754e+01
5.145377934117212781e+00 -8.011015880283459012e+00 4.445913987782134313e+01
5.370711399563647959e+00 -1.178390406167593518e+01 3.728836014965521173e+01
4.763496939616237213e+00 -1.130046973380986408e+01 3.872577758537482140e+01
5.233879498686309084e+00 -1.167356554755525977e+01 3.766946343961082988e+01
6.593243746174265674e+00 -1.229223988955399705e+01 3.423863688391006832e+01
6.617147780495242770e+00 -2.752981221592636363e+00 4.601690931181931177e+01
6.035194354485525992e+00 -4.890989594830339016e+00 4.548697039761931649e+01
5.652987015110595870e+00 -6.140999896967849203e+00 4.523711773791978885e+01
5.476091800365487039e+00 -6.898085078131134473e+00 4.508127889971143532e+01
6.299086523924466441e+00 -3.877054543157690158e+00 4.571832972938502593e+01
8.507659160438308277e+00 -5.592873240449878214e-01 4.733245079600992256e+01
7.245510905670835555e+00 -1.864747238146011288e+00 4.634038355371693285e+01
4.143158112958059469e+00 -9.929425916434992061e+00 4.163553083323109405e+01
4.649653506770647482e+00 -1.109616992572413174e+01 3.927100784671336697e+01
4.848041569229709857e+00 -8.908285339368687161e+00 4.348971507604868947e+01
5.060118595961728971e+00 -7.739632359258071581e+00 4.457553995382802015e+01
5.268105048669202262e+00 -7.318591026850548076e+00 4.482839553867903959e+01
4.841946821168970239e+00 -1.176266828349651483e+01 3.685192152398921195e+01
6.040029265852333573e+00 -1.220223919308003602e+01 3.480677566506120257e+01
5.474239702307711397e+00 -1.211224972787970344e+01 3.537491962550429747e+01
7.017183249884809904e+00 -1.233229302139561234e+01 3.305708058631680757e+01
6.456367758771499155e+00 -3.315041193982166234e+00 4.586763354065808329e+01
6.681858228585086046e+00 -2.131052314327475550e+00 4.617001438495659471e+01
5.792301619920150912e+00 -5.679413689527283537e+00 4.533291715815474276e+01
5.513648938556328538e+00 -6.597120389835198218e+00 4.514132683261495060e+01
7.878216319881141239e+00 -8.900652283895020833e-01 4.692987889109436139e+01
4.395629400688751964e+00 -1.045830680196185547e+01 4.070762019411269250e+01
4.001452889512724376e+00 -1.018755464339907668e+01 4.099560303339401912e+01
4.303189780880214421e+00 -1.069578820065878588e+01 4.014559948194931138e+01
4.360666557704335311e+00 -1.085827916427107986e+01 3.977370187118880551e+01
4.252163016694981756e+00 -9.265753203454675457e+00 4.269104668092540322e+01
4.450440041673248359e+00 -8.138705536403387342e+00 4.402039555751456845e+01
4.710002186395441548e+00 -7.182112828498670609e+00 4.473246586909828437e+01
4.961065558985758628e+00 -1.189163243635018752e+01 3.618457311413563104e+01
4.844408009176776275e+00 -1.146649878479368390e+01 3.814578900323046184e+01
6.026721064936084282e+00 -1.227291249714231469e+01 3.378866118804981511e+01
5.821783533021542389e+00 -5.340378648975324438e+00 4.538838532183618213e+01
5.634322299361946840e+00 -4.082367799288951105e+00 4.555135075808232870e+01
7.237006696200672273e+00 -1.072539681098790165e+00 4.651421563604785803e+01
4.197636811991942274e+00 -9.597840265826107498e+00 4.216303069125194725e+01
4.306679607896879425e+00 -8.933375373632499006e+00 4.321902071565344272e+01
4.378572482975504165e+00 -8.534533633100361172e+00 4.361974977099404072e+01
4.522310128993004774e+00 -7.742912644717567794e+00 4.442110844564009398e+01
4.897819817140611320e+00 -6.621607334512877863e+00 4.504408867993289078e+01
5.270077647803924847e+00 -5.406284125447622380e+00 4.529974548306211091e+01
4.313502699030765442e+00 -1.174144146707544323e+01 3.641574941623377271e+01
4.568561698411060412e+00 -1.154203368618956738e+01 3.761424478079631228e+01
5.279920052621064563e+00 -1.215293529395026084e+01 3.454577762455331680e+01
4.110655554767292941e+00 -1.105207578537580915e+01 3.895393647278797289e+01
5.949588874448146214e+00 -2.959340153356566194e+00 4.585011170202789543e+01
6.109634403976611949e+00 -2.397320695730249529e+00 4.599944257039936701e+01
5.452294557777340955e+00 -4.737432849384815015e+00 4.542553620972532258e+01
5.083930165512016153e+00 -6.022298246820998457e+00 4.517188321382707272e+01
5.792333059142131368e+00 -3.521182774602210408e+00 4.570073828372498070e+01
7.945140573610806278e+00 -1.812912859582336278e-01 4.734981170901804859e+01
3.859704646746608070e+00 -1.044571046787623203e+01 4.035551513362182163e+01
6.308158886954600142e+00 -1.229960497019310672e+01 3.300093647913170258e+01
4.920743676115992393e+00 -1.207944865264683543e+01 3.491838454738693542e+01
4.550484300770592405e+00 -1.187251056791462034e+01 3.586186107458954098e+01
4.254642184163672347e+00 -1.129327550173786499e+01 3.831830907774795492e+01
7.303377102906229545e+00 -3.641121203841201637e-01 4.693320039201495320e+01
3.582866443212956664e+00 -9.682445406711666536e+00 4.162457845925457178e+01
3.610406652459595023e+00 -9.881659453702392071e+00 4.130714568193674552e+01
3.717934961095771040e+00 -1.070386365275621188e+01 3.971537297121267329e+01
3.713814244189085123e+00 -8.885939304861164345e+00 4.289140244048254402e+01
3.565936513388031859e+00 -9.263325809993926185e+00 4.223369871395345854e+01
3.954749194711915550e+00 -7.695001016255540449e+00 4.416205234426933401e+01
4.315844069917328163e+00 -6.540254363554145023e+00 4.488884441700174222e+01
4.015561941539204760e+00 -7.437642891537071144e+00 4.439040402021733911e+01
3.789981364235275318e+00 -8.146122008190232577e+00 4.366116854251201573e+01
3.544336300682197738e+00 -1.013048911634424876e+01 4.074660644480425020e+01
4.108366252178380584e+00 -1.157597589806706040e+01 3.698735902287731392e+01
4.787501469548213429e+00 -1.200357543210872002e+01 3.530798702320042537e+01
5.020510361876109329e+00 -4.031766437102042744e+00 4.545509610862664829e+01
5.182991112154046398e+00 -3.717000703153990671e+00 4.552660529019384938e+01
7.499688005491309539e+00 3.412929295213043002e-01 4.737076356319888504e+01
3.781278425500682161e+00 -8.648179703846203381e+00 4.320012901588810195e+01
4.078523701947267988e+00 -6.957893680792687441e+00 4.462469731881736124e+01
4.726807276322159801e+00 -5.342622609160222247e+00 4.521775409881819030e+01
4.746961950525036222e+00 -5.029144854526780506e+00 4.526623408838737106e+01
3.163100923151404675e+00 -1.049154138882455278e+01 3.970502636988917544e+01
3.120326609686116637e+00 -1.016272131598256934e+01 4.034183297758131204e+01
3.698546568464238682e+00 -1.155567449251375756e+01 3.666719098265787125e+01
3.903238914907827706e+00 -1.141050594805028062e+01 3.755901030242750949e+01
5.091669805109900082e+00 -1.219359551711277945e+01 3.371703087925857290e+01
3.785018560028871715e+00 -1.172020869351651307e+01 3.597955135417442563e+01
5.536552588862125646e+00 -2.453986084415481272e+00 4.586269090377752633e+01
4.311570883645214458e+00 -6.233698707456421850e+00 4.500540030764445731e+01
4.796402948546782063e+00 -4.494692836674793135e+00 4.535069217288517507e+01
5.299996313810072301e+00 -3.057262654423166914e+00 4.568726327272988641e+01
3.077553836843377688e+00 -9.833863924568435166e+00 4.097868890772758022e+01
3.557890854213005660e+00 -1.089538583281563255e+01 3.897875179754948505e+01
4.432885061406824256e+00 -5.759713720732820619e+00 4.510234938356421708e+01
4.100370031002658955e+00 -1.189485783107014250e+01 3.524098255641887789e+01
3.397689967283992196e+00 -1.108707684304889973e+01 3.824145058678146825e+01
3.745831445095919587e+00 -1.128607664543809008e+01 3.791086931592786868e+01
3.237385147044680167e+00 -1.127887789356739923e+01 3.750371663004315792e+01
3.022628231719531211e+00 -9.435489760870112264e+00 4.161360581010016801e+01
3.194686548825065753e+00 -1.065968569093124785e+01 3.931612059889839372e+01
3.120739397841161278e+00 -8.838278947480413095e+00 4.256364828652439769e+01
3.256629402291966624e+00 -8.363384665532068496e+00 4.318125224517955729e+01
3.508904504250869305e+00 -7.132431695953671102e+00 4.435969900657904930e+01
3.386584357524939470e+00 -7.647083582212045982e+00 4.390268743525309958e+01
3.733788885514621292e+00 -6.459094586028863993e+00 4.473353969700995236e+01
4.183926434496099134e+00 -5.279463597348382997e+00 4.513578156518197915e+01
4.731249328316526004e+00 -3.351157817982558296e+00 4.550185539881692165e+01
4.406793627777169320e+00 -3.982562972586536798e+00 4.535880535212570663e+01
2.987618604411460765e+00 -9.115478938614154814e+00 4.206389701867183817e+01
3.241805834496459759e+00 -7.979968467576097346e+00 4.352164233766978185e+01
3.726215533909201572e+00 -5.846381445932663290e+00 4.496677748176074374e+01
4.223949571825063032e+00 -4.652095924253080383e+00 4.523274355743286890e+01
2.608192347573317083e+00 -1.027919569733549388e+01 3.969464952462413265e+01
2.543799898954012928e+00 -9.785970577048800578e+00 4.064966853025590865e+01
3.076076415773253636e+00 -1.083803939009828099e+01 3.866105812568407885e+01
3.067591336361726650e+00 -1.141182081872960552e+01 3.670489437943195554e+01
3.256580048231833668e+00 -1.169897482060847516e+01 3.554339181879055332e+01
2.720234259007532795e+00 -1.088139371715088366e+01 3.816954774882386658e+01
4.776503278707895817e+00 -2.907512820469110970e+00 4.560266793716635902e+01
4.967596813396172095e+00 -2.510141515435793114e+00 4.572604173803398453e+01
2.989829074153465438e+00 -7.239250228116439700e+00 4.400760687333821153e+01
3.152269131799710689e+00 -6.378135442847105097e+00 4.457833947953901088e+01
2.494072862365409815e+00 -1.001300541551882262e+01 4.014660956511755074e+01
2.671053768587636768e+00 -1.061547416312680880e+01 3.891656965173986293e+01
2.503129688276334974e+00 -9.487283479199925651e+00 4.112612045705181174e+01
2.897766488741203794e+00 -1.154477615824692549e+01 3.590596938878650946e+01
2.705433029613270701e+00 -1.122982922751206836e+01 3.707600583453428555e+01
2.572045124052616316e+00 -1.106878124973086663e+01 3.745735141698305171e+01
2.527295947019836397e+00 -8.790456726257200870e+00 4.223566879687253817e+01
2.462458275535594154e+00 -9.188567371138606887e+00 4.160261053822043920e+01
2.629651109944505905e+00 -8.434650993368970617e+00 4.269898787094134462e+01
2.731996217744045552e+00 -8.078592501212142452e+00 4.316236345771152116e+01
2.818810709230088030e+00 -7.599439084273227785e+00 4.364347363563390303e+01
3.002220244603289068e+00 -6.827202351742180930e+00 4.432898989300726100e+01
3.640994191640902766e+00 -5.213410942139844018e+00 4.505376188124146353e+01
3.629624285822977026e+00 -4.824416984296832744e+00 4.510819874274037744e+01
4.035998169535021773e+00 -3.458186498744422188e+00 4.536974273428639748e+01
2.010442250563282407e+00 -9.738098302552673502e+00 4.032088425750529836e+01
4.279491580854205779e+00 -2.985121690972709629e+00 4.547712273743326961e+01
3.792084530676157694e+00 -3.940034393033033489e+00 4.526230608309210623e+01
3.700862816795466692e+00 -4.275007236193679283e+00 4.519926294711522985e+01
2.190127181806749146e+00 -1.034044348918761713e+01 3.913467102988767721e+01
2.053572110559834574e+00 -1.006696374335744792e+01 3.968425271673375931e+01
1.934043586688862115e+00 -9.283224411891630723e+00 4.103537281472883080e+01
2.147273465105286494e+00 -1.057124855364694405e+01 3.851690270923829473e+01
2.378239020258506642e+00 -1.137287709092504606e+01 3.604089543090049119e+01
2.111811796523048734e+00 -1.074873884631226240e+01 3.794890722767693347e+01
2.172991332641126760e+00 -1.118073316291901698e+01 3.664790949666348041e+01
2.449652082401772901e+00 -7.061786606788269971e+00 4.386177165746438789e+01
2.854920954060552685e+00 -5.877543021523488065e+00 4.467546754343500481e+01
3.140039977070225863e+00 -5.458525245112423541e+00 4.492810689907670252e+01
1.902288331308981117e+00 -8.941647946088465915e+00 4.159159147537358336e+01
1.906863246143949864e+00 -1.085874143908828238e+01 3.741096632413957224e+01
2.048151037634822647e+00 -8.347339184372282617e+00 4.242281643344699660e+01
1.934486735342764163e+00 -8.742599762609629011e+00 4.190801222421853112e+01
2.206796677495492798e+00 -7.793487034935718150e+00 4.314344289141556743e+01
2.250384872801379554e+00 -7.554231356816575982e+00 4.338392549174169943e+01
2.569798146434425501e+00 -6.297131030126071671e+00 4.442284493162271275e+01
2.495168772720549377e+00 -6.521751396239470644e+00 4.429825579218524467e+01
3.098047551014893486e+00 -5.141868785910343576e+00 4.497170080016692850e+01
2.866047172218873840e+00 -4.493787784921036810e+00 4.502766537392011514e+01
3.177567505428201322e+00 -3.897776986597348170e+00 4.516578460156208763e+01
3.394529926837815292e+00 -3.469045310338243482e+00 4.526136592260878899e+01
1.533658667775410933e+00 -9.385669908703334841e+00 4.055330308994317789e+01
1.623313362156594941e+00 -1.052700606693564289e+01 3.811709541275961044e+01
1.561168141206446869e+00 -1.019088706189845972e+01 3.889544059929774988e+01
1.499019661243735868e+00 -9.854760041448091812e+00 3.967383402254829861e+01
1.476849468547627442e+00 -9.690195206981238485e+00 3.999194124767892333e+01
1.342089699525473634e+00 -8.694714782910379469e+00 4.158055518318933963e+01
1.209399007363783474e+00 -9.010535372303161594e+00 4.094162908196911843e+01
1.531715913073724566e+00 -1.091447392375116188e+01 3.681263691572458185e+01
1.640636792879385242e+00 -1.113164332882437257e+01 3.621989134059731441e+01
2.554238698203352254e+00 -5.070914136668989158e+00 4.488947001471376552e+01
2.271336298373747731e+00 -5.642903574528465249e+00 4.457864594936135916e+01
1.751414230524193982e+00 -1.129376430368237827e+01 3.563191214127954254e+01
1.142523450110388694e+00 -1.029612216452300899e+01 3.822511132868805817e+01
1.455524885547033076e+00 -8.299637121601076473e+00 4.209510871540022237e+01
1.988111772511439446e+00 -6.216296724814335484e+00 4.426751906817291626e+01
2.650371293370484604e+00 -3.725543751338050491e+00 4.505495458701913947e+01
2.736871245397805907e+00 -3.413260462619714719e+00 4.510608280812916604e+01
1.076694212228242131e+00 -9.326340643483888471e+00 4.030270012366831622e+01
1.241497051040156396e+00 -1.064864853278368528e+01 3.736454140058950912e+01
1.099883021754559653e+00 -1.048280777871161540e+01 3.771768634833116352e+01
9.707975092604532730e-01 -1.082616342323459691e+01 3.648180439670836961e+01
2.051003680947292018e+00 -4.559432619431185607e+00 4.481988718385461112e+01
2.247872946985008724e+00 -4.080740641915971523e+00 4.491942869266508609e+01
8.519345608644069978e-01 -9.841494976277408213e+00 3.907675758002356758e+01
9.438916030695059245e-01 -9.642339552935498048e+00 3.966337777236662987e+01
7.600596821589733487e-01 -1.004046718567796326e+01 3.849069106072256830e+01
1.108642072869510331e+00 -1.108258596239192784e+01 3.579216819789483850e+01
2.123668644834657560e+00 -3.553778905378678576e+00 4.494418344726335590e+01
6.681815511231075089e-01 -1.023944044943487164e+01 3.790463934115365419e+01
5.762204907054977454e-01 -1.043858861313795927e+01 3.731809596445199162e+01
3.914818413678459730e-01 -9.361757448385212399e+00 3.965503994087817574e+01
1.976015204205160136e-01 -9.768727922470283431e+00 3.856823305554112125e+01
2.983671888588556032e-01 -9.549650013516222558e+00 3.921309519560281842e+01
9.683622177749728888e-02 -9.987800505288587871e+00 3.792341216198362019e+01
4.983243228888857568e-03 -1.018689002962122636e+01 3.733714659689097459e+01
-3.470340299765806158e-01 -9.456982709102451423e+00 3.876289089470089522e+01
-1.609584613789188379e-01 -9.081159428432549419e+00 3.964665905313289329e+01
-4.567121738163667510e-01 -9.696061298284719854e+00 3.805949832400212784e+01
-5.663915054459890408e-01 -9.935135411526347937e+00 3.735616046677186119e+01
-9.922592905437216393e-01 -9.364342879686152088e+00 3.831280805306890613e+01
1.446980293559311548e+01 -4.689708469857135076e-01 4.696227552407060557e+01
1.403582607131172999e+01 -6.418774846100281373e-01 4.701145787671136134e+01
1.317728012265371085e+01 -8.754541605869358145e-01 4.708302144950247481e+01
1.378353906641316584e+01 -1.162320844182642976e-01 4.695070051878965955e+01
1.335431346180646983e+01 -2.328544513907832014e-01 4.698646208762522747e+01
1.271664357699169301e+01 -9.341836627692040596e-01 4.711246858234729018e+01
1.353125481798074858e+01 4.094136677545499592e-01 4.688995539752611563e+01
1.243285611416087377e+01 -3.499369738122104501e-01 4.704532952370500709e+01
1.284043483866484259e+01 3.219265248028929660e-01 4.693398685716923779e+01
1.182288820641510085e+01 -1.001848542991945923e+00 4.716048858978954428e+01
1.198592455978159421e+01 -3.839026524648012084e-01 4.706937321198933688e+01
1.283554741314994985e+01 9.373373576496017989e-01 4.685107120679087700e+01
1.214904626664741905e+01 2.343663080628070050e-01 4.697820525422248039e+01
1.335384834185416736e+01 1.002753140087615735e+00 4.681804613506707113e+01
1.124271928814554222e+01 -5.881620290911541149e-01 4.713414139403656833e+01
1.231725119966432835e+01 8.719223441720564960e-01 4.688418562797176747e+01
1.363636633184061253e+01 1.075894644178561510e+00 4.679319334749556702e+01
1.078925755261860608e+01 -9.996980741891363653e-01 4.721219955501248222e+01
1.169572909210523548e+01 -1.770367448351869710e-01 4.705618512280980070e+01
1.317641232450116640e+01 1.596205289985960896e+00 4.674612376833584904e+01
1.145259823655297637e+01 3.839634523701532798e-01 4.699979241026709076e+01
1.047580068853645940e+01 -7.630418291516011253e-01 4.720070017193106793e+01
1.248541627733043313e+01 1.509323094314606317e+00 4.679018103905434600e+01
1.115404479952353611e+01 -6.102246665296747613e-02 4.707305389522339567e+01
1.061592473687242233e+01 -1.147777765821477863e-01 4.711110071588379355e+01
1.174325333102351365e+01 9.277738350598001560e-01 4.691084852452356557e+01
1.374147527161167126e+01 1.742374292808399172e+00 4.669642454544359111e+01
1.158207199017584976e+01 1.433256362774606218e+00 4.685377545802715105e+01
1.265349085336570312e+01 2.146378434958903902e+00 4.669621759584303788e+01
1.075607001780753080e+01 5.335821138791566609e-01 4.702148103478423735e+01
1.019364770046150070e+01 4.303809247324483916e-02 4.711941236440976866e+01
1.116926066528947104e+01 9.836261109615476173e-01 4.693758296254687679e+01
9.631706499924096221e+00 -4.470873026414216578e-01 4.721728203697157511e+01
1.199530499820707519e+01 1.883345699374920024e+00 4.676989923258221182e+01
1.099739220464325307e+01 1.202885507988197267e+00 4.692382905997553877e+01
1.014510484707676774e+01 8.901430298221028048e-01 4.703425510915275254e+01
9.302399260438980022e+00 1.546227501052201969e-01 4.718111823148399253e+01
1.123857184601865278e+01 1.871790669963225184e+00 4.682622551457746596e+01
1.059481841656146983e+01 1.551770773356563993e+00 4.691920411792641232e+01
9.186162246274431453e+00 -3.912037909422559911e-01 4.724812925961635557e+01
9.418640225222716822e+00 7.004593186519887382e-01 4.711410217895735286e+01
1.008092714180876115e+01 1.736645283915306592e+00 4.694312880480980255e+01
9.534880666580630049e+00 1.246289655664231333e+00 4.704708268901655543e+01
8.752257261695921997e+00 -9.522715458131943145e-02 4.726103489246099798e+01
1.062759239741248507e+01 2.227556938824794663e+00 4.683906944551708307e+01
8.475055386193313112e+00 2.945699697178267296e-01 4.724889525656929123e+01
9.004967483962170505e+00 7.704291535762832765e-01 4.714798536937376383e+01
9.096506724427213086e+00 1.835650490322274786e+00 4.707930068041908811e+01
8.914715516160148567e+00 1.150674198964400263e+00 4.713320564807820290e+01
9.767606449756723208e+00 2.210619533484405874e+00 4.696337695312108451e+01
8.294557626299967623e+00 1.055073192360775014e+00 4.721936030023418596e+01
8.519112613746854024e+00 1.527662319993548623e+00 4.716906795934001195e+01
7.674401403675800815e+00 9.594860704261163331e-01 4.730554351107762301e+01
1.703024351787170687e+01 5.039440731657658823e+00 3.051726153573778788e+01
1.688720879959566190e+01 4.426722432063122881e+00 3.029444987156807301e+01
1.650163743676705508e+01 5.092867569327976796e+00 2.989236561480592869e+01
1.634600468598445744e+01 4.061510032030911432e+00 2.961816466302785145e+01
1.744473464951075670e+01 4.463563034663837747e+00 3.097003692509020922e+01
1.674431569280866583e+01 3.814356380045105244e+00 3.007258606302090342e+01
1.709919022920187359e+01 3.962900638896230454e+00 3.051065621363227010e+01
1.739500753003007816e+01 5.158735869582182332e+00 3.096907398803296374e+01
1.717306652463112826e+01 5.651115770924174164e+00 3.074240473159523290e+01
1.754465404314580113e+01 5.675196730024694602e+00 3.119412463645946332e+01
1.681245471168356431e+01 5.523648140111415472e+00 3.029785782266451122e+01
1.691689817844632415e+01 6.073562229747647478e+00 3.047049868653432014e+01
1.651744937370205335e+01 5.884353017738448877e+00 2.997804264344534175e+01
1.731585468844907894e+01 6.262540201528853601e+00 3.096727720791154681e+01
1.794545495873192209e+01 5.258080329481723325e+00 3.170870206323543172e+01
1.777346974371468846e+01 5.087791536339250520e+00 3.142097397467756892e+01
1.793129681379376095e+01 5.888946007582461561e+00 3.181106785485843247e+01
1.800226547699751478e+01 4.500404705743822120e+00 3.164512168672831294e+01
1.660138448471746386e+01 3.201485297355252335e+00 2.984885622033858255e+01
1.623069495335873924e+01 3.134261390137677239e+00 2.939999588903922856e+01
1.600290613374307824e+01 3.680065442025372224e+00 2.917504208693196333e+01
1.700166865806865601e+01 3.348640988249847794e+00 3.034298128087996815e+01
1.685843795440250048e+01 2.736244509378416456e+00 3.011885240103922357e+01
1.737929908841625704e+01 3.594780799187229370e+00 3.081660128481242111e+01
1.779165429465297521e+01 3.792766592711802609e+00 3.133126667074250449e+01
1.645858899482587034e+01 2.590781405386740399e+00 2.962495662048515044e+01
1.725902279342991363e+01 2.882734725761165961e+00 3.061324919152990276e+01
1.765919390550592638e+01 3.029897896604969443e+00 3.110671448645669201e+01
1.805981314423689810e+01 3.177036264663705367e+00 3.160166815428114973e+01
1.823144437329781908e+01 3.911998508862176038e+00 3.187064161568816090e+01
1.711688756207555429e+01 2.147755140194384627e+00 3.043198083452494274e+01
1.664352297607238285e+01 2.051590106478624165e+00 2.984824698530225717e+01
1.601874601279000032e+01 2.476248918181140901e+00 2.914803247361195204e+01
1.828551968392716987e+01 4.560182530536573076e+00 3.207661927450953243e+01
1.826861550857150007e+01 5.284442264085716268e+00 3.219244661966066445e+01
1.862293690391448209e+01 5.267540459994004109e+00 3.271424860635600851e+01
1.856877404024206157e+01 4.619980782485297865e+00 3.250816662710919047e+01
1.828251163910174526e+01 6.009132615703894231e+00 3.235428721315569334e+01
1.846265112219715476e+01 6.436285112599628988e+00 3.270433690659343284e+01
1.867712589067151185e+01 5.915254168275724034e+00 3.292053545795460678e+01
1.851462576848468800e+01 3.972426751028497627e+00 3.230228469128229563e+01
1.758937829136136699e+01 2.287985026295868973e+00 3.101557121115486026e+01
1.621502892148731334e+01 1.985601611264741218e+00 2.936749173444909999e+01
1.846042463949257595e+01 3.324041374491870204e+00 3.209639814820010173e+01
1.792157352657050140e+01 2.661943120752579883e+00 3.142743977040155912e+01
1.828113369089746598e+01 2.752005690278166661e+00 3.187111005996183621e+01
1.792214540405705847e+01 1.605761406932253887e+00 3.142057020068831719e+01
1.737533586137151076e+01 1.559039394984499172e+00 3.074698889276393388e+01
1.810148923921983410e+01 2.178703997899066991e+00 3.164554833701038916e+01
1.908616729059257366e+01 5.298064342748052269e+00 3.333522933775396524e+01
1.873142042140009877e+01 6.564074640454292009e+00 3.312729968665711056e+01
1.880600154267918356e+01 4.059239906696303635e+00 3.270688408090392585e+01
1.878017715283099776e+01 3.473690111330727692e+00 3.255158107521904753e+01
1.682853370991733399e+01 1.512079249492880084e+00 3.007090315106504619e+01
1.582468266965867798e+01 1.922444634654312923e+00 2.894375643031549572e+01
1.597161126556040678e+01 1.380688923307718863e+00 2.910977688407384179e+01
1.642317454170702362e+01 1.378855791074233617e+00 2.961813276618968516e+01
1.846122514572038753e+01 2.255682501768069947e+00 3.208133745047020113e+01
1.864070118680085386e+01 2.734868581203735438e+00 3.230534498282349176e+01
1.774251942495979861e+01 1.034111247244876353e+00 3.119548953499965549e+01
1.900622522806047243e+01 4.473405896742429277e+00 3.305828368067037815e+01
1.897113231968949876e+01 6.030691147968885168e+00 3.333458367038799963e+01
1.849147564189869541e+01 7.022772284697833989e+00 3.286144406573768606e+01
1.548442996687741946e+01 1.558660825266661609e+00 2.857806072344428827e+01
1.665167920400678980e+01 9.584837136953292536e-01 2.988710789850102501e+01
1.846180655504265289e+01 1.580657071143933612e+00 3.207212387249096253e+01
1.882098391731380360e+01 2.143927412671148947e+00 3.251439730191200539e+01
1.742619613553997837e+01 9.545901432198700132e-01 3.080603214105234500e+01
1.701359137488367068e+01 9.723873504927622591e-01 3.029525951312137266e+01
1.909978372400655644e+01 3.623275204509143865e+00 3.300657317869165297e+01
1.904028463069282395e+01 6.584958148743757178e+00 3.354141048156711946e+01
1.878574546276210100e+01 7.213086426293890518e+00 3.333422823042739935e+01
1.624904250165025843e+01 5.712624039290167266e-01 2.944457062923852675e+01
1.674786912207513367e+01 3.822394307387897427e-01 3.001360163383845503e+01
1.809458524656214706e+01 1.138329063520812756e+00 3.162211262083537378e+01
1.902288721492818979e+01 2.829728636527550911e+00 3.284335209690406998e+01
1.941244451982612773e+01 4.610469945719945173e+00 3.362568141193619908e+01
1.941920606459860466e+01 3.772779701359572080e+00 3.346131503109288730e+01
1.929470694183386925e+01 5.957120280242379273e+00 3.374863096512876837e+01
1.572820751167769693e+01 7.757755898054355947e-01 2.885127859194447808e+01
1.522729701599828367e+01 8.147557143877540708e-01 2.830675808844793195e+01
1.586097761509056703e+01 1.840819930490296130e-01 2.901848672064096135e+01
1.609812105137816474e+01 -3.034929481093465720e-01 2.930138618219764268e+01
1.719882188792745481e+01 4.321667439199236016e-01 3.052115512757459115e+01
1.756318461533442488e+01 4.632477813290260538e-01 3.097107258147893916e+01
1.795872733659123810e+01 5.609561141464052270e-01 3.144980413865634006e+01
1.652647080429225923e+01 -2.382099936430981391e-01 2.978296135105018649e+01
1.900146842859890128e+01 1.555540796651397217e+00 3.272374065861056636e+01
1.833939876342537190e+01 7.560741331370470775e-01 3.191227400655349200e+01
1.954940038823605519e+01 5.328615047796142257e+00 3.395620663605922829e+01
1.930376893756532297e+01 3.251934500672812867e+00 3.326377411133212547e+01
1.922650839678556522e+01 6.887872479964271655e+00 3.396807374695577408e+01
1.935833458794195394e+01 6.409492925240203753e+00 3.402012667710896210e+01
1.548480980071506075e+01 1.708532472492396148e-01 2.859420981827632957e+01
1.695505091557589594e+01 -1.728999257133360667e-01 3.026480241800183535e+01
1.738387866753893363e+01 -1.075624997359301699e-01 3.074701632628676506e+01
1.777919858184733570e+01 -9.925876631515612517e-03 3.122503026863092401e+01
1.925883476761577384e+01 2.091177968486490180e+00 3.311938293288662294e+01
1.875001264545566215e+01 9.013097109203561663e-01 3.241035069487152498e+01
1.941597983654409632e+01 2.737644353406796682e+00 3.338324748622109439e+01
1.960597689290077383e+01 3.328933860317826454e+00 3.368938464087523244e+01
1.973869270792537023e+01 3.922314121893726302e+00 3.391615597087768208e+01
1.905310120041107425e+01 7.424599211878656568e+00 3.386632619063836103e+01
1.871749340803918216e+01 7.770470502734905693e+00 3.352268007903020219e+01
1.962594199413616636e+01 6.011416151653816264e+00 3.433259955835201538e+01
1.950514013559384807e+01 6.745150961115601973e+00 3.439145930535926965e+01
1.980382075340109438e+01 4.700792526743804878e+00 3.416369541915384644e+01
1.566976264507011152e+01 -3.687830508999737633e-01 2.881980045719605599e+01
1.638492399996526672e+01 -9.358258444485768601e-01 2.965688153196531829e+01
1.711414069730932752e+01 -6.249865559475231702e-01 3.046659434298681646e+01
1.673462838230919658e+01 -6.486155101527564248e-01 3.003863220015682955e+01
1.817493554595252192e+01 8.779878652666728289e-02 3.170408167072832839e+01
1.857067055323826565e+01 1.855110874668603749e-01 3.218334108604093302e+01
1.930107006907953604e+01 1.492512986252636287e+00 3.313574240213564792e+01
1.918166511189551215e+01 9.683241095234739193e-01 3.293278330065328419e+01
1.896649105445737149e+01 2.832328919611231677e-01 3.266282651708485218e+01
1.932032979254278615e+01 7.636017859266213570e+00 3.439833913798236154e+01
1.979060723995091564e+01 5.273462676519755199e+00 3.434726685043909100e+01
1.898481331740509148e+01 7.981765154361404768e+00 3.405462567308263289e+01
1.499617085547913575e+01 1.791684168562429624e-01 2.806150600785213811e+01
1.587833349076666956e+01 -9.618575911115812005e-01 2.908476542218943450e+01
1.524141699883026746e+01 -4.340754310468383226e-01 2.833822618736369137e+01
1.757908890010062919e+01 -7.327303735770547277e-01 3.102301501994692501e+01
1.971020748854703442e+01 2.222667775809870516e+00 3.375609386874515394e+01
1.799428208735325896e+01 -6.977443772071055816e-01 3.152985814710976342e+01
1.947806875298305584e+01 9.948632496211635701e-01 3.334663253554597162e+01
1.959417016261613043e+01 1.608391301415504682e+00 3.355136508866553413e+01
1.936192047331035226e+01 3.808497716150081591e-01 3.314191220123950643e+01
1.877266250681395121e+01 -2.663183494900256409e-01 3.245829658854680844e+01
1.994236683058646520e+01 3.456170866229850702e+00 3.416609181170297660e+01
2.005862017904165029e+01 4.072056706790685432e+00 3.437163005114562964e+01
1.982625548733673781e+01 2.841631722302410346e+00 3.396096586689719032e+01
1.973302472252002104e+01 6.483882641601156571e+00 3.468554802280347360e+01
1.995717624108909760e+01 6.065733375516678905e+00 3.491665746425483974e+01
