2.034111641339277909e+01 -2.665876453926064205e+00 3.477529495117393310e+01
2.100717595539795113e+01 -1.395675453294196622e+00 3.572128867533277941e+01
2.136212635181319186e+01 -5.119064760354088417e-01 3.632650493228272381e+01
1.817751358747810642e+01 -4.806710408695842318e+00 3.213572634942651973e+01
1.858828486082705922e+01 -4.834858227904488714e+00 3.263197084900556177e+01
1.929515253991177914e+01 -4.785306747221786061e+00 3.356979697799391005e+01
2.173051618801067164e+01 4.394890387041424873e+00 3.788214610305707453e+01
2.181213205646566067e+01 2.462235811296885402e+00 3.754402268370353823e+01
2.038760938334001693e+01 9.122622588936511789e+00 3.739060683438221133e+01
2.017394994638517147e+01 9.645504292312004679e+00 3.757368370707139604e+01
2.071843929648609262e+01 8.673535781056527227e+00 3.775888156208515767e+01
2.170933607802825449e+01 5.932993474951219204e-01 3.708402276641145789e+01
2.144898982640489749e+01 -5.916632678508181031e-02 3.652964758408447210e+01
2.170332895898905790e+01 5.038253162147914743e+00 3.799730170156422560e+01
1.894198300880659858e+01 -4.810062716436286578e+00 3.310123560958549405e+01
1.964820140434917661e+01 -4.760560786638110109e+00 3.403819608597483182e+01
2.107418902275509254e+01 -1.952962630583249704e+00 3.582958485389257675e+01
2.129713657372027313e+01 -1.124918718597712530e+00 3.615350346451754859e+01
2.098011643259241410e+01 8.119508337517174823e+00 3.816753195042931424e+01
1.979857372848196206e+01 1.021699899460477567e+01 3.725101066206457290e+01
2.164435163881188728e+01 -1.503226289137061730e-02 3.691117004931651735e+01
2.153137275949742957e+01 6.309488968123764252e+00 3.826454459324879309e+01
2.138664582683931314e+01 6.937153913154215701e+00 3.841855114503297841e+01
2.167614631750008414e+01 5.681762380258712497e+00 3.811051764846341428e+01
2.033269879318465456e+01 -3.109694137155564864e+00 3.480145391784489561e+01
2.015316979789731278e+01 -3.485482543237242048e+00 3.456092352996930828e+01
1.989059326935946714e+01 -4.061634629169432742e+00 3.427880046249818236e+01
1.906798457394178925e+01 -5.607836563941608787e+00 3.338746099796865963e+01
1.941435437363917416e+01 -5.342682257825859260e+00 3.381145044624595641e+01
2.090047458986515139e+01 -2.486380484571828919e+00 3.561177766902293484e+01
2.144904634983470260e+01 -1.850296177461407732e+00 3.639170408698058168e+01
2.192095855914901037e+01 3.927685127362744666e+00 3.821629352266476332e+01
2.202649209409875297e+01 2.122506688714343337e+00 3.796948894007749686e+01
2.051831975050757251e+01 9.130019695664984170e+00 3.787044101145091446e+01
1.996028266789903327e+01 1.016881495395779922e+01 3.775690121364679186e+01
2.196308684729298122e+01 1.082898417996356333e+00 3.765639397944642752e+01
2.214570833688032181e+01 1.368479740983771009e+00 3.818136613851307715e+01
2.151414546369214875e+01 -1.237682339264504883e+00 3.656485035214297596e+01
2.186553382462777151e+01 1.707783165904269984e-01 3.739695694691933170e+01
2.196582371499936670e+01 4.503226328705907555e+00 3.848593204660647160e+01
2.124180427340045441e+01 7.565482212185300703e+00 3.857271813352715384e+01
2.083534227409180772e+01 8.747811591395107556e+00 3.832202310547780399e+01
2.060858089869109477e+01 -2.900570203707869332e+00 3.520342688309008850e+01
2.157928733440349234e+01 -6.242546805432370727e-01 3.673811196513158706e+01
2.122997424871636341e+01 -2.422723440398530936e+00 3.610822016211229624e+01
2.182091284533499120e+01 5.092771497389492197e+00 3.829814548685620679e+01
2.202038058732033221e+01 3.216076653868716217e+00 3.825933786176490514e+01
2.221924156170189235e+01 1.850015171711303141e+00 3.844335242482777204e+01
2.187861390092720271e+01 -6.501801517507783679e-01 3.738046399266278286e+01
2.208670994507402696e+01 3.565191453104639141e-01 3.788275198762620732e+01
2.038574123792887960e+01 9.532807034292096304e+00 3.812763641250956681e+01
2.109698693535291270e+01 8.193922310640937567e+00 3.872691174111541557e+01
2.059753994731338622e+01 9.420134507620755215e+00 3.869241565067295596e+01
2.095229165083609146e+01 8.822129952452485213e+00 3.888104802141526761e+01
2.153479484078301454e+01 6.790195279436302300e+00 3.884215120983107283e+01
2.047254382620355528e+01 -3.526425049070598394e+00 3.505113028314432455e+01
2.025366551242539970e+01 -4.098206452632202179e+00 3.476785544576482323e+01
2.221056477642066440e+01 -3.716353881545009785e-01 3.810959030181199836e+01
2.171366121895759349e+01 -1.110846634649012010e+00 3.700077285364689317e+01
2.174610558197359111e+01 5.892574093696572923e+00 3.863927933645729951e+01
2.118595967137427039e+01 8.194547528831026995e+00 3.908550343966065554e+01
2.141935188840163562e+01 7.567829843570364368e+00 3.928958277536536770e+01
2.151479807899281482e+01 -2.469599134998517354e+00 3.659742510527874515e+01
2.101086983232058003e+01 -2.995232682081274689e+00 3.582468488288937891e+01
2.057311780688049296e+01 -4.139038029720307321e+00 3.525817687762567232e+01
2.079191711723881042e+01 -3.567336526498229077e+00 3.554133584219513864e+01
2.167064456561450214e+01 -1.662412323545475301e+00 3.687843061097579067e+01
2.211069571123994137e+01 3.913879044718254985e+00 3.867358658656109327e+01
2.193932866557766559e+01 5.106463159839814026e+00 3.888970119451232677e+01
2.221366111950341704e+01 2.429991071929809454e+00 3.850928498611500572e+01
2.220551469416738755e+01 6.709328477536050661e-01 3.824262000050031673e+01
2.237864959519722063e+01 1.451829305864383635e+00 3.881018809752514898e+01
2.189177869537011389e+01 -1.474851092422913679e+00 3.736415763973512583e+01
2.181610972846113228e+01 6.103570854229159792e+00 3.916819695146472924e+01
2.189558488190282759e+01 5.594394195316348295e+00 3.910697998865934721e+01
2.024299149823652044e+01 1.001804720399738891e+01 3.849978069249939949e+01
2.069010547059384209e+01 9.314149659007865623e+00 3.905043675119874536e+01
2.165261752679441187e+01 6.941546807476262515e+00 3.949334955986677187e+01
2.035418542017997723e+01 -4.711081531276583689e+00 3.497483740466169166e+01
2.130472314389923127e+01 -2.946721994501308561e+00 3.631463295740700659e+01
2.087192055009668223e+01 -4.091912814520215491e+00 3.575672724118376777e+01
2.207174230487068911e+01 4.425435634908547300e+00 3.893540175636270106e+01
2.225584010570369387e+01 3.323482435342248298e+00 3.886147461987559382e+01
2.093186624507640659e+01 8.922665761930471007e+00 3.960520071542298126e+01
2.211287252530368619e+01 -1.287205776914148947e+00 3.784982093338032172e+01
2.236756481476765046e+01 8.102644533750906763e-01 3.869318214651271148e+01
2.235648093066444630e+01 1.749997553798748051e-01 3.857421700947032406e+01
2.042840662863569889e+01 9.805646839376771950e+00 3.921964630178099043e+01
2.120715860885677273e+01 8.170029574077425139e+00 3.963188567415440389e+01
2.115514559970120700e+01 8.345704263068837392e+00 4.017102184643493246e+01
2.069378231810913960e+01 -4.615149655417304153e+00 3.553499957384274666e+01
2.222935567501844289e+01 3.926215252727326188e+00 3.926498504563114977e+01
2.214357809133382915e+01 4.522977942974650389e+00 3.937298142706336535e+01
2.205774453996245654e+01 5.120235909824851106e+00 3.948104716737513087e+01
2.240083681785048952e+01 2.733773237848811988e+00 3.904901683021957837e+01
2.068006575647013179e+01 9.364156599177588802e+00 3.941247950858336679e+01
2.188613861021264384e+01 6.314653587070160334e+00 3.969714423506506051e+01
2.164225822042851632e+01 6.992082902514270337e+00 3.985522717494952616e+01
2.139871787027827921e+01 7.668741185256164883e+00 4.001310030265706530e+01
2.238973932832065827e+01 2.094922818155193767e+00 3.893005613233528095e+01
2.234538658242104248e+01 -4.615398292882262887e-01 3.845527079206727450e+01
2.233427871384413876e+01 -1.099082558309978364e+00 3.833620235466059256e+01
2.197192222219706892e+01 5.717526578982194962e+00 3.958911408370498464e+01
2.057576958606424000e+01 9.612018351587792608e+00 4.007218980073685799e+01
2.091145383057693508e+01 9.023278160381588364e+00 4.032907258963737718e+01
2.002779985451085665e+01 1.045660679899164158e+01 3.884935395611717013e+01
2.024073730803402071e+01 1.020018713384876285e+01 3.981519738609582504e+01
2.016711466207038583e+01 1.029695831716225740e+01 3.938879522503959407e+01
2.179589083199613953e+01 -2.520949569465033235e+00 3.724114647075047202e+01
2.158060036610233823e+01 -3.089368315650737440e+00 3.680330848402631716e+01
2.119183507863023763e+01 -3.709205515892020966e+00 3.623983777725916866e+01
2.233940216897924103e+01 4.058525424636989953e+00 3.987425811943958820e+01
2.231507989530925329e+01 3.329967465663401960e+00 3.915704393351835222e+01
2.236824848337204585e+01 3.569122669435000450e+00 3.959743900320716392e+01
2.141279191770615498e+01 7.668988622737499483e+00 4.084648688282518236e+01
2.116222578929081166e+01 8.345732639409307652e+00 4.058806103527678033e+01
2.251133728092042574e+01 2.012100207268739727e+00 3.931606454233530457e+01
2.262190935015741289e+01 1.285659244276884827e+00 3.958497982269702931e+01
2.198848402790959611e+01 -1.933308911982815292e+00 3.762565990489660095e+01
2.220973048377908299e+01 -1.745598435563914030e+00 3.811167131550264031e+01
2.103330740531871612e+01 -4.519158206129104016e+00 3.609502955787854717e+01
2.222238901058892679e+01 4.974500472248212901e+00 4.010640888079035449e+01
2.245333126077039054e+01 3.034002941419430943e+00 3.953742756317386409e+01
2.250582973558010380e+01 3.334567006986607574e+00 4.002584939113256723e+01
2.177472825052389283e+01 6.653531815900427304e+00 4.040048578795828149e+01
2.205438564408428803e+01 5.644063545606536891e+00 3.990198657381635172e+01
2.193137705501817436e+01 6.055643385955151281e+00 4.037958815401670165e+01
2.061787222461211400e+01 8.984522151489992225e+00 4.074398642058008591e+01
2.049333827500639060e+01 9.456516091265998014e+00 4.039145298606373302e+01
2.007586596049960193e+01 9.889401670296846802e+00 4.045371181393796434e+01
2.256119689280960827e+01 2.253888413689907111e+00 3.975603168145477184e+01
2.249966347858572036e+01 -2.153148504852043787e-01 3.899134032520242954e+01
2.250396379339959907e+01 -7.877686995298801564e-01 3.893101975412757554e+01
2.238624365313129161e+01 -1.732762681166047258e+00 3.854761171958670474e+01
1.999143268697945430e+01 9.634129080115737764e+00 4.083733828262736409e+01
2.032456258574776342e+01 8.945828296626547882e+00 4.115851677600411307e+01
2.077088273642879557e+01 8.294457677509779359e+00 4.114059442104894515e+01
2.176657869812310864e+01 -3.152237933083489985e+00 3.723183782459338431e+01
2.164635090265588246e+01 -3.708648834440274822e+00 3.700903461300389807e+01
2.239036417266315482e+01 4.305098120930871630e+00 4.031065048021950759e+01
2.184231027010977400e+01 6.320973543060712352e+00 4.098649814238579836e+01
2.202137292367233812e+01 5.649341449192321285e+00 4.086857637470360771e+01
2.208259343306888312e+01 5.473371479615884994e+00 4.040065418119657181e+01
2.166320530927649202e+01 6.992850259667627633e+00 4.110444604194183427e+01
2.121700667862486256e+01 7.643618296653398758e+00 4.112258750429791831e+01
2.047586072333518814e+01 8.661792216983130288e+00 4.167426535043450286e+01
1.974560077139681979e+01 9.483823564082230817e+00 4.127683873524270552e+01
1.916753123880077680e+01 1.002134202372562299e+01 4.139501881471505840e+01
1.987773149844854004e+01 9.332504586262711399e+00 4.156809887399838033e+01
1.943076782309102768e+01 9.719380211262077296e+00 4.197791330713874913e+01
2.255506452381656501e+01 2.766598099027920643e+00 4.000683604135742399e+01
2.257859420238600379e+01 3.041909485121168100e-01 3.931683857782280711e+01
2.265336802034090269e+01 2.369669728222922434e+00 4.038245305596085899e+01
2.270083543647039903e+01 1.737841293465644865e+00 4.031549993287854505e+01
2.208518665775110534e+01 -2.391747958571042165e+00 3.788716103368729904e+01
2.137279792583707305e+01 -4.423113184762978101e+00 3.665499084402127039e+01
2.196080688712978457e+01 -3.036881805433201187e+00 3.766295299240220373e+01
2.252933505577923157e+01 -1.579370120075819228e+00 3.905362654369648112e+01
2.267345411856801363e+01 -4.769454519681749494e-01 3.952519894641081066e+01
2.262980162534141826e+01 -1.101934066728275097e+00 3.939404736654780947e+01
2.183642485638043951e+01 -3.681942061426022761e+00 3.743874556881645077e+01
2.220034750811397473e+01 4.978116170924595352e+00 4.075070067331579793e+01
2.255838531869300567e+01 3.635557000154709950e+00 4.051477901765137801e+01
2.209821876245569783e+01 5.734038758346120979e+00 4.133909875466908801e+01
2.188080051051806407e+01 6.363155193510532825e+00 4.122188216068975919e+01
2.131781802452056240e+01 7.454551202695342660e+00 4.146610567258795044e+01
2.097233860655919102e+01 7.916416288728317596e+00 4.182789393435697889e+01
2.149935819281365212e+01 7.048046692360092180e+00 4.206706838325225561e+01
2.175769968616170402e+01 6.405216060986762550e+00 4.194366196627707666e+01
2.007964204132162678e+01 8.953608463571843146e+00 4.225535839573815622e+01
1.858969744344470243e+01 1.055933149328096654e+01 4.151330251983220165e+01
1.898455582744039916e+01 1.010573437873824254e+01 4.238719797522200849e+01
2.273260589693923350e+01 5.579066950468046793e-01 3.985274784475024035e+01
2.279730591683553698e+01 2.233208955131556372e+00 4.090542414512371039e+01
2.274826717570774193e+01 1.104367589598402866e+00 4.025127750392894654e+01
2.226663111782800186e+01 -2.291444461308589808e+00 3.832388272815006758e+01
2.118738276601620640e+01 -5.304231877587558763e+00 3.655016470106931337e+01
2.171201511360871805e+01 -4.327096396992390126e+00 3.721449185092432543e+01
2.204378768329363680e+01 -3.507749355112589118e+00 3.793003506343259801e+01
2.223057981898207203e+01 -2.926144465662532390e+00 3.831724842420922528e+01
1.953184072199479715e+01 9.529772386950018159e+00 4.232129819171028373e+01
1.517603827376069248e+01 -1.503996300841966338e+00 4.660418817453694373e+01
1.542840230867864726e+01 -6.930285158730475903e-01 4.684180974918952955e+01
1.483651273579386931e+01 -9.626228869335219374e-01 4.690877541056254074e+01
2.237935441038965223e+01 4.306842248390195138e+00 4.063277649858994067e+01
2.201643230141740304e+01 5.761422748589263954e+00 4.182004879907629658e+01
2.227478861807240307e+01 5.118575055520272699e+00 4.169658324754643530e+01
2.231564886168477813e+01 5.104950264554687145e+00 4.145616198234728245e+01
2.106292687270152086e+01 7.713400146663548895e+00 4.212840870981248287e+01
2.062714744394833133e+01 8.377937795457928161e+00 4.218942358476546417e+01
2.260586856330875349e+01 3.002603410872080936e+00 4.044869720184284034e+01
2.284319711482896764e+01 -1.660715376041300151e-01 4.012031988239046143e+01
2.279571588164488460e+01 4.679338534626564239e-01 4.018670715889375344e+01
2.243815291609070073e+01 -2.365700238845823478e+00 3.875879469432258873e+01
2.144967311212085193e+01 -4.815716936699153017e+00 3.688230245924663109e+01
2.191935257139635240e+01 -4.152916362059394295e+00 3.770570454091782153e+01
2.278291775587827672e+01 -8.577846630282306428e-01 3.993231606005628720e+01
2.272256313467755362e+01 -1.550684540267621259e+00 3.974410176079009460e+01
2.233445235106459847e+01 -3.804001555179620908e+00 3.868918807065521293e+01
1.895962139416413450e+01 2.105773118004688360e+00 4.563812061536092557e+01
1.888380512761921892e+01 2.817768589205543961e+00 4.580069456137743344e+01
1.854921977047725790e+01 2.300566818349238485e+00 4.598003371919397608e+01
1.821453835382714459e+01 1.783247765326223089e+00 4.614743906764533676e+01
1.862515138116968316e+01 1.588209782649303570e+00 4.581862122046206309e+01
1.914491618378526994e+01 3.383238342299481616e+00 4.561530829699075440e+01
1.960638967607160055e+01 2.738101051326249813e+00 4.509043086715843884e+01
1.932101996888038542e+01 2.066362396830101922e+00 4.527877508697800124e+01
1.978160709446895993e+01 2.121699516902798788e+00 4.506100313665996993e+01
1.903546390509350061e+01 1.394204763034049943e+00 4.547613176547366010e+01
1.958385185079381685e+01 1.140504066368535518e+00 4.524743854017861366e+01
1.846773063993341069e+01 1.045138803466742949e+01 4.270430896453098768e+01
1.845711649667188681e+01 1.030415418723418419e+01 4.316968459809549330e+01
1.952204158816890356e+01 9.382128205195630954e+00 4.278622308977947597e+01
1.896891638551854342e+01 9.884922705724671133e+00 4.308518748354331507e+01
1.942903646427298270e+01 9.356439539594047616e+00 4.299263679824228745e+01
1.737990282871459158e+01 3.025205004105399609e-01 4.630454344061758576e+01
1.739953779149886515e+01 8.621182042296344772e-01 4.643147348522780504e+01
1.693588841734173300e+01 4.483349799798475033e-01 4.654696248520340873e+01
1.825021526268574945e+01 1.005210840622342783e+00 4.595847464750182354e+01
1.784281999504939975e+01 5.447904721933221062e-01 4.610157724426116488e+01
1.828586186624251297e+01 2.285348408501065576e-01 4.577131577119000383e+01
1.866062633786400227e+01 8.113017604145210671e-01 4.562579791539650387e+01
1.780726533589091787e+01 1.322932196147327488e+00 4.628843619206519122e+01
1.917271476011127618e+01 7.368180651099434098e-01 4.545417671958112038e+01
1.595026713934778329e+01 -3.292771640989635706e-01 4.675230473117115082e+01
1.582933101967397072e+01 -1.178799909671512713e+00 4.654788237886812396e+01
1.647219335719855238e+01 3.451932697638281089e-02 4.666309219967304500e+01
1.639157524410496691e+01 -5.318855602815544259e-01 4.652636910412455507e+01
1.690647266401096971e+01 -3.907322568252349915e-01 4.635762996519647317e+01
2.254575654178336919e+01 4.055606073124971900e+00 4.104391673376373717e+01
2.253312715332753413e+01 4.475781380305352997e+00 4.157307275793753831e+01
2.111592859653295307e+01 7.465468963759676946e+00 4.231399179264276711e+01
2.169383139336893151e+01 6.460628600047205516e+00 4.216307417125005941e+01
2.118666265618440647e+01 6.804940235412378691e+00 4.267844500939441588e+01
2.007463930191870460e+01 8.879954635681048813e+00 4.248773403999968679e+01
2.034943267270145739e+01 8.299945967442894812e+00 4.280762680807586662e+01
1.988919665010921989e+01 8.828170515279639474e+00 4.290014210573187370e+01
1.988898554653194850e+01 8.726614122208724567e+00 4.308856616727726419e+01
2.007322048312408214e+01 8.122262626036086175e+00 4.333062051884024157e+01
2.044477716661340594e+01 7.682670005473354990e+00 4.311299058670996942e+01
2.073239783942617365e+01 7.883010726744374530e+00 4.256098593624073345e+01
2.062835613701604132e+01 7.801830260583422216e+00 4.276466845439398412e+01
2.041259348343028535e+01 7.010531859623808870e+00 4.355808764121210430e+01
2.033257065409432940e+01 7.571451187096271518e+00 4.329787047542495770e+01
1.997464531262877685e+01 7.549599630883198742e+00 4.388383632076779151e+01
2.022617495493857476e+01 6.794197861579958087e+00 4.387807367191186358e+01
1.958633221338659780e+01 8.205805939556766404e+00 4.394625139915953582e+01
2.085055552087602848e+01 6.471444092118774805e+00 4.323227685027462996e+01
2.059162491182786425e+01 7.021303948332485945e+00 4.326509901463236929e+01
2.081574474236845873e+01 7.243774055013610713e+00 4.289570634600706001e+01
2.270083358659750772e+01 3.260530236322217057e+00 4.148062872972155901e+01
2.267782276217350201e+01 2.934498667446590936e+00 4.071023207261368526e+01
2.031348857320251255e+01 4.266335371888885675e+00 4.441412340650593649e+01
2.025447829452031101e+01 3.382435737577653700e+00 4.462884492141103721e+01
2.061746532222145234e+01 3.803749191975875465e+00 4.428154929812487239e+01
1.996996909940306963e+01 4.139847765324020656e+00 4.468949979684200002e+01
2.057806223336395490e+01 3.214623817844747045e+00 4.442571881010197643e+01
1.940600969700522072e+01 3.948708765582819247e+00 4.542995317616423989e+01
1.978817181405559822e+01 3.438874253512140822e+00 4.489046311651368626e+01
2.002299121949236493e+01 4.820940326736751658e+00 4.457431517245660757e+01
1.950619930880557007e+01 3.343103885699604483e+00 4.525598503359024249e+01
2.278467508078167469e+01 2.653027320705912739e+00 4.143426663458001258e+01
2.285290804907301165e+01 1.233810046171738062e+00 4.072002615795835112e+01
2.291664987879732607e+01 1.532792544924414635e+00 4.109969744064722619e+01
2.168405484232134128e+01 -5.059773231115485714e+00 3.742946960193089012e+01
2.266226886525301509e+01 -2.243030244866284217e+00 3.955609221290423250e+01
2.248998131596301064e+01 -2.997623996592733597e+00 3.896964955048019874e+01
2.212676669435237287e+01 -3.978616022031147281e+00 3.819711513699838434e+01
2.007234058118767805e+01 2.681993082470183420e+00 4.482962846830634618e+01
2.053867850392148853e+01 2.625838518229849594e+00 4.456816469046838591e+01
1.957586109608844538e+01 4.547651727013896306e+00 4.526424822801404702e+01
1.995704342370810380e+01 1.504481900734535138e+00 4.503988175410545125e+01
2.040333114843560125e+01 2.046057754654669658e+00 4.470676635348052486e+01
1.886612766662557306e+01 -1.746004507464871958e-01 4.557997062574702340e+01
2.065686735313012434e+01 4.392896378444491212e+00 4.413661360395430933e+01
2.036652769951324515e+01 4.947650694528276105e+00 4.429653086947262608e+01
2.056728563181656000e+01 5.216134130875841990e+00 4.400453241157003248e+01
2.027716226399736144e+01 5.770860142051054353e+00 4.416411354138929113e+01
2.007612312767448870e+01 5.502627290862633913e+00 4.445666225438522901e+01
1.940585664858971171e+01 8.185312213530663072e+00 4.429522167109736586e+01
1.997380111792284652e+01 6.187063118075776913e+00 4.438292421633922658e+01
1.983997443499406188e+01 6.367564002116440136e+00 4.487286445107816490e+01
1.987155168564314422e+01 6.871125786038779104e+00 4.430953296876087677e+01
2.017484161139498156e+01 6.454567374017244674e+00 4.409084534389721455e+01
1.794786745388984173e+01 1.072332706234025856e+01 4.325449723119844947e+01
1.963554830959022723e+01 8.492401801630588665e+00 4.366974815984962532e+01
1.919779528514082045e+01 8.863243091481178837e+00 4.400947416030081172e+01
1.781371775011941949e+01 -2.927342162073927612e-01 4.591140766543721696e+01
1.835265661774000989e+01 -4.794599237774385125e-01 4.575921569921980137e+01
1.772292679586417918e+01 -1.175578531888507028e+00 4.594625946071126776e+01
1.631093016139252683e+01 -1.098094969926989961e+00 4.638999788157748583e+01
1.623029445538823623e+01 -1.663855479662116998e+00 4.625407078205103062e+01
1.557679977568292706e+01 -1.989173756514359015e+00 4.631069189671265462e+01
1.678556153005394691e+01 -1.239365972706623742e+00 4.615300830056869330e+01
2.047779085672928900e+01 6.038586253900235512e+00 4.387216710088425486e+01
2.099006474003999045e+01 5.820535191471153169e+00 4.332837997738575808e+01
2.090759282771808714e+01 7.303214069629579974e+00 4.272158657196400355e+01
2.139089457858680987e+01 6.084190089132183843e+00 4.278761659541899576e+01
2.112956002988353177e+01 5.169704178658712124e+00 4.342432563347105656e+01
2.116688051879970089e+01 5.861477266446466494e+00 4.315688591031702259e+01
2.148328902622263925e+01 5.251331869745362368e+00 4.308140846614140429e+01
2.126930985843049271e+01 4.517700818028449028e+00 4.352024829519601212e+01
2.179995732895245553e+01 4.640668438757753478e+00 4.300577441395912359e+01
2.159551626311617056e+01 5.362095957421591841e+00 4.289684304029529471e+01
2.208349512618212884e+01 5.283720488758223865e+00 4.235515298385374905e+01
2.188859721532588765e+01 5.872358320630647555e+00 4.225913552057413369e+01
2.145932201284546181e+01 6.278073927810022603e+00 4.262167462438353738e+01
1.970471562248653896e+01 8.608234602460628437e+00 4.343747663028187844e+01
1.992309259752165929e+01 7.210468604049929731e+00 4.409699496799788676e+01
1.963863129068931457e+01 7.528419476955785505e+00 4.430256049238798255e+01
2.261694566020498343e+01 3.868397097239473670e+00 4.152690498043593692e+01
2.200525688293962645e+01 5.223118377146374947e+00 4.250791114696746575e+01
2.173217340964077948e+01 5.750826973455671620e+00 4.256483565283792103e+01
2.089238524100468197e+01 3.715101510523379336e+00 4.409992566189712448e+01
2.096325175605590729e+01 4.455331408756361355e+00 4.382827926550729103e+01
2.130049701125652462e+01 3.798253235359849711e+00 4.368933815672239973e+01
2.146450862247902336e+01 3.938469450580963649e+00 4.353194287938660523e+01
1.974574694048942547e+01 5.146735972149265592e+00 4.511470874298645128e+01
2.165949317374982641e+01 3.359843808411371757e+00 4.354344202406428366e+01
2.133164637066452940e+01 3.079620032317845979e+00 4.385762557715121090e+01
2.112768098529454974e+01 3.037912424366945086e+00 4.406276313157857771e+01
2.276774065949503978e+01 3.039488726904649774e+00 4.193024366644513634e+01
2.286846711134529286e+01 2.045921423198799882e+00 4.138771666704608521e+01
2.265041947489367757e+01 3.757716314322526063e+00 4.175175278245013288e+01
2.290748821048302730e+01 1.668714904115225772e-01 4.051524119447767447e+01
2.297176970644652982e+01 5.024267823117790632e-01 4.090274234117570984e+01
2.195649799377849476e+01 -4.760365057984023096e+00 3.804699635904557198e+01
2.289212674803043157e+01 -8.364913234445123802e-01 4.031073604121981191e+01
2.235921002057929030e+01 -4.208583723714714786e+00 3.891661233264900943e+01
2.254181041407022335e+01 -3.629519222465197537e+00 3.918050793815957888e+01
2.073025192449993170e+01 1.874027220605209543e+00 4.454354147034113964e+01
2.013264953690229220e+01 8.866101847989891205e-01 4.501879144233231500e+01
2.026808013272744446e+01 1.466702729215343615e+00 4.486261159736429249e+01
1.931002055412226781e+01 7.907249276482748723e-02 4.542211750708366935e+01
1.978972566172022240e+01 1.536767259052735091e-01 4.521347631765058850e+01
1.975070126749089994e+01 6.967067540989594576e+00 4.479422297258140162e+01
1.966144659369102854e+01 7.566476334997644493e+00 4.471519515618626173e+01
1.933665080405911496e+01 9.094826731856951341e+00 4.354387667205266865e+01
1.942902388063208718e+01 9.153880164546027487e+00 4.336917639351070619e+01
1.896887932247869557e+01 9.582499026456682500e+00 4.364993413077817053e+01
1.979284477281582255e+01 5.756955793349975536e+00 4.499463935959798988e+01
1.833313300235135657e+01 1.030530364030629542e+01 4.349918715561549476e+01
1.832667762642769915e+01 1.015311855033533206e+01 4.378137208006669567e+01
1.736028488068173559e+01 -2.561490577538840796e-01 4.617819087513174026e+01
1.734064275611012462e+01 -8.150071007267924994e-01 4.605220462902031642e+01
1.841941246049783132e+01 -1.187457636751536594e+00 4.574709331978973381e+01
1.523224049915537393e+01 -2.798062568572393438e+00 4.628655438526241994e+01
1.610341546513959798e+01 -2.364773401183863921e+00 4.621100231081676668e+01
2.074139514109788252e+01 5.532086678527177170e+00 4.375506627548593030e+01
2.100549702134502894e+01 5.024620590373666040e+00 4.363765429646738880e+01
2.227822292595002551e+01 4.695622762239011649e+00 4.245095985123856508e+01
2.201333323246646145e+01 3.982974328164197608e+00 4.302166669524535081e+01
2.186232880614217322e+01 4.031430617677312256e+00 4.314610165863798841e+01
2.192473288283746058e+01 3.421876688086976426e+00 4.328625743498150769e+01
2.185435676662618221e+01 2.781544868623554656e+00 4.355464701865913213e+01
2.242297760728936851e+01 4.077659888109168129e+00 4.241812700066233077e+01
2.237221289555590076e+01 4.023798324109138846e+00 4.260559253260348811e+01
2.256774256403608447e+01 3.459632634177105981e+00 4.238520610595383431e+01
2.288482805845483270e+01 2.322698243506818194e+00 4.210802525977311461e+01
2.182903589649258436e+01 -5.304421289174201526e+00 3.791829432983866610e+01
2.165606720965192977e+01 -5.793065541404754271e+00 3.764463408406950151e+01
2.217649659436436949e+01 -4.787959810265617122e+00 3.865255598847917895e+01
2.260203987778520229e+01 -2.935080765332204411e+00 3.936829649055977143e+01
2.294099860490304721e+01 -1.506384842595811957e+00 4.050091974542242923e+01
2.285022574598208678e+01 -2.281846368156974059e+00 4.020961553746155204e+01
2.095118464046926121e+01 2.493401818171967044e+00 4.429616928197868475e+01
2.127947252626264785e+01 1.698634680395445073e+00 4.418256163186797636e+01
2.092158004383408354e+01 1.123103799391628854e+00 4.452876641234290389e+01
2.136278001525710479e+01 2.361254429062224602e+00 4.402465372942943134e+01
2.149818856083548368e+01 1.759206036879774393e+00 4.404352989165548138e+01
2.025197755537008604e+01 1.367662318166338042e-01 4.500370439906245679e+01
1.944721935324246331e+01 -5.783234344311093400e-01 4.538825278861425971e+01
1.904165928922895645e+01 8.730734639727231183e+00 4.432346411770809880e+01
1.767929808395122393e+01 1.072587170354860042e+01 4.391362821631937408e+01
1.868349103203659922e+01 9.440284651377655933e+00 4.410101694653703674e+01
1.856810700168199091e+01 9.798029957165777404e+00 4.392142407454587527e+01
1.867756904708214449e+01 9.276181263109915420e+00 4.435112148401005072e+01
1.816932237549353957e+01 1.001752992284351507e+01 4.419251728486317177e+01
1.732793394057904024e+01 -1.532685152666453110e+00 4.603078506673614356e+01
1.896657238607239648e+01 -1.237037990641278062e+00 4.556161128354258238e+01
1.658786027146392428e+01 -2.098139282122656990e+00 4.616527950162685556e+01
2.222699218365069740e+01 3.324363718130456391e+00 4.303743122280730660e+01
2.198712621483511143e+01 2.812405440065370410e+00 4.342602454611235885e+01
2.246620389861356060e+01 3.351958728931276443e+00 4.276001344789055736e+01
2.271252427873436730e+01 2.841508850402406416e+00 4.235214872119358631e+01
2.295223138141818708e+01 1.439091671218560409e+00 4.134069112777631716e+01
2.303599708966793358e+01 8.324727615659374136e-01 4.129213244674811278e+01
2.303654449334684529e+01 9.665155256801701011e-02 4.121164297530507525e+01
2.199363589854719692e+01 -5.367769447846947983e+00 3.838828761796936107e+01
2.303709176145589410e+01 -6.446756209263794224e-01 4.113423278830543239e+01
2.303763910502336998e+01 -1.380361615274788845e+00 4.104983922093584425e+01
2.062280187921652441e+01 6.296051107083363574e-01 4.476822132281355238e+01
2.119609616668520857e+01 1.035522332624919883e+00 4.434612971144481719e+01
2.037113299184271398e+01 -6.121940699010737230e-01 4.498899377660487175e+01
1.996907167928289084e+01 -9.699888450033296028e-01 4.517841730756900631e+01
1.942169497637037523e+01 8.115134229130667620e+00 4.468799356978373538e+01
1.918190538833464842e+01 8.663904172978089235e+00 4.466067539552920351e+01
1.842321873826339029e+01 9.646753466697521873e+00 4.427077138430460224e+01
1.810455241386260283e+01 -1.535547325442939037e+00 4.584056875701327982e+01
1.946613943768148403e+01 -1.163588905548526897e+00 4.538817062636557864e+01
1.644367937305014138e+01 -2.714059816516359636e+00 4.613206685288522380e+01
1.597654114166627437e+01 -3.065416801840435301e+00 4.616793828582234482e+01
1.731518380444316563e+01 -2.249750163172974826e+00 4.600937843097670310e+01
1.694525075603287334e+01 -2.532248125673034256e+00 4.607657661495850476e+01
2.244081036091193226e+01 2.665204653846382943e+00 4.305296678872758065e+01
2.256024457255361781e+01 2.679769970033901938e+00 4.291418722791150486e+01
2.285722412926013902e+01 2.223704070463162985e+00 4.231888942051160996e+01
2.204960763289680159e+01 2.202046987937005706e+00 4.356538949099431335e+01
2.300191626268257039e+01 1.605900173608402870e+00 4.228521918544947056e+01
2.301895719737706969e+01 1.218985097752848024e+00 4.178913152691009003e+01
2.265441439763378639e+01 2.006631330331499097e+00 4.306806160890074153e+01
2.218594386662006102e+01 1.532516758252557398e+00 4.358955590617959786e+01
2.200116420885358082e+01 1.451406332150029455e+00 4.374415228262617461e+01
2.181096200511553107e+01 -5.946963744262076190e+00 3.812429040753423948e+01
2.248114078444497110e+01 -4.369433021686241148e+00 3.939381640865286016e+01
2.275104545288460400e+01 -2.739511648612213079e+00 3.987942254525583508e+01
2.270733422564354242e+01 -3.368236634632955528e+00 3.974695209687649111e+01
2.265087635885109307e+01 -3.944221649657338347e+00 3.987190206546180349e+01
2.111274618148743087e+01 3.726996691342549517e-01 4.451779506638758477e+01
2.163366006797664554e+01 1.156812221770793458e+00 4.406006182950674344e+01
2.090522742563067027e+01 -2.053366869609870304e-01 4.466961153749392111e+01
2.150873818474343935e+01 1.625742272407596500e-01 4.431466641348825419e+01
2.176906827268222244e+01 5.546006797257860832e-01 4.408450318720439043e+01
1.876964704810145435e+01 9.132426881240268912e+00 4.469408495234729628e+01
1.835723831545501383e+01 9.601161696050743544e+00 4.472758044325146898e+01
1.817294614440126921e+01 9.737575934888671014e+00 4.440261672247662261e+01
1.766770591035955462e+01 1.019894541701809665e+01 4.445391921162271842e+01
1.779986243301740245e+01 9.979168024150109062e+00 4.480666997707164256e+01
1.815339856493540438e+01 9.778214224755968687e+00 4.464736165780527699e+01
1.813473881980360503e+01 9.752050618448460995e+00 4.475910694083825803e+01
1.848610168313600255e+01 -1.895461535782003271e+00 4.573498098786091504e+01
1.789424466501813882e+01 -2.430763394048617521e+00 4.586131859660790866e+01
1.657606373401003808e+01 -3.366023621654596454e+00 4.605632495586897335e+01
1.730235418980041828e+01 -2.966065135779667905e+00 4.598799139754338228e+01
1.584958291382280748e+01 -3.766082025226128671e+00 4.612486338067933644e+01
1.554098042222965681e+01 -3.282133809220041609e+00 4.620567933527863858e+01
2.272683099373827176e+01 1.398031956505345397e+00 4.304599406262398276e+01
2.263934274566090110e+01 1.386350744426690484e+00 4.321688396754264971e+01
2.309748323841504813e+01 -5.023227755186108201e-01 4.164927066407121004e+01
2.162805522534588576e+01 -6.526876973412508498e+00 3.785995644875278998e+01
2.222430138807466804e+01 -5.308354599337478774e+00 3.909103305975653342e+01
2.202498675058460975e+01 -5.767211117127768460e+00 3.870780157233568985e+01
2.298986513439259483e+01 -2.176303109124813506e+00 4.069107868884341173e+01
2.303818632404692934e+01 -2.113163881449453108e+00 4.096531470483478898e+01
2.312822284711478460e+01 -1.170138975247832391e+00 4.182939762438198983e+01
2.287311348843370951e+01 -3.106382787381023913e+00 4.031433139245885400e+01
2.263120791685231126e+01 -4.648875087814945850e+00 4.024482771942528103e+01
2.277662655250755463e+01 -3.601829174790649013e+00 4.020829036347998198e+01
2.276711608058073111e+01 -4.047223123881373397e+00 4.045704602428450158e+01
1.948504292811974281e+01 -1.749281404279362517e+00 4.538760933277907128e+01
2.116678348515925379e+01 -2.190116728797024681e-01 4.454578424779670343e+01
2.122078222438946327e+01 -8.106063683256561347e-01 4.457379784943255174e+01
2.069774189875649384e+01 -7.832513610333460274e-01 4.482170702858676492e+01
2.195275384500783034e+01 7.014540362312381427e-01 4.392196093122893785e+01
1.709986475268184236e+01 -3.684244527840976779e+00 4.594765412552713002e+01
1.762705615766772027e+01 -3.373570894056387104e+00 4.589067374922620246e+01
2.303332565402568477e+01 9.168730628704513386e-01 4.222625395303148110e+01
2.232212881009483141e+01 8.636104064011286274e-01 4.361197457042479186e+01
2.300547137726334057e+01 9.459635976909946953e-01 4.245297343665701106e+01
2.306674105609790715e+01 1.649411870880887754e-01 4.146916175831398732e+01
2.187185144588563190e+01 -6.301674539767046390e+00 3.851337665739345795e+01
2.242040325193762129e+01 -5.110160017849895375e+00 3.960736180773862714e+01
2.235967372061201885e+01 -5.850766055172645252e+00 3.982087242858187892e+01
2.211561149709348939e+01 -6.076424597665027072e+00 3.916671152920258692e+01
2.249540493172829514e+01 -5.249999915669072870e+00 4.003278783162117804e+01
2.309614326311472610e+01 -4.609877370951809272e-01 4.211326434807608621e+01
2.312755166118673245e+01 -1.149325206544834943e+00 4.206138846976476486e+01
2.315895956730490468e+01 -1.839366783216783263e+00 4.200958533312659426e+01
2.309887586891778355e+01 -2.347667951542185438e+00 4.144572734625614174e+01
2.290294001701782989e+01 -3.446433456246775773e+00 4.066915309625585451e+01
2.303873295921814801e+01 -2.846288428584133889e+00 4.088123941309770260e+01
2.049023583010233551e+01 -1.361166029206422490e+00 4.497032607821063266e+01
2.171270335202447299e+01 -6.957565594183250379e-01 4.428420231108777472e+01
1.841638855740757919e+01 -2.659805931857887273e+00 4.572201668649183404e+01
1.613133789732954071e+01 -4.217657570937674016e+00 4.603884712714599914e+01
1.742437190084282506e+01 -4.091987945462244092e+00 4.585028973553674092e+01
1.900455980452924720e+01 -2.408513927739665661e+00 4.556056265690732232e+01
2.279916641235654495e+01 7.900292075465324970e-01 4.302294369558868681e+01
2.306473452210578401e+01 2.278810911067357670e-01 4.216515387170711193e+01
2.210944063406639160e+01 -6.344225484945307691e+00 3.951090463021577648e+01
2.275266034889027011e+01 -4.671047978807142620e+00 4.089226272139821816e+01
2.300901915362728190e+01 2.860235413012033878e-01 4.261797342069893801e+01
2.287148646119258899e+01 1.820574964898823700e-01 4.299779207099550860e+01
2.262427642614449397e+01 7.666392819118190705e-01 4.336366841680011674e+01
2.245813282636315478e+01 1.954288811152991856e-01 4.363713302503405345e+01
2.260920208734088277e+01 1.469574399574493651e-01 4.351312049303555796e+01
2.016803016220343991e+01 -1.880773453751350299e+00 4.510589051338944699e+01
1.984552583475598553e+01 -2.400817254606609552e+00 4.524595063829386277e+01
2.190440018241228870e+01 -4.739525241291793478e-02 4.411170976121790943e+01
2.127475672808745344e+01 -1.402331694320870126e+00 4.460189226550723873e+01
2.090925439242073125e+01 -1.677548568764188452e+00 4.480331887123699630e+01
1.950390754351002442e+01 -2.335278205050884459e+00 4.538698970158491619e+01
1.689726605029929374e+01 -4.402433872022872841e+00 4.590729480903095805e+01
1.795174390553080102e+01 -3.781138190562356893e+00 4.579338144889641882e+01
1.834656814382714174e+01 -3.424179525868384033e+00 4.570905000089232573e+01
1.952269436962570026e+01 -2.921318081862118277e+00 4.538639048493556061e+01
1.827649619766820166e+01 -4.188912244004065144e+00 4.569608442180818031e+01
2.145492797795315454e+01 -7.123819401903215720e+00 3.799708949049510665e+01
2.185921709175399741e+01 -6.837640967383803670e+00 3.920094668347525158e+01
2.160923178136370026e+01 -7.330566306256414144e+00 3.889128018476991855e+01
2.217305869643936944e+01 -6.524738439404536905e+00 3.999295193513369640e+01
2.230645553311664742e+01 -6.295475821681503881e+00 4.047274188754998647e+01
2.250703139579625045e+01 -5.614562351982015365e+00 4.039151104611490695e+01
2.301255823899349195e+01 -3.739204252321520205e-01 4.279161107584376111e+01
2.301608608544346524e+01 -1.033865757235430172e+00 4.296584719073746328e+01
2.292032219980735874e+01 -3.995111367507862887e+00 4.120725149377523877e+01
2.262334707712183857e+01 -5.069039999936310714e+00 4.054807463472710083e+01
2.297954983216511238e+01 -3.420486686623939399e+00 4.104417842031514851e+01
2.194355242062349376e+01 -6.869793716513504789e-01 4.414498700189253810e+01
2.259410918914350574e+01 -4.728504363559992152e-01 4.366889797411172225e+01
2.152079855316063473e+01 -1.344746796089587582e+00 4.445694680860347603e+01
1.910723741888022786e+01 -3.343954044888368227e+00 4.548942652561200362e+01
2.042316673970188390e+01 -2.553258621608161860e+00 4.504296999421227810e+01
2.045672936251793672e+01 -1.957209085736527854e+00 4.500426012942415355e+01
1.774876852557079943e+01 -4.499735459739839349e+00 4.575295770114554728e+01
1.869195533620204586e+01 -3.766373762391513225e+00 4.559265361160920094e+01
2.172395583421620913e+01 -7.478651743671965946e+00 3.952661430217592908e+01
2.195048296024668488e+01 -6.936049770052632901e+00 3.968083968648426918e+01
2.135900687135317000e+01 -7.823951472509466321e+00 3.858131822096270014e+01
2.302745303611677841e+01 -3.006547738099131006e+00 4.135007559010281852e+01
2.308755753781750286e+01 -2.505252192808402167e+00 4.191544424333433483e+01
2.308752903371428289e+01 -1.436276304512565938e+00 4.248768585940411668e+01
2.307768578874652121e+01 -2.422515007854574076e+00 4.216155421103052703e+01
2.294318588961764149e+01 -2.288257563092907620e+00 4.282677434222495805e+01
2.294379383145179929e+01 -4.259113337343624073e-01 4.298181563977043140e+01
2.241618751463730419e+01 -1.184447923151369819e+00 4.386103387625084338e+01
2.198266479338589363e+01 -1.326573028147396194e+00 4.417827798649152271e+01
2.132869443898062300e+01 -1.994295364911242041e+00 4.463032839997826784e+01
2.100425095451693736e+01 -2.578326146464370083e+00 4.479259131416270634e+01
2.038951628723359732e+01 -3.149314711410553080e+00 4.508120188687049534e+01
1.936819588301310446e+01 -3.670283270762360051e+00 4.541969294198414531e+01
1.993946200108476674e+01 -3.333539633095396582e+00 4.525283570768648644e+01
1.797453298758952656e+01 -4.859891445824350953e+00 4.569620146833381824e+01
1.866767561720882895e+01 -4.677935141209229819e+00 4.559120129993434034e+01
2.220077771026908309e+01 -6.779849424890947773e+00 4.081568573224470242e+01
2.240102513565788911e+01 -6.234661578038056540e+00 4.105478021437851766e+01
2.265442871939507441e+01 -5.378782235410240808e+00 4.096235067062442425e+01
2.133909653536698059e+01 -8.169185727160474642e+00 3.895979980534379195e+01
2.297963607567571742e+01 -1.661121852085238881e+00 4.289629124538962657e+01
2.290673616815836411e+01 -2.915010094233914995e+00 4.275775547302099966e+01
2.286107128853130632e+01 -4.569954511947505793e+00 4.137038438209726365e+01
2.258055856978862508e+01 -1.178664008000523955e+00 4.364817534525957399e+01
2.126862388422187067e+01 -2.626174785869126893e+00 4.467361664030055834e+01
2.067992074231004906e+01 -3.162048883798391774e+00 4.495603484443775955e+01
1.921360038828005301e+01 -4.418566737272349165e+00 4.545300813930225559e+01
2.301614824470229692e+01 -3.167282186025933921e+00 4.181920949544370814e+01
2.280186464264290791e+01 -5.144361703629033222e+00 4.153340149542245285e+01
2.294473325071556502e+01 -3.825975340078410003e+00 4.172367609165716829e+01
2.198644605096765048e+01 -7.198681193332321371e+00 4.016501827863512375e+01
2.260136020978780991e+01 -5.689740725144248223e+00 4.129398562992708577e+01
2.299640789820341524e+01 -3.005671457916016198e+00 4.230850030561238384e+01
2.289703146261570765e+01 -1.599272202047804736e+00 4.312090095250967892e+01
2.287331214444754934e+01 -4.485005716838078804e+00 4.162846569301805744e+01
2.202171895678665337e+01 -1.966176441863477509e+00 4.421160425456815801e+01
2.169490987807863647e+01 -2.300194672208936808e+00 4.443757160352271995e+01
2.173663260633772154e+01 -3.244168166770032613e+00 4.443099049863483430e+01
2.120848999765371801e+01 -3.257769612672561266e+00 4.471487442140684010e+01
2.035571251098403067e+01 -3.745377318210273199e+00 4.511949464458341907e+01
1.992345105284777418e+01 -4.219212491648966612e+00 4.524150977807074270e+01
2.291512529696611011e+01 -3.588836224801912334e+00 4.245671668300359869e+01
2.200020484673581223e+01 -7.326512916989889490e+00 4.057620706811351141e+01
2.257691856551847920e+01 -5.821023855765217192e+00 4.169976301796266682e+01
2.179988779153299205e+01 -7.872414416668904735e+00 4.033704006694793520e+01
2.277796494346904410e+01 -2.164680047608048774e+00 4.327597308126940590e+01
2.256698799591384130e+01 -1.884280920500388756e+00 4.362747980364436273e+01
2.265888065008129715e+01 -2.730090245177908770e+00 4.343111818948021607e+01
2.223846280551314436e+01 -1.895119990777151431e+00 4.405295727240131498e+01
2.281790645026855913e+01 -4.662095796774690548e+00 4.206873221136151386e+01
2.255110652770235546e+01 -5.378441510273160198e+00 4.237521013689350013e+01
2.206068438958174482e+01 -2.605789153920761603e+00 4.424507759373519633e+01
2.072140704954611579e+01 -4.133356177382246699e+00 4.495991766073123586e+01
1.949105565109106308e+01 -4.693055336501606334e+00 4.536383491249861066e+01
2.020415603158061657e+01 -4.327933760656906159e+00 4.514458143589030925e+01
2.201823393956017583e+01 -7.405413176838598233e+00 4.146728530620414688e+01
2.235214738045388572e+01 -6.497155358713380124e+00 4.186598897879200365e+01
2.287028665906387559e+01 -3.542261680982345062e+00 4.268059632244910517e+01
2.283383661037508716e+01 -4.172009099999494985e+00 4.260506387863359379e+01
2.269251028538734971e+01 -4.776578210610149533e+00 4.248999662727747761e+01
2.141231298220779777e+01 -3.882861634953156837e+00 4.461536693466585746e+01
2.114818181385971485e+01 -3.889677830121692104e+00 4.475737527233438584e+01
2.255339472015979041e+01 -2.589898955327011976e+00 4.360683827672244206e+01
2.230022883189375804e+01 -2.950667793037187625e+00 4.391584482638679532e+01
2.194717746952874649e+01 -3.283135331217680530e+00 4.422957583886074673e+01
2.183353256921069629e+01 -3.961089457073848852e+00 4.421040948338946208e+01
2.005237545876828520e+01 -4.910499576053242166e+00 4.516975145132573743e+01
2.253977176306560892e+01 -3.295501054161788623e+00 4.358657547240308361e+01
2.268690050873031794e+01 -3.732729413246552053e+00 4.309444245602378487e+01
2.190904718985534316e+01 -7.637627983249498875e+00 4.090205247241576814e+01
2.255441581288027564e+01 -4.836338958194668081e+00 4.277534479968949199e+01
2.240378629167030056e+01 -4.012463633999358237e+00 4.346681177016564845e+01
2.230651652999815582e+01 -3.801079106111322048e+00 4.373161862345495621e+01
2.064120815283265387e+01 -5.039896688222380128e+00 4.493986526313010188e+01
2.240981353292987777e+01 -5.976710968889089592e+00 4.226072798898923821e+01
2.185062367037774322e+01 -7.632234886378612693e+00 4.174882919112084778e+01
2.212734672329154861e+01 -7.173371471821145207e+00 4.203223825600069574e+01
2.227518981224546479e+01 -5.500175651033724300e+00 4.294565112116971761e+01
2.213194398008787189e+01 -5.444454146832859998e+00 4.323249000409810350e+01
2.199613022027336129e+01 -6.163574980544747284e+00 4.311594877357966027e+01
2.226780698520120438e+01 -4.729104407286081724e+00 4.334936900218450262e+01
2.207324639253717535e+01 -4.306607531396287492e+00 4.387873061665747798e+01
2.183968027143864177e+01 -4.812670658726641015e+00 4.402620827411946181e+01
2.171966843966945504e+01 -4.640101036021143877e+00 4.419210109504733452e+01
2.108757818795702832e+01 -4.522014020091155828e+00 4.480008137706965954e+01
2.019458286777404510e+01 -5.557991624631672067e+00 4.508002341187228978e+01
2.067700026134348334e+01 -5.739366911739041122e+00 4.471142131599864200e+01
2.047139716570558576e+01 -6.348669486828486086e+00 4.466725038192991093e+01
2.115952079626679705e+01 -5.865447708427392826e+00 4.432347335872010063e+01
2.088232868584438506e+01 -5.130661115017744578e+00 4.475567357255044953e+01
2.226860344997431795e+01 -6.574895543516677598e+00 4.214645265686204567e+01
2.206180305006152054e+01 -6.673048982320009870e+00 4.257407809951671140e+01
2.180097393358219549e+01 -5.740458262169641834e+00 4.364514565730861051e+01
2.134668302294625519e+01 -4.920848482810644242e+00 4.448704391402061020e+01
2.160567551962780897e+01 -5.319540958385447382e+00 4.417411326002782346e+01
2.071254030875612173e+01 -6.412148594467211637e+00 4.447326984914305115e+01
2.137648223147162341e+01 -5.976576882890126008e+00 4.407449772990327119e+01
2.114737485248808468e+01 -6.633109911921024171e+00 4.397523659026239784e+01
2.000784356247459073e+01 -6.516878157751659018e+00 4.492193228337112743e+01
2.171978454565241989e+01 -7.717169785865134024e+00 4.214363284705527235e+01
2.155950145513167726e+01 -7.226075925958594048e+00 4.281601981868726625e+01
2.177792823164162428e+01 -6.695509735274443486e+00 4.296600825333853635e+01
2.156061581773172975e+01 -6.758799394587609477e+00 4.333615105458985539e+01
2.112486065950349001e+01 -7.354289452592952969e+00 4.355660109059065377e+01
2.134112697826959604e+01 -7.752129573992802669e+00 4.266614656993667865e+01
1.380893790706678281e+01 2.346267683732913500e+00 4.653412145573587821e+01
1.391483036693448838e+01 3.013694609576182959e+00 4.644548440326631322e+01
1.335046630049892613e+01 2.865749778630896305e+00 4.648640233403619959e+01
1.370238568136554846e+01 3.533910392499932662e+00 4.638984918037550642e+01
