-1.369288219533790674e+01 7.886260078909912430e+00 3.855925244246681416e+01
-1.352949438897271328e+01 9.188497970043318475e+00 3.870394034700352393e+01
-1.476237703956604541e+01 1.023011822933440484e+01 3.766171248262241988e+01
-1.723168458949717774e+01 1.264922312903991930e+01 3.503101204974714022e+01
-1.563920971762432188e+01 1.111080394504238633e+01 3.693735930381298971e+01
-1.613539117999559025e+01 1.178308560314417619e+01 3.657864425446226875e+01
-1.211717927904186531e+01 4.653643075220150749e+00 3.968642543659906607e+01
-1.337533446324680320e+01 8.467067314347112017e+00 3.883181563260152558e+01
-1.422340929924020081e+01 1.007010201383778991e+01 3.811825464912124062e+01
-1.676006163216186096e+01 1.205498709194959872e+01 3.598715244966297178e+01
-1.301896760700015321e+01 7.685632657067144713e+00 3.913119801496280559e+01
-1.201967377234312373e+01 6.022773788800305006e+00 3.988672891804110066e+01
-1.176463375133867117e+01 5.249863204861768828e+00 4.003812006962483849e+01
-1.221633505578781076e+01 6.777287722392708602e+00 3.978373957382478920e+01
-1.368364503503794971e+01 9.909808702234084166e+00 3.857577073840924697e+01
-1.689753929441553737e+01 1.271167610237232104e+01 3.566812770374080088e+01
-1.515033556566526229e+01 1.098270999042467722e+01 3.742270707793189644e+01
-1.553797486512913295e+01 1.173465261717522345e+01 3.719660694454994143e+01
-1.245887809518841394e+01 7.522123542826117060e+00 3.959373140738292562e+01
-1.431861514673542146e+01 1.093913226060280053e+01 3.801921336745655822e+01
-1.292300750595825498e+01 9.008216774723800668e+00 3.921856222049440532e+01
-1.739599954929842696e+01 1.343344401063313143e+01 3.465060759880533681e+01
-1.592546971416036605e+01 1.248630480372316853e+01 3.697195725879669936e+01
-1.653662124356629448e+01 1.264656957047513863e+01 3.636746513551273807e+01
-1.501103631237618252e+01 1.188966353218128802e+01 3.758606266269065799e+01
-1.270139794962866198e+01 8.266575344818511084e+00 3.940394759254796497e+01
-1.314460761171291203e+01 9.749689179464290589e+00 3.903300677499122884e+01
-1.703500587689025636e+01 1.336836115912648815e+01 3.534945671684742052e+01
-1.631307329678923779e+01 1.323817458723932461e+01 3.674779672207181136e+01
-1.559207199477475925e+01 1.301731602058173110e+01 3.724913211385434408e+01
-1.138870153145285968e+01 5.837746884168144135e+00 4.040926871603208781e+01
-1.165556836178857480e+01 6.613236352485198921e+00 4.024785215239452185e+01
-1.167757119816864453e+01 7.212381013430267274e+00 4.023862966330391799e+01
-1.338729091902456858e+01 1.076737128051223280e+01 3.880674486775122745e+01
-1.444470073914015984e+01 1.190316782375537663e+01 3.799389419517837041e+01
-1.487164016911317965e+01 1.279660427661852395e+01 3.775046983370229725e+01
-1.200056415044264924e+01 8.062353140777149818e+00 3.998290360360859097e+01
-1.387500563373199469e+01 1.164772488018878427e+01 3.838540170116507966e+01
-1.238372113075928382e+01 8.847610857093844317e+00 3.967658649303628948e+01
-1.667426058753344265e+01 1.330331190725744506e+01 3.604808463216651404e+01
-1.109432674357488402e+01 6.448932084365772255e+00 4.071293035669973648e+01
-1.260479666152575895e+01 9.589295174090644025e+00 3.949126375563266578e+01
-1.415124795119276691e+01 1.257587809870936013e+01 3.825218603176589482e+01
-9.593270800763934458e-01 7.839265923870044617e+00 1.890922074750523407e+01
-4.982090528111805527e-01 8.280822148503411029e+00 1.909685708079916466e+01
1.886420598967323767e-02 7.784693263373940297e+00 1.900136210383709567e+01
-8.983591288593850699e-01 7.304727322952047075e+00 1.881817813294292208e+01
1.454601756067750995e-01 8.381414795657260441e+00 1.919759544799154227e+01
-1.476623057100866276e+00 8.335908886778227611e+00 1.900494562687709177e+01
-1.937411209007526613e+00 7.894032581519293323e+00 1.881691533980589881e+01
-1.015822022890545018e+00 8.777790408919218024e+00 1.919269915399791060e+01
-1.629208729493032193e+00 7.045023074023910148e+00 1.869432311142882241e+01
2.723218308159779943e-01 8.978972088759483938e+00 1.939407925303314073e+01
-2.475968341023206509e+00 8.557411591094924219e+00 1.896196003590263501e+01
-1.826826170883585343e+00 8.810802525159598275e+00 1.911273862625630571e+01
-5.670943071054443951e-01 9.425492423691189003e+00 1.943952324239500129e+01
-1.533377171611381984e+00 9.275004957004053807e+00 1.928871038203505606e+01
3.992003347496053123e-01 9.576164534165013009e+00 1.959035208329282440e+01
-2.382120069456319822e+00 9.205761057703117700e+00 1.917311727324804593e+01
-1.172904158603565117e+00 9.799994516577239523e+00 1.948818251059377360e+01
-3.230855646441466167e+00 9.136718248950247201e+00 1.905719910099693948e+01
-2.051006363527319465e+00 9.772585895581480386e+00 1.938431691727557293e+01
-5.053822617336058975e-01 1.020501574521125754e+01 1.968385728754316233e+01
-2.899343811123704651e+00 9.703203414165576746e+00 1.926925915870333483e+01
-1.536593234587065426e+00 1.023717266980357898e+01 1.958048459445918965e+01
5.261371475512152118e-01 1.017314041688012338e+01 1.978631440004279796e+01
-2.567794906080994366e+00 1.026966953348427047e+01 1.947711203515624945e+01
1.146499991036465271e+00 9.743037231582498237e+00 1.975636099515106991e+01
-3.535485340772219764e+00 9.923972315587054283e+00 1.930998328302529288e+01
-1.084805462280993504e+00 1.073295153588920847e+01 1.983921336608447206e+01
-2.252032040765134191e+00 1.071258136033110553e+01 1.969829019381730006e+01
6.867058808498881228e-02 1.064007792175509515e+01 1.993100471498083337e+01
-3.999019129286073948e+00 9.063306615057008742e+00 1.898981830781412228e+01
-4.148363125816247887e+00 9.664683831205875819e+00 1.918891621376206658e+01
1.346600470672679739e+00 1.031603760134515468e+01 2.003524704035451620e+01
-3.888538458193834257e-01 1.110739278956203435e+01 2.007481364172318195e+01
-2.990853267873460286e+00 1.083822414395773492e+01 1.969694950735447136e+01
7.048647855209553281e-01 1.070250184013675643e+01 2.006233191043003927e+01
2.069831452968926122e+00 9.903793197520183611e+00 2.003658977767037186e+01
-4.751544246500800206e+00 9.153918570195568094e+00 1.897987934927699882e+01
-4.065635657666880398e+00 1.014681924755571707e+01 1.935643917311152151e+01
-3.435465166000875037e+00 1.042175085709769711e+01 1.948206621115225445e+01
-1.935563335279794961e+00 1.115638544326645132e+01 1.991991391943894385e+01
-5.180812141660841696e+00 9.728213441400555439e+00 1.915499909297291836e+01
-4.741974968419381931e+00 1.015230115333485550e+01 1.932213820167227425e+01
-1.170951491752191487e+00 1.120141915759122853e+01 2.002551028988797555e+01
2.167195606190395196e+00 1.045906695132055830e+01 2.028392637093972439e+01
8.839145160445042171e-01 1.123227150276332864e+01 2.033761209737496500e+01
-2.517007885200651884e+00 1.150364333853569754e+01 2.002919073776960346e+01
1.525521917955615647e+00 1.084544864280844401e+01 2.031072668112137336e+01
2.993352066547160462e+00 1.006477127416390438e+01 2.031680508480970815e+01
-4.303116570586529299e+00 1.057463115095749728e+01 1.948702046848141833e+01
-3.858857689349892262e+00 1.099140585834892470e+01 1.970209276947204557e+01
-8.465474603272867826e-01 1.157517180646399169e+01 2.021870881181438762e+01
-1.619474877691981840e+00 1.159954550285683084e+01 2.014121603581299169e+01
-3.414531970769851377e+00 1.140823274685193667e+01 1.991716525002561511e+01
2.987932105884489431e+00 1.060223432276039546e+01 2.053231923828124650e+01
-5.609861763658181566e+00 1.029795431800248551e+01 1.932623981395519053e+01
-1.203621578618203902e-01 1.190185994110636436e+01 2.048754642253850378e+01
2.346183104800660946e+00 1.098850401708314628e+01 2.055912145181270745e+01
-5.170764329285561622e+00 1.072176150066804645e+01 1.949197466140708102e+01
-6.114831409326340506e+00 9.847253660208815873e+00 1.913864409131246092e+01
1.704851913840099709e+00 1.137487055128406688e+01 2.058591787770527759e+01
1.063087280965658188e+00 1.176174949371249845e+01 2.061273614470642457e+01
-3.012235800062231572e+00 1.190969875521962962e+01 2.017106187912659010e+01
3.756934529377482068e+00 1.017213446954061951e+01 2.057755640825028820e+01
-4.726347328098137623e+00 1.114030567065439392e+01 1.970704318862637550e+01
-4.281861046880842459e+00 1.155867805997665698e+01 1.992200076321687874e+01
-1.303478704898533458e+00 1.204245003941535330e+01 2.036239055297940581e+01
-2.287734081707938572e+00 1.220987344315406453e+01 2.036058659326250719e+01
-3.837306882502990568e+00 1.197713680488678278e+01 2.013695907649204031e+01
2.896517633670721459e+00 1.107924228270364786e+01 2.075538631715996019e+01
3.652973542104866578e+00 1.086341209246325867e+01 2.088015378197600214e+01
-6.038772070899730338e+00 1.086808197015698951e+01 1.949560772745065407e+01
-6.543798315250837661e+00 1.041758846897609203e+01 1.931179677296443842e+01
7.662812802752593244e-01 1.229098578661166918e+01 2.084230515429419128e+01
-8.114683002867649764e-01 1.247820728770635235e+01 2.067541965175918506e+01
-3.273254339347005715e+00 1.237841084712983175e+01 2.035878034405794423e+01
2.805435842453446238e+00 1.155621471457961391e+01 2.097841526194582684e+01
-5.593659319583950129e+00 1.128683580848081114e+01 1.971211194834519276e+01
1.583764232804960814e+00 1.201172919145128404e+01 2.088370254293274186e+01
-8.492228871002776083e-03 1.245433635921719784e+01 2.079812234389786951e+01
-6.343335082097758537e+00 1.145928378742674525e+01 1.978120703186407781e+01
-5.149491309122086413e+00 1.170470805397236269e+01 1.992706505730702204e+01
2.182415228137879470e+00 1.184752489035721901e+01 2.096078383080406482e+01
-1.614017231107499839e+00 1.253571887127516149e+01 2.058715023182580595e+01
-4.705350789051132132e+00 1.212255508581023200e+01 2.014184537159722055e+01
-4.260422982282547011e+00 1.254113835319538595e+01 2.035697118460089783e+01
3.447040016347963753e+00 1.149350954561465166e+01 2.114787891158234601e+01
-6.874307419092415827e+00 1.109200722222024105e+01 1.959629700540700981e+01
4.694249968949434915e-01 1.282057492333285431e+01 2.107198044552247751e+01
-2.698366860507305454e+00 1.277523897519179030e+01 2.061301610392681738e+01
-3.191076387783116086e-01 1.291418522159854021e+01 2.098858433597745332e+01
-3.831171921896193489e+00 1.291042541688534584e+01 2.058323484874128440e+01
4.318338974435498301e+00 1.112478613510173631e+01 2.122815733762505630e+01
-7.490354954120438613e+00 1.062253425309062393e+01 1.940643888956449459e+01
2.103736896049882343e+00 1.226135556357651524e+01 2.115425846228855633e+01
1.286490694932433065e+00 1.254065982919674305e+01 2.111299139386364132e+01
2.714525681122943901e+00 1.203361650639864955e+01 2.120162468298659064e+01
-1.317570677590779615e+00 1.313541569231680661e+01 2.096108892628354425e+01
-7.178126515501339178e+00 1.168278073352093394e+01 1.988120054578024920e+01
-1.924447005518601150e+00 1.302920718653817644e+01 2.081188984923521090e+01
-5.676302690833630926e+00 1.208572902932214355e+01 2.010494560213799531e+01
-5.260037789800530383e+00 1.277073470884059958e+01 2.045111991094015025e+01
-4.527817541641438126e+00 1.307260359487282919e+01 2.062890077738520134e+01
4.197479630324893130e+00 1.176112782229388287e+01 2.152591412114911407e+01
-6.647244998279951744e+00 1.204954163348523721e+01 2.006635751179620897e+01
-7.708942002687623862e+00 1.131607058457551851e+01 1.969719250175458569e+01
1.806792461765041491e+00 1.279036093596866763e+01 2.138367845201888073e+01
2.623820372337389184e+00 1.251099983347365274e+01 2.142480632421875342e+01
1.729228839402716655e-01 1.334974624021595702e+01 2.130143039453125198e+01
9.902982953687822221e-01 1.306978638804885584e+01 2.134257679694797361e+01
-2.652261253692962839e+00 1.322006704088514084e+01 2.084449420242402695e+01
-3.402568263536027704e+00 1.327914754918138840e+01 2.080911682329459111e+01
4.982605018371212502e+00 1.138648674308453401e+01 2.157649054694914881e+01
-8.279935938026390829e+00 1.100026681232000669e+01 1.957090134049873953e+01
3.410798614431383768e+00 1.213585390586007406e+01 2.147537065921295607e+01
-7.328269770522447546e-01 1.357115741585664992e+01 2.128798228820352989e+01
-5.422537357140386760e+00 1.327829711161299997e+01 2.071303700404172332e+01
-7.482276129879694260e+00 1.227357054783527524e+01 2.016633486575534562e+01
-8.013155333199986075e+00 1.190679625644061623e+01 1.998164669470784816e+01
-2.234453110726130731e+00 1.352242120238447676e+01 2.103637256257563948e+01
-2.973931495624958288e+00 1.364788537856108341e+01 2.103497056283462285e+01
-6.093914051780582319e+00 1.252079443430988448e+01 2.031147848340933137e+01
-3.884394343630018565e+00 1.362538132247942002e+01 2.096774791255297643e+01
4.110555229847526526e+00 1.235978129520734115e+01 2.185725315921645517e+01
4.891327692737936772e+00 1.198511990035737540e+01 2.190783947270966792e+01
-8.544204565795650907e+00 1.154054618814957323e+01 1.979830856497812874e+01
3.294186244719245593e+00 1.293446074397141210e+01 2.191715263360655896e+01
2.479050746788014958e+00 1.305660803567177553e+01 2.173687817509521025e+01
1.559913680051077556e+00 1.337123266859607540e+01 2.169069650010948180e+01
6.408099541940727173e-01 1.368616903168725329e+01 2.164450693444038620e+01
-1.638447711035986076e+00 1.379325030868305646e+01 2.127453643969227315e+01
-4.794831871495823350e+00 1.360381217867351467e+01 2.090052552247056283e+01
-6.258034819174531194e+00 1.300081876233099898e+01 2.054511657855645979e+01
5.517559032211096337e+00 1.171131171852821851e+01 2.198409392400045093e+01
-6.951326725773886217e+00 1.264038790585118122e+01 2.035176698631257608e+01
-9.114404468596760012e+00 1.122448883228681993e+01 1.967210823007782849e+01
-2.936749322423892750e-02 1.386806609350743180e+01 2.161116423338014059e+01
-2.544710569756123864e+00 1.401644976487795624e+01 2.126108007812500134e+01
-5.543947465213748593e+00 1.377639033536001811e+01 2.097103031788090632e+01
-6.083915261964852661e+00 1.349873055714429348e+01 2.081091590235352129e+01
-4.261833335732949202e+00 1.401924550633757072e+01 2.115826520680722211e+01
-8.317293810979423441e+00 1.249757060894531513e+01 2.026649995759529332e+01
-8.847781403926601840e+00 1.213109699530109076e+01 2.008234624555747772e+01
4.115549868192686311e+00 1.281958544449405757e+01 2.213674985286190733e+01
1.108684281100046798e+00 1.402244899811459788e+01 2.198742145463275577e+01
-1.015824199280978890e+00 1.416788683929162751e+01 2.163518490981982012e+01
-3.473091180409589640e+00 1.423308317488031172e+01 2.132223246630330138e+01
-5.062085501271896604e+00 1.413585686171883538e+01 2.117246788339011587e+01
4.802403223836171797e+00 1.258375984382853474e+01 2.223913473965976806e+01
6.053947902755607124e+00 1.203637822972854643e+01 2.239187972302678276e+01
-7.786319919636951248e+00 1.286437438373010700e+01 2.045154936706667925e+01
-9.378015646746584721e+00 1.176479628671367728e+01 1.989932687852639148e+01
-8.850912105447818590e+00 1.068451312875477122e+01 1.944519155093174589e+01
2.334385811738989958e+00 1.360269305882750501e+01 2.204911795714663825e+01
-2.067584996462009883e+00 1.436926098138582475e+01 2.158124150994992263e+01
-6.774325940792099487e+00 1.359012846807689101e+01 2.083978883929905024e+01
-4.402111808785782898e+00 1.445052519114939038e+01 2.138342728308092688e+01
-7.255287549191871577e+00 1.323120764096539048e+01 2.063713959382264207e+01
-9.908939854318052909e+00 1.139630698482483595e+01 1.976832443162662045e+01
-9.645394016970712414e+00 1.085610046647489746e+01 1.953978344376022847e+01
4.385159214596303090e-01 1.420459010616434981e+01 2.195421344571280997e+01
-2.743989939425553359e+00 1.451567614300091336e+01 2.159667128126574553e+01
-5.811181410097809419e+00 1.430878452044896143e+01 2.124305243424642953e+01
-6.293061836775724061e+00 1.394924508208661607e+01 2.104153470720406105e+01
5.695229593786192090e+00 1.247231793433777014e+01 2.251934823397139951e+01
-7.938310940833779306e+00 1.343554137164507090e+01 2.078368444975121676e+01
-8.469356904738127412e+00 1.306877095349092421e+01 2.059841088164608180e+01
-9.000117078110385194e+00 1.270206364642423402e+01 2.041368360355842171e+01
-9.530402718810035978e+00 1.233531742742745507e+01 2.022960999822382178e+01
3.966412018322947652e+00 1.335774894700398541e+01 2.240929710599727542e+01
3.077717102763213752e+00 1.375309293487330820e+01 2.238532879031512479e+01
2.189841681322779454e+00 1.414908650009376956e+01 2.236140582372627961e+01
-2.316245100388676370e-01 1.438698361677572102e+01 2.192100372987702528e+01
-1.590428055936822904e+00 1.472135368378960685e+01 2.190133823876938735e+01
-5.329366156162844703e+00 1.466823358150195844e+01 2.144450595703125018e+01
5.445891793531182579e+00 1.294173863666812530e+01 2.271090532093188941e+01
1.576965551576106739e+00 1.435883842685035638e+01 2.233042704562712544e+01
-1.006606718305176607e+01 1.203296321859240514e+01 2.010479811720360743e+01
4.713637377943193485e+00 1.318211519318569103e+01 2.257020679427812127e+01
-8.892376115150043558e-01 1.461659839361884750e+01 2.195654518543975797e+01
-3.754489627961761666e+00 1.480761747841508580e+01 2.170314071717461957e+01
-7.400785862531356507e+00 1.375805514943549746e+01 2.095542457686829962e+01
-2.266836399046877393e+00 1.486791999795041264e+01 2.191684354699841819e+01
-1.068880618393158599e+01 1.167559845690534992e+01 1.998900927967950736e+01
-1.043987599509694064e+01 1.102783016090496204e+01 1.963441178700787759e+01
4.600507316238117705e-01 1.466276405519681880e+01 2.227516591413899860e+01
-4.339034580178692813e-01 1.490674605424332810e+01 2.223101394164507028e+01
-6.919694984354434197e+00 1.411726349985564077e+01 2.115829523749977170e+01
-4.832101991250475237e+00 1.500419767169475094e+01 2.173413084520770155e+01
-6.165367281742950567e+00 1.489233564669398113e+01 2.160074177272211671e+01
2.045561178110540723e+00 1.469519461251140413e+01 2.267337226562499808e+01
-8.621353957794246625e+00 1.363998372737861864e+01 2.093043942056140594e+01
-9.152401787686745394e+00 1.327339789229047362e+01 2.074550936338718898e+01
-9.682938625143741262e+00 1.290664006961695165e+01 2.056097082933386488e+01
-1.040932364472487137e+01 1.259656834587878294e+01 2.044639261900111649e+01
-1.075480934598848570e+01 1.230153149513474276e+01 2.031052589842105860e+01
4.624856678324532844e+00 1.378116225135895867e+01 2.290158548045294040e+01
3.775524482603157761e+00 1.408522812803797386e+01 2.282557314555309347e+01
1.152062877312025835e+00 1.493854767594981858e+01 2.262932731736022518e+01
-1.113071117631736939e+00 1.507348981880774907e+01 2.222146637217748477e+01
-2.943238150333700620e+00 1.501477289560553707e+01 2.193234917713662213e+01
-6.855888831138214456e+00 1.458883239296056367e+01 2.143821762124844099e+01
5.450223315230040555e+00 1.341553268705801116e+01 2.300344689278302468e+01
2.909335144464353373e+00 1.439021364267521186e+01 2.274942890929440864e+01
-8.084149234889070001e+00 1.396264041336023887e+01 2.110202125783827398e+01
-5.462519520836435660e+00 1.512684203636700353e+01 2.179636249775419898e+01
6.291510454485701231e+00 1.305052048857214508e+01 2.310529151188744734e+01
-2.240761592144632885e+00 1.531757362995089089e+01 2.224695835927688847e+01
-1.131696547240200168e+01 1.206022729799493831e+01 2.024680442758698717e+01
2.575627475623983309e-01 1.518279910784918485e+01 2.258522401106455746e+01
-6.361894186458565414e-01 1.542514685167910393e+01 2.254115156250000140e+01
-3.615827846604739548e+00 1.523643574451254601e+01 2.202252653126598148e+01
-7.546327746962782967e+00 1.428539135594615317e+01 2.127399927999147167e+01
-4.334988456304448512e+00 1.534004514807887887e+01 2.202360988638868733e+01
-7.001559934673244001e+00 1.511669822874302760e+01 2.175701355361019296e+01
6.077297365756282765e+00 1.350985797503559560e+01 2.337413231426616989e+01
2.398443697825710874e+00 1.507690878332407536e+01 2.312767380767824577e+01
3.652341406183682970e+00 1.448916995200807278e+01 2.311643334887483903e+01
3.282046652090615524e+00 1.491712206666317364e+01 2.333262600183946844e+01
1.789297375592396211e+00 1.512954795600433933e+01 2.297740524123322103e+01
-1.538106175849074830e+00 1.562038209530296307e+01 2.256156762849760256e+01
-9.304754795156428671e+00 1.384461641205587235e+01 2.107742492897998332e+01
-9.835446627393165997e+00 1.347810048895383339e+01 2.089272317574923221e+01
-1.068515428087716046e+01 1.312898769934438725e+01 2.076553921751602516e+01
-1.144265108313757651e+01 1.256984929742581159e+01 2.051601596047120069e+01
5.551416786015235694e+00 1.372486269278160442e+01 2.329904883359259671e+01
4.395074866565777505e+00 1.426948900651004593e+01 2.321967541923237732e+01
1.009043584244413427e+00 1.530101375713978662e+01 2.290317628309469811e+01
-3.142042962706717457e+00 1.551320476602866805e+01 2.226740330613334962e+01
-4.992235320524720521e+00 1.540759661826919213e+01 2.204134331438821803e+01
-6.365519288477002213e+00 1.542024451405046293e+01 2.200475691716350113e+01
-8.229960980959837968e+00 1.448998843121537128e+01 2.142052855235869302e+01
-8.767511874150144990e+00 1.416731664677693381e+01 2.124880790254045593e+01
5.005609657549948466e+00 1.417912581812944417e+01 2.340148563584583030e+01
-7.691888390931679531e+00 1.481311207366352001e+01 2.159279987164728709e+01
-5.595538627813446908e+00 1.558530340151400395e+01 2.214809414975123403e+01
4.166940157420792268e+00 1.475763850185098214e+01 2.353757793890036965e+01
1.533101433267773483e+00 1.556389930524610854e+01 2.328139653375201235e+01
-2.439439560530693551e+00 1.581590993977116355e+01 2.258197246181617857e+01
-1.052330668610513698e+01 1.374652690270553990e+01 2.109753282592969370e+01
6.234325948285234231e-01 1.567552112957543287e+01 2.311798483231304857e+01
-2.860990211622266854e-01 1.578772325310417912e+01 2.295457199266377657e+01
-9.505799849813955094e-01 1.590393827203022425e+01 2.291512289540110814e+01
-3.837920900651046630e+00 1.567584106119171317e+01 2.231299470634225557e+01
-4.818900940123163501e+00 1.581246536222711541e+01 2.236755331526599022e+01
-7.343636589442184892e+00 1.563136514149729273e+01 2.214759530339422611e+01
5.862475520011146912e+00 1.396936154585492318e+01 2.364297402184624275e+01
2.751310627488707361e+00 1.545857968134444604e+01 2.358192120254413382e+01
-3.340729877060444331e+00 1.601169601715701418e+01 2.260237516546197156e+01
-9.987801010094219833e+00 1.404921112665500615e+01 2.122445181522525104e+01
-1.159489828764490582e+01 1.314090883854149716e+01 2.084583640694047801e+01
4.765575919006565186e+00 1.460669271820655268e+01 2.366356704352231333e+01
-7.837449124399999967e+00 1.534113078472394243e+01 2.191177440084395300e+01
-6.194404226809839820e+00 1.580723354234169697e+01 2.230743516934063209e+01
3.930167474722771725e+00 1.524577174795052237e+01 2.385539927946558691e+01
-1.901016024297030205e+00 1.607530228356167612e+01 2.290584761962814397e+01
-9.450912944871614485e+00 1.437182200715360914e+01 2.139559844296417168e+01
-8.913594659888826044e+00 1.469466191228389462e+01 2.156723022252058186e+01
-8.374990512363158501e+00 1.501823852810276172e+01 2.173955752027289989e+01
-1.213049933441051742e+01 1.283825088301175121e+01 2.072153007203459651e+01
-1.105919780005589992e+01 1.344365008501431724e+01 2.097123011261718872e+01
5.386742709841566779e+00 1.457748571042821162e+01 2.390188301761742551e+01
-5.728479794579518725e+00 1.604379765790450918e+01 2.249984092094275567e+01
-6.849735076050284199e+00 1.592164192716945337e+01 2.238241737505835616e+01
1.276739010647068850e+00 1.599862286829157831e+01 2.358561071334189307e+01
-2.978810573904714598e+00 1.634323644364542716e+01 2.296063971217199651e+01
-1.131176377303442671e+01 1.384681191031926417e+01 2.130161588410774343e+01
-1.211537482563012169e+01 1.339271948366727294e+01 2.111340224040346669e+01
6.361024018874647523e-02 1.614766035544286638e+01 2.336751930099860886e+01
-6.029082092237940671e-01 1.621032111851686963e+01 2.327554795601632875e+01
-4.180748004809259122e+00 1.617499598846464792e+01 2.268546823481453245e+01
-5.020930137492306322e+00 1.633861034498354314e+01 2.276857967503771363e+01
-7.872447841045301153e+00 1.574552142902758867e+01 2.226925190966172252e+01
3.104694031201046478e+00 1.584077790814254527e+01 2.403679467269153847e+01
4.851772854670774571e+00 1.511039347949988709e+01 2.412841249097453300e+01
2.190583006711933844e+00 1.591961640496074182e+01 2.381120275826024013e+01
-1.264613259552823221e+00 1.638220256117336504e+01 2.328866858307492294e+01
-1.068128060847469563e+01 1.438453584938906182e+01 2.158020861943226620e+01
-9.959382020315329598e+00 1.454041243205645628e+01 2.160042175400930731e+01
-8.515719235325892811e+00 1.556601636501081920e+01 2.218438706778498926e+01
3.693859753578783600e+00 1.573403436886788143e+01 2.417323649778424155e+01
4.137626111712811583e-01 1.650813040188910819e+01 2.378096568821884205e+01
-3.613640791752869674e+00 1.642387858670960554e+01 2.295554189297421388e+01
-9.464726061063009510e+00 1.480505064370163737e+01 2.173305129508548816e+01
-9.185832290707903525e+00 1.522577985222017993e+01 2.201823410723131147e+01
-1.276153382285728810e+01 1.326229209160412204e+01 2.116905885276809229e+01
-1.145809677203028443e+01 1.428124695223685592e+01 2.163650981479988644e+01
-5.853268307982305574e-01 1.662708786473628209e+01 2.366532964774276948e+01
-6.355672667474488335e+00 1.621200118512606991e+01 2.261704190719599339e+01
-5.861389861152360936e+00 1.650247381400602364e+01 2.285171865234374877e+01
-7.907357545716084957e+00 1.614991236482443071e+01 2.262672912799111202e+01
4.485690583026014089e+00 1.553284003965586990e+01 2.433333906518064893e+01
-4.537906594679249395e+00 1.664719882853765043e+01 2.308654844187373101e+01
-2.150695714131987568e+00 1.642724417702446260e+01 2.317750165999489198e+01
-9.930841088160841323e+00 1.503210636104710218e+01 2.197686608774950656e+01
-1.210019504544093216e+01 1.394731664734275967e+01 2.150615524929478894e+01
-5.504625429216146948e+00 1.679201027337828123e+01 2.314265266068799676e+01
-7.148926055983355177e+00 1.638309935617157009e+01 2.280134905518498556e+01
-8.483528598773689922e+00 1.609946625926610153e+01 2.264713527657172065e+01
3.457735082369498780e+00 1.622257252686159745e+01 2.449118635914326703e+01
1.020303752555336008e+00 1.643354605402914359e+01 2.388992974440295924e+01
1.805472956818787722e+00 1.628770231390895518e+01 2.401440060984041835e+01
2.559510606244090436e+00 1.643772125218265145e+01 2.439222425512560477e+01
-2.616856394281587672e+00 1.667487661064652471e+01 2.331891673886197225e+01
-3.259396052583908965e+00 1.670391306199353565e+01 2.326436919758044297e+01
-1.578603249801146191e+00 1.686041779566038556e+01 2.366216444923297502e+01
-1.065324831831459740e+01 1.487620445062917263e+01 2.195637894946476365e+01
-9.194596865023033416e+00 1.579122291010972567e+01 2.245747208553659746e+01
-1.273641286794754990e+01 1.243840279057040910e+01 2.064800771198472162e+01
-1.268332085817307231e+01 1.375453416574616661e+01 2.150269768982022356e+01
4.359755720445757987e+00 1.593935149666914697e+01 2.462773985805847943e+01
5.258017347962121057e+00 1.565583246194118061e+01 2.476448190985344766e+01
7.638386735179578668e-01 1.686858553968630758e+01 2.419429775390624826e+01
-1.229264834262427247e-01 1.702763270926544337e+01 2.414136208504673320e+01
-3.886563361076555534e+00 1.683609289470170722e+01 2.330872867990426300e+01
-1.051867227348683009e+01 1.529767231609771372e+01 2.226363990459052289e+01
-9.902168695198430015e+00 1.552437412701431718e+01 2.235381662047417706e+01
-1.336724030802993468e+01 1.286982046249888079e+01 2.109517349093301419e+01
-1.339180829302859621e+01 1.369405696561922348e+01 2.161605131713269756e+01
-1.137551779865103718e+01 1.472046035360194338e+01 2.193654641889794732e+01
-1.208496360641614231e+01 1.450182476548135746e+01 2.189933718270765084e+01
-6.566571378426841576e+00 1.665443504804797215e+01 2.301551453787147850e+01
-6.061479354352911741e+00 1.685911617064636658e+01 2.318763454825430870e+01
-7.942177238628881142e+00 1.655430288909371228e+01 2.298420542310651271e+01
1.662100875187085158e+00 1.665294959910096040e+01 2.429331716448807654e+01
-4.509028313197236848e+00 1.700889344249584312e+01 2.341730919446553472e+01
-2.254715974292522240e+00 1.700677070461010842e+01 2.367735572340891181e+01
-3.224911374771278538e+00 1.708200161969822517e+01 2.362466981214864248e+01
-1.273614029091806721e+01 1.418617355068662000e+01 2.182237971374728502e+01
-5.147555558082701488e+00 1.708185200589740660e+01 2.343382287985970436e+01
-7.271845998508513986e+00 1.680654071207110078e+01 2.317933133263101908e+01
-9.240978129064389535e+00 1.633069632449998920e+01 2.293424991931668444e+01
3.686267573545872089e+00 1.655094465099673684e+01 2.487675460345655054e+01
3.134180176876645074e+00 1.666087809816357890e+01 2.477765873633637739e+01
2.358776561150498274e+00 1.680603424081915520e+01 2.465586846340968208e+01
-1.007907034889572895e+00 1.718477759393559978e+01 2.408853072518592242e+01
-1.060588856619830622e+01 1.569631584756515785e+01 2.258404862734953156e+01
-1.133778151464998452e+01 1.537640525072860065e+01 2.243814383041480554e+01
-9.873404403171319288e+00 1.601650342365202206e+01 2.273070906133156655e+01
-1.272092881864397818e+01 1.474071593203209218e+01 2.221533167337814874e+01
-6.261745469388815266e+00 1.721608650853508493e+01 2.352385546642492287e+01
-8.608731971087262735e+00 1.664480440713615650e+01 2.313793945179507006e+01
-6.800205888144947863e+00 1.707070189440782215e+01 2.340756880414056695e+01
5.053999706125340552e+00 1.605658540854113880e+01 2.502675815461419973e+01
4.500984562751573215e+00 1.644497610055599424e+01 2.513166285315612569e+01
3.701079520536518785e-01 1.735234440377054455e+01 2.454410745975604158e+01
-4.159941530287050604e+00 1.724900744311915801e+01 2.366250905505656021e+01
-1.892636626858285043e+00 1.733871115859677658e+01 2.403571123046874902e+01
-1.399304477186646700e+01 1.313579348627885857e+01 2.143829963099587843e+01
-1.337207088623027751e+01 1.443350888139912946e+01 2.213877569055946992e+01
-1.206967300485232109e+01 1.505652314583998042e+01 2.229298143083981998e+01
3.914669241873863115e+00 1.687910998574886889e+01 2.526206236854497078e+01
1.922297739080724766e+00 1.717683480062882140e+01 2.484521423216110847e+01
1.033586083897680696e+00 1.725491380335467539e+01 2.462653609515699671e+01
-6.260679552235703937e-01 1.753094971590513396e+01 2.448437568462273717e+01
-4.790460448807052352e+00 1.737178105675272732e+01 2.372499899552271430e+01
-2.739658483777005049e+00 1.744611629372725403e+01 2.402921829454935576e+01
-1.048959385375051845e+01 1.639983003548334040e+01 2.314255525114348089e+01
-1.400787674439352593e+01 1.363034360280047963e+01 2.175061588144257030e+01
-1.402269887983175778e+01 1.412495974017606848e+01 2.206348241601926219e+01
-1.257695387641586748e+01 1.549504404026876792e+01 2.281085338327876855e+01
-5.626233524795069663e+00 1.747226349645950094e+01 2.379251216994448370e+01
-7.976907982549819032e+00 1.695869944309330535e+01 2.334238585657746867e+01
-7.538883336447661065e+00 1.728225554621413096e+01 2.362673521701217894e+01
-9.866208093301908733e+00 1.648236401678160945e+01 2.310248115351661369e+01
-9.292646595832854572e+00 1.675279033709339416e+01 2.327554392835206798e+01
5.844270001980091500e+00 1.587075985469439132e+01 2.520442420091262647e+01
2.811103548655530027e+00 1.709889206418847607e+01 2.506389377757951564e+01
-3.586400878580624951e+00 1.755385628775686868e+01 2.402272752839853709e+01
-1.132531891852251960e+01 1.585546559166055403e+01 2.282883749174451182e+01
-1.198233532918851196e+01 1.558459135491466974e+01 2.271161701864996019e+01
-1.119239504836740018e+01 1.625602163472407113e+01 2.313603421177955610e+01
-1.451842631260182337e+01 1.307453248392468481e+01 2.164678517279379832e+01
-1.326376466427593570e+01 1.499838723295478715e+01 2.258468568351441519e+01
-8.599230397176267360e+00 1.726509666701043599e+01 2.363318233559882486e+01
-9.229186280410246468e+00 1.710644898106971823e+01 2.355346008973950944e+01
5.538985990554167849e+00 1.636928672082461844e+01 2.550811425597554560e+01
4.569902526801069342e+00 1.687338029873515310e+01 2.553684675522418956e+01
6.482806622362515814e-01 1.768006909779378333e+01 2.492369143218305183e+01
-1.621676837807393357e+00 1.770437939972573815e+01 2.442484109630940026e+01
-4.433275319015206328e+00 1.766186541496006512e+01 2.401623526798006480e+01
-1.454562002672310150e+01 1.376357304976938245e+01 2.208491789172633091e+01
-1.391461813638021994e+01 1.468945782798376776e+01 2.250886506055239167e+01
-6.461904006117673127e+00 1.757287841967146136e+01 2.385990471755172138e+01
-7.100688818820502846e+00 1.760598820026643452e+01 2.391171651843988499e+01
-8.031607214396016658e+00 1.735511416621439196e+01 2.373697762414320422e+01
4.143138509507185319e+00 1.720736152634954763e+01 2.564744983361094199e+01
3.315657686287715844e+00 1.737203073064450365e+01 2.549871039411445750e+01
1.303161952956582326e+00 1.764099097503804359e+01 2.505849350200827175e+01
-2.314099115484866825e-02 1.783563155169892056e+01 2.489352035025532572e+01
-5.176211422652956529e+00 1.775099702089245568e+01 2.407623155962338402e+01
-2.255126210954293331e+00 1.776541982492431160e+01 2.438586149035541695e+01
-1.244184742503120766e+01 1.596599678903395869e+01 2.316354227724052706e+01
-1.038380804350791564e+01 1.676365837286132887e+01 2.341571371068784657e+01
-1.110523191454841729e+01 1.678328799331477228e+01 2.355439339514416019e+01
-1.189502174790346167e+01 1.611510990754822714e+01 2.313007475725211393e+01
-1.487428154398133096e+01 1.427739789670473769e+01 2.266473416920775463e+01
-1.323993540518164380e+01 1.543954929096601347e+01 2.295038665631333785e+01
-5.919491488707381066e+00 1.784042495788121130e+01 2.413625626304889948e+01
-9.859002654616011441e+00 1.694792478410629499e+01 2.347396715560428149e+01
6.654777857805042274e+00 1.604985173183423086e+01 2.574690850700642386e+01
2.488332975290414861e+00 1.753672860160242308e+01 2.534997052512633076e+01
-1.350773549646339777e+00 1.807000292246435791e+01 2.481388978733530237e+01
-3.197796887878977756e+00 1.793179575705673301e+01 2.442173777386674871e+01
-4.160506026124582313e+00 1.800837273754173395e+01 2.437157529842748005e+01
-1.308361477088057967e+01 1.593937337203552929e+01 2.332836483032040675e+01
-1.180775961897713344e+01 1.664805134498389450e+01 2.354820138283561448e+01
-1.380655939202433480e+01 1.525364784710986754e+01 2.295437712137212571e+01
-1.446497429569528492e+01 1.457698685456031207e+01 2.266040745908134113e+01
-6.662228036353961436e+00 1.792997478605519390e+01 2.419623738170798077e+01
-9.221600234149001096e+00 1.757199843496303160e+01 2.392495650682627684e+01
-8.601627009321415329e+00 1.760731605669947442e+01 2.397550742022214720e+01
-8.086294377115189391e+00 1.775154390774943636e+01 2.413228613656434618e+01
5.225286334642283315e+00 1.686765498317741674e+01 2.581163173757394702e+01
4.912412675800285733e+00 1.736597495005678127e+01 2.611506202309267621e+01
6.264995186748476108e+00 1.670958718229535123e+01 2.615357956219502000e+01
5.869919404958957587e-01 1.811080368491744963e+01 2.531083383003653609e+01
-4.755633671492813797e+00 1.804682297502880317e+01 2.436690191202185929e+01
-1.432811490733835669e+01 1.507742206179773170e+01 2.303654147605530511e+01
-1.507160027203010522e+01 1.383417017492068446e+01 2.243860840087715403e+01
-1.978009273984888683e+00 1.807707016928690891e+01 2.472465333849073943e+01
-9.851778074794266260e+00 1.741383845626412352e+01 2.384569808653739287e+01
3.721445125612929061e+00 1.760971831112341590e+01 2.586500001459909370e+01
1.572897246561048901e+00 1.802729221595983944e+01 2.549070147571857703e+01
5.757073251086894494e+00 1.718379913673996029e+01 2.634437000792352279e+01
-5.552084699647143573e+00 1.820013093346145894e+01 2.448509401030417720e+01
-2.617717524990953670e+00 1.819245394586585007e+01 2.473611586709358789e+01
-1.047753313365890193e+01 1.717586287178119520e+01 2.376154280247116901e+01
-1.369850775729251069e+01 1.581763465567339466e+01 2.340002025880803416e+01
-1.243104060910863851e+01 1.638293627471768588e+01 2.350758442576905693e+01
-1.172048615420145801e+01 1.718040460249111590e+01 2.396628940045490097e+01
-1.549525776577865699e+01 1.401535583514226069e+01 2.281889272690249371e+01
-1.490684181243054418e+01 1.502790534816326407e+01 2.325692206625248204e+01
-4.161723340179387942e-01 1.831875540344877962e+01 2.524276270974795722e+01
-6.348580172386459886e+00 1.835382732823034857e+01 2.460341831604025842e+01
-7.401843306622667207e+00 1.803885639493276116e+01 2.436240363719063851e+01
-8.992182001988698659e+00 1.801359644202513977e+01 2.437242020158879896e+01
3.084503358270212381e+00 1.779189962932658631e+01 2.580149109924771267e+01
2.165433957941062637e+00 1.797490849409863500e+01 2.563623198023275407e+01
-3.888036890735568907e+00 1.835449745847138914e+01 2.472652252013939389e+01
-3.257194261281622261e+00 1.832681121618814046e+01 2.478025324001377783e+01
-5.077633238321306308e+00 1.843156920743654226e+01 2.471718056331258495e+01
-1.109596150413235449e+01 1.741019762642309132e+01 2.404944207463830708e+01
-1.234399821851634726e+01 1.691479165157783981e+01 2.392548673278874816e+01
-1.440072671652437464e+01 1.551288425602974463e+01 2.345122915288691345e+01
-1.544653274711343016e+01 1.450323728287745872e+01 2.316391828287158461e+01
-1.079873160255245157e+00 1.843565773007701125e+01 2.520293428388696455e+01
-2.023593221445707968e+00 1.847064557365390769e+01 2.509184095921158431e+01
-7.058435740334933151e+00 1.837951212924977895e+01 2.462611523063467089e+01
-9.844542989273652012e+00 1.787953003548696174e+01 2.421722270995819315e+01
-8.140970871723025581e+00 1.814798635157074358e+01 2.452760843668003687e+01
6.484029623341205806e+00 1.733036816497607902e+01 2.681685349419634434e+01
9.580999517958123102e-01 1.854275423393282551e+01 2.581230670934384008e+01
-1.047073721517598699e+01 1.764159835402321264e+01 2.413308077659252149e+01
-1.359035588347208723e+01 1.638198839535658635e+01 2.384618575782260663e+01
-1.296700289459414890e+01 1.664870826079689436e+01 2.388545149103138954e+01
-1.594460458189559837e+01 1.447239204895416798e+01 2.352117638928221766e+01
-2.980374396443696394e+00 1.861972145533357192e+01 2.508643702641089845e+01
5.541034685414059524e+00 1.759847901260802416e+01 2.661742497341073488e+01
7.162053233340786917e+00 1.672467867680038012e+01 2.659291208053556943e+01
1.842453606315435533e+00 1.841333142302604031e+01 2.592261654482765110e+01
-6.034948331221166917e+00 1.877766398389050551e+01 2.501057765040153669e+01
-3.615369088116023644e+00 1.870087428814654018e+01 2.508172774908489799e+01
-4.507569092338357564e+00 1.875839489503318802e+01 2.507454007642096983e+01
-1.417656144541795804e+01 1.608123265397624735e+01 2.384774332459884505e+01
-1.227878234103392963e+01 1.759342175706301248e+01 2.449175865135850216e+01
-1.166890697578464042e+01 1.761933256932944403e+01 2.435859910497180891e+01
-1.534908204926130004e+01 1.547887715146617715e+01 2.385405496241321543e+01
-1.539780744076552921e+01 1.499107469299582718e+01 2.350897317336933412e+01
-1.624666602312093744e+01 1.406853956849761289e+01 2.343682547995470955e+01
-8.090433651070229049e-01 1.880125666725442457e+01 2.559187734592173769e+01
-6.744691677295026722e+00 1.880327731885741116e+01 2.503300745987915477e+01
-8.044181031368024648e+00 1.852499152242245728e+01 2.484630091693946241e+01
-9.808899745238532475e+00 1.830835316350886899e+01 2.465575161257626746e+01
2.761639825234228240e+00 1.823017623119289254e+01 2.608783428419716799e+01
7.416829568083292690e-02 1.867225598614816917e+01 2.570204837685351151e+01
-8.939192269126230883e+00 1.865650764367915215e+01 2.502995595837050047e+01
-1.040156011789358814e+01 1.822676947870919761e+01 2.465732290183371589e+01
-1.115011121857375187e+01 1.777504375117108637e+01 2.439507132245054422e+01
-1.100948180041077329e+01 1.814319717324879377e+01 2.470420568271113737e+01
-1.291846566627292070e+01 1.715737073060887852e+01 2.430987664467183151e+01
-1.476336613923215779e+01 1.577988514635551631e+01 2.385034637739854801e+01
-1.574112367100690513e+01 1.479051632704731389e+01 2.361442063897175103e+01
-1.591982039814390326e+01 1.355553821904192624e+01 2.278306800529336229e+01
-1.657325245934691793e+01 1.458022791857605860e+01 2.409024130307019007e+01
-1.653779005658894574e+00 1.888252354844178171e+01 2.554012736932116567e+01
-5.399769450964007511e+00 1.881664547793403486e+01 2.506761007002333486e+01
-7.454403607160703160e+00 1.882912654184832491e+01 2.505481741070440194e+01
6.718195341846902036e-01 1.884553335766681670e+01 2.603776849207276456e+01
-1.408480885602759258e+01 1.684313927132608413e+01 2.445405721935930643e+01
-1.354162677846154850e+01 1.689033439765192668e+01 2.427006042540088515e+01
-1.294114143852584142e+01 1.755561977129052309e+01 2.466090444381972091e+01
-1.575744249230809579e+01 1.517951303298536025e+01 2.393228040698459580e+01
-1.616530818420935489e+01 1.488001510716034659e+01 2.401097982419894095e+01
-1.662654337601227184e+01 1.390353302822428638e+01 2.366110901963946134e+01
-2.498369235770248942e+00 1.896452484807636907e+01 2.548838824264944236e+01
-4.135877324136099986e+00 1.909808155928234186e+01 2.543028363257438329e+01
-3.342914867229792364e+00 1.904697466798668515e+01 2.543664923011273871e+01
-9.773250959313823927e+00 1.873722150549153298e+01 2.509432574219228940e+01
-1.161725655536182167e+01 1.805857249140088783e+01 2.475139963602672211e+01
-1.213820300219480863e+01 1.817648219137884524e+01 2.499479214093426904e+01
-1.469388347828315666e+01 1.635157803207901139e+01 2.430443714638327890e+01
-1.349284532317041929e+01 1.739901674016881472e+01 2.469449090590198637e+01
-1.399003740405052909e+01 1.729079619545001023e+01 2.480584510052311842e+01
-1.283710664317109362e+01 1.800490060449984142e+01 2.501748707180081155e+01
-1.528009713747756848e+01 1.604990701925381558e+01 2.430753194646754878e+01
-1.600891729858014045e+01 1.544500746259224044e+01 2.441700111622633429e+01
-1.667985348327007600e+01 1.322654188680976084e+01 2.323183256994863655e+01
-1.688061748763680470e+01 1.417602242337581941e+01 2.427828663083185390e+01
-1.697242350371227815e+01 1.344855570471017714e+01 2.386743386388959465e+01
-6.631142440515787051e-01 1.914878179642262168e+01 2.597898842992389845e+01
-4.928704635937580569e+00 1.914956783119986738e+01 2.542391804528569921e+01
-6.431058233818868430e+00 1.922705548457165392e+01 2.543990747239232775e+01
-7.140628002243858852e+00 1.925302403247513894e+01 2.546180845024284167e+01
-7.947397417599040281e+00 1.890194315451630658e+01 2.516492783627095164e+01
1.761649878249351708e-01 1.913646304288176125e+01 2.619452859157406266e+01
-5.721456915732886728e+00 1.920131640118551530e+01 2.541755387877701722e+01
-8.793654620545215295e+00 1.922244307061237123e+01 2.550817164828891137e+01
-1.095793467440700120e+01 1.858262863644024065e+01 2.509716092306837609e+01
-1.156564226555161845e+01 1.849727008526325989e+01 2.514388221810067492e+01
-1.036565256825608294e+01 1.865670125782403233e+01 2.509563552796643648e+01
-1.469405586838681366e+01 1.679598933433745955e+01 2.468156377913107491e+01
-1.457921653970621811e+01 1.730363770357467246e+01 2.506203299490880454e+01
-1.344409068934363738e+01 1.790723123146129581e+01 2.511875438624353052e+01
-1.565786049652148826e+01 1.592757074159047193e+01 2.456770804618251347e+01
-1.649878124533287860e+01 1.514091215324359929e+01 2.456573786873256893e+01
-1.718795590948207064e+01 1.377175851410248875e+01 2.445849722125672443e+01
-1.673983265086340566e+01 1.491249353878373363e+01 2.469072174296599798e+01
-1.286360004521799993e+00 1.919993701764640548e+01 2.590918552635203298e+01
-3.784528387159204588e+00 1.941576450440029689e+01 2.576440927164092898e+01
-7.850532795793523810e+00 1.927917968796171166e+01 2.548377742316391448e+01
-9.737605876058555765e+00 1.916601297999353903e+01 2.553282025170820901e+01
-1.151394681202029702e+01 1.893644065629928974e+01 2.553692190573914544e+01
-1.214113022649457285e+01 1.876323223388847694e+01 2.553859564173783170e+01
-1.521113534368877751e+01 1.662043537287660300e+01 2.476129164022977491e+01
-1.400324712797216442e+01 1.769028226201043807e+01 2.516052646834360829e+01
-1.642432587870262140e+01 1.570147528601240694e+01 2.504154269940969613e+01
-1.708568676144967213e+01 1.445778357795164482e+01 2.490257804661645480e+01
-1.714114098214972159e+01 1.261974452429449833e+01 2.349977214720162522e+01
-1.731837631810141076e+01 1.299346556925729601e+01 2.406875939299092337e+01
-2.240500732991834276e+00 1.933552616101460586e+01 2.589297011726652542e+01
-3.186668654448632676e+00 1.938505085159728480e+01 2.579294399194328591e+01
-4.650827162482487509e+00 1.952868832871025973e+01 2.581252862217344202e+01
1.015446450833256797e+00 1.912427184644732847e+01 2.641006937956786516e+01
-1.033019755713142729e+01 1.908658461959298336e+01 2.553398284243201388e+01
-1.276825854455596776e+01 1.858955324798293418e+01 2.554071760443300221e+01
-1.092219147929597334e+01 1.901225802490536410e+01 2.553535196920041628e+01
-1.514216619732104085e+01 1.719092452979760921e+01 2.521543658670249144e+01
-1.451355498662968024e+01 1.798111678370288047e+01 2.562676309905063121e+01
-1.339530886886507410e+01 1.841555969746746868e+01 2.554329728046464965e+01
-1.596641725349013718e+01 1.637544013266517595e+01 2.528095054941339015e+01
-1.561206774640061212e+01 1.691111189606155563e+01 2.542141682413658543e+01
-1.690659815622308670e+01 1.524512962776091918e+01 2.529200228651417603e+01
-1.606077925147175023e+01 1.587688178025295649e+01 2.488265402654283065e+01
-1.743153763332569284e+01 1.400272482137176233e+01 2.510429535938111911e+01
-1.749557153545689658e+01 1.336704132406623557e+01 2.463766118514167047e+01
-1.117419384355920364e+00 1.949649706946098249e+01 2.624748757975121904e+01
-5.517131823238325516e+00 1.964201674468174019e+01 2.586051286710329578e+01
-6.978683058471451872e+00 1.967298251834969491e+01 2.587633912188407237e+01
-5.171531805118697589e-01 1.949584811421061659e+01 2.636613628942174614e+01
6.018767824939817990e-01 1.947986557065681623e+01 2.665386859885382265e+01
-6.268727983309656970e+00 1.964685157506553637e+01 2.585435962591184733e+01
-1.205676201525342606e+01 1.931919494137097715e+01 2.609325358747182477e+01
-1.275532880495041432e+01 1.914627421447079314e+01 2.611696544626341776e+01
-1.507322593202306571e+01 1.776107528334947006e+01 2.566965274789522766e+01
-1.395487733958628596e+01 1.819829435718764898e+01 2.558469995889776527e+01
-1.736749690373238053e+01 1.463841236462172368e+01 2.557136066269603702e+01
-1.763130314983144942e+01 1.367037271059789916e+01 2.529644328613402138e+01
-1.776685827341656676e+01 1.397335197131341111e+01 2.595462464570610095e+01
-1.763649835434650370e+00 1.959915718220339897e+01 2.622648995068035660e+01
-3.030508432370543570e+00 1.972293870680614702e+01 2.614903752184429919e+01
-3.606423879317401937e+00 1.970285066039989275e+01 2.607147344842873693e+01
-4.225885840694387774e+00 1.978479246585354545e+01 2.609198845839143743e+01
-7.688612212672635060e+00 1.969926662525707783e+01 2.589837381821950402e+01
-9.636984792553670687e+00 1.959675230100254950e+01 2.596472586484166811e+01
-1.027512029250844172e+01 1.953546012887351324e+01 2.601065413395675208e+01
-8.379129370582475644e+00 1.967166286929123942e+01 2.593169803112889227e+01
-1.333183999330964475e+01 1.883202182135586611e+01 2.595845729411700376e+01
-1.086712033820398382e+01 1.946058063033872187e+01 2.601187804427522821e+01
-1.145901693625324391e+01 1.938441969205321058e+01 2.601329731690014668e+01
-1.547398060281377852e+01 1.744868792790311929e+01 2.577731468410408411e+01
-1.627528208832171330e+01 1.682359874343833184e+01 2.599500015073617476e+01
-1.671152011550384842e+01 1.591991989024941034e+01 2.570478783075175855e+01
