7.330855738295847246e+00 1.970471908993466315e+01 4.160990448718265355e+01
1.838634401928441520e+01 1.318069202424808140e+01 3.730443341651256617e+01
1.498376936135208837e+01 1.636885787158327688e+01 3.913037477941776388e+01
1.339677954853638830e+01 1.705682300333916857e+01 4.015230185953408437e+01
1.110430079589342967e+01 1.811237862875184135e+01 4.083458086368264617e+01
1.168351881926464308e+01 1.789640207369734171e+01 4.053764437334760373e+01
1.614853754107951644e+01 1.558543521750410576e+01 3.874783673892208924e+01
4.223689597875296187e+00 2.194641145968904183e+01 4.078329474529561338e+01
4.597301622463679571e+00 2.148063073209077345e+01 4.148001330980630996e+01
5.861200957965741587e+00 2.080958665424674692e+01 4.147555321069685164e+01
9.464664968873311324e+00 1.896097380908879515e+01 4.114179626973893278e+01
9.277368051446172714e+00 1.898271930375905114e+01 4.132107584928252209e+01
6.538199182364793138e+00 2.003503444572492853e+01 4.173991306909017140e+01
6.919924905872462340e+00 2.014622278488261387e+01 4.146793074682430102e+01
1.938394973038138502e+01 7.420394696340333773e+00 3.346124065708254136e+01
1.942155948800942156e+01 8.821000015924520099e+00 3.446884787100579928e+01
1.940333030800190883e+01 1.018882403640977330e+01 3.548172913284006569e+01
1.944049088819534532e+01 9.631956899469670930e+00 3.512144734355420184e+01
7.741561653361049622e+00 1.926155517407710249e+01 4.175169789963906908e+01
7.487286814497725373e+00 1.918602906819755205e+01 4.193294618187997003e+01
6.822172879331033002e+00 1.955366073249226844e+01 4.197240217809316931e+01
1.223868509109755642e+01 1.749396871020203648e+01 4.066341828196303965e+01
1.933474726206373617e+01 1.117345432693858243e+01 3.629568694290443887e+01
1.907399500535989745e+01 1.193074756163645311e+01 3.655661082268542117e+01
1.754658162359968543e+01 1.425650735456468432e+01 3.768448900027347293e+01
1.462503862186907178e+01 1.650477444036822661e+01 3.962418389264726670e+01
1.062504771695896011e+01 1.819963774419789004e+01 4.127327049319930552e+01
1.727098347954446567e+01 1.468460088262878394e+01 3.823056432229795831e+01
1.677926141052342501e+01 1.509894090892800556e+01 3.876291993783812018e+01
5.948165968040648011e+00 2.061275648378250835e+01 4.158100645139000306e+01
5.213605185758927618e+00 2.103375553833719636e+01 4.162524834728815648e+01
3.959925051918934624e+00 2.177918429285792001e+01 4.153137196769921502e+01
3.923763181052565940e+00 2.187400540815441374e+01 4.136108239166128442e+01
8.763189440735819957e+00 1.903233496257251645e+01 4.149751805414408778e+01
1.888947747239955177e+01 6.197502744764572746e+00 3.228222039576227331e+01
1.938102165331006432e+01 6.803545786762462022e+00 3.326667797464399001e+01
1.922373190554893796e+01 6.344717489422600387e+00 3.287170303141216721e+01
1.958037708546704891e+01 9.073032277347817143e+00 3.493800923479888354e+01
8.152544362059346739e+00 1.881837903200232631e+01 4.189348790311419890e+01
8.757785892679830653e+00 1.874133383954381316e+01 4.170237415715480722e+01
9.969328364873964787e+00 1.858213265317811391e+01 4.131982863312488519e+01
7.483846885260943438e+00 1.890939635793470686e+01 4.201709696838658203e+01
6.156562415599907467e+00 1.992162946838129756e+01 4.201189359012784763e+01
5.922075901848976365e+00 2.031031456689726156e+01 4.182674949679029908e+01
1.193692969244053614e+01 1.743466129464712466e+01 4.118016037348407110e+01
1.279402138217041163e+01 1.709169207747661545e+01 4.078917114839970282e+01
1.885215816265548483e+01 1.263162354062101578e+01 3.736058932919352316e+01
1.919592753710500688e+01 1.200677673827995484e+01 3.698671579740961590e+01
1.788465559408762218e+01 1.390419121273090752e+01 3.798658258119424858e+01
1.548854790853687291e+01 1.595024358522733543e+01 3.924550258366166844e+01
1.410256072039851816e+01 1.664602479822454839e+01 4.011878015799258179e+01
1.128117155476567746e+01 1.781699577888247532e+01 4.122669831139343444e+01
5.386989680569018724e+00 2.063576657913717938e+01 4.183583062363599936e+01
4.566980379145985758e+00 2.125762011040282218e+01 4.177471993931146699e+01
4.784147261357582614e+00 2.093430493931311176e+01 4.190952542097179645e+01
3.920862445655690198e+00 2.148133773707096594e+01 4.192407534011526593e+01
4.278028893931820953e+00 2.097580696406004463e+01 4.212398406594864042e+01
1.954044788860225879e+01 8.229529902499830740e+00 3.422334397036743781e+01
1.965965253396253232e+01 7.637723888509123427e+00 3.397770033210502305e+01
1.975362106803806839e+01 8.470049013091616175e+00 3.477859838606486420e+01
1.969711789457668161e+01 9.427327386582083690e+00 3.541187164004514898e+01
9.363539021983369182e+00 1.866411128742612746e+01 4.151110458265236502e+01
8.798264208081182147e+00 1.845522543017787953e+01 4.183760888516892607e+01
6.814396935891436691e+00 1.900050543831345706e+01 4.214084398974175372e+01
5.704432140547639030e+00 1.961391195650863395e+01 4.220667983538583456e+01
1.950322751818030298e+01 1.050724018573479590e+01 3.589831565135546754e+01
1.836970984232333493e+01 1.326808002181869739e+01 3.768452644200694834e+01
1.939431041365721242e+01 1.142701132073995396e+01 3.678421361371978549e+01
6.144959196944078883e+00 1.909160126111423139e+01 4.226458807611261648e+01
5.518869848440179915e+00 1.942388356748757516e+01 4.233189111278112193e+01
1.480832244146999699e+01 1.623539683759013030e+01 4.008526536314678879e+01
1.545879292782696268e+01 1.582915858834345890e+01 3.975820779120514459e+01
1.372606610383046899e+01 1.666755940777798628e+01 4.051685571791290386e+01
1.048381622753900189e+01 1.809845672614719447e+01 4.137937183063792190e+01
9.963947560612846033e+00 1.809612461005561812e+01 4.158054929806995403e+01
1.741200539755720555e+01 1.461258690697502338e+01 3.877799383875501604e+01
1.610964091161720901e+01 1.542301917586215154e+01 3.943110271313098991e+01
1.675961999193240715e+01 1.501776929636116442e+01 3.910458498948784722e+01
4.825306321906423612e+00 2.065776548280106439e+01 4.209089897232448152e+01
5.490938536871348141e+00 2.028966542038339682e+01 4.205139262190211014e+01
3.728259572473034300e+00 2.129350719836337902e+01 4.215703292881520525e+01
9.444108895121152258e+00 1.809206867849095346e+01 4.178172927781032797e+01
1.009020286083165807e+01 1.772884038712098231e+01 4.172583795199357581e+01
1.099870905622213257e+01 1.761320772767479426e+01 4.143891652703305084e+01
9.971996121427862292e+00 1.741347118433185770e+01 4.181616084339264461e+01
9.286105631183959375e+00 1.767182673046778163e+01 4.190215427239031243e+01
8.719095550678437334e+00 1.824509650019026807e+01 4.189783016389959869e+01
6.886621282495919871e+00 1.869284060931786229e+01 4.219295691737831078e+01
6.608919941088188921e+00 1.864990069283802754e+01 4.225690321260787385e+01
5.264759260038275102e+00 2.013570487250347085e+01 4.214881017844054156e+01
4.766564162261594184e+00 2.011169560245611621e+01 4.230757361752200296e+01
4.186893951751991416e+00 2.090090861356154761e+01 4.216401123911499838e+01
4.222695443569426388e+00 2.068896130217887830e+01 4.226095087999918576e+01
4.268414956138964378e+00 2.008767728628841809e+01 4.246633371787817168e+01
4.893416922016089465e+00 1.975587545309459614e+01 4.239913287813779874e+01
7.627821770679250157e+00 1.829439549741198690e+01 4.212138050028274705e+01
8.369566810766940534e+00 1.789572560619716057e+01 4.204976136300285816e+01
7.073158622661993356e+00 1.820833052145772157e+01 4.224915116649989955e+01
7.537473144103771006e+00 1.776705661739710251e+01 4.224127965260829853e+01
8.309797776018486459e+00 1.754403761386252825e+01 4.212969475725193291e+01
6.883233605277736089e+00 1.808844170971898535e+01 4.230835645667193035e+01
8.232437909313334856e+00 1.744139958004159396e+01 4.220737986222314220e+01
1.259287594527984666e+01 1.705231261940720699e+01 4.113361869623101086e+01
1.983931097656593323e+01 9.872418369851770237e+00 3.599904239236607140e+01
1.931795254303290932e+01 1.208279809986017916e+01 3.741672225073426006e+01
1.959174190244125313e+01 1.088087406272362578e+01 3.662156971280167994e+01
5.518809862814952893e+00 1.918576140763326165e+01 4.236860786726662553e+01
6.229221246172031989e+00 1.840975188559347231e+01 4.237540134914365098e+01
1.334957385658901075e+01 1.668953948518714014e+01 4.091491493413444402e+01
1.324867991356474839e+01 1.667014458535507870e+01 4.108709583480581529e+01
1.779292532670009663e+01 1.410676934117857861e+01 3.850588518804529059e+01
1.618368779936330171e+01 1.529469216701921042e+01 4.006554492011840551e+01
1.073648789481023158e+01 1.736557554992997510e+01 4.166993950634797983e+01
1.151425471467154438e+01 1.712595435710888481e+01 4.149849103836859143e+01
4.892993322426129055e+00 1.927986186186898010e+01 4.247256305511323404e+01
5.575277395499276700e+00 1.873106479909913347e+01 4.244243383414374193e+01
3.620491635267851116e+00 2.072012740758221128e+01 4.243089555600575125e+01
3.549230633840575244e+00 2.114377926716046474e+01 4.223703999856567748e+01
2.909495245195361512e+00 2.138681593417057769e+01 4.231011837428979305e+01
3.643516377174552900e+00 2.041946986220244753e+01 4.253353211010384882e+01
3.018702162871975236e+00 2.075126435185925899e+01 4.260073033751530858e+01
3.850371738127313925e+00 1.983313645841585071e+01 4.258465018692768922e+01
9.854034279141105301e+00 1.709807337327252696e+01 4.190645494626856049e+01
9.111892462850725849e+00 1.749681492892780810e+01 4.197809504927959523e+01
1.057926187962821984e+01 1.694496451065545628e+01 4.179035546268170265e+01
6.884985862464616524e+00 1.796340627782110388e+01 4.228248665105775927e+01
8.086339156295215602e+00 1.728736283219352288e+01 4.229037682657416752e+01
7.341421662619186606e+00 1.756206721918187696e+01 4.235163134144502806e+01
9.081682759833174856e+00 1.732113101224184959e+01 4.201812759752817783e+01
1.210197468245206842e+01 1.702056379907660144e+01 4.133450033205616592e+01
1.970844426997183518e+01 1.042498968137747362e+01 3.635371826868562550e+01
1.893674887916332494e+01 1.258824411112345310e+01 3.768877431401705991e+01
1.951609278302789363e+01 1.150325403541439684e+01 3.721434309476772739e+01
1.817378455879952881e+01 1.360094236121120481e+01 3.823373954194137525e+01
1.435623302129840617e+01 1.626130728065684039e+01 4.056330446783287158e+01
1.549596266039568881e+01 1.576498046110058837e+01 4.007540864706396633e+01
1.390487078636632390e+01 1.628785089817149867e+01 4.104055307914038053e+01
1.698629082380952227e+01 1.479587817755306745e+01 3.964631802266027449e+01
1.138313167445599206e+01 1.700217951332341570e+01 4.161401941989844033e+01
1.130454570590836205e+01 1.679183299702613397e+01 4.167424479168649754e+01
6.232568676410695119e+00 1.815972110496475622e+01 4.232359741269183218e+01
5.579240496222661605e+00 1.835629578544933693e+01 4.236465006727303972e+01
4.921232658235071611e+00 1.905246282382506351e+01 4.250947375932553740e+01
3.434261754821945622e+00 2.029221540280973102e+01 4.259270698726462712e+01
4.267027778608825095e+00 1.937397592140798608e+01 4.257652965051807570e+01
4.925819814660557405e+00 1.855288527805814525e+01 4.240556207870245231e+01
4.596052587130897038e+00 1.896351034983750594e+01 4.249153598026793333e+01
3.572889214210516418e+00 1.972662539631518896e+01 4.264822877321201844e+01
8.926845117897640236e+00 1.711603452211349818e+01 4.217349320625968545e+01
1.061876740278600195e+01 1.669600073518850181e+01 4.187117137126251265e+01
1.031775985385873895e+01 1.646441741471944908e+01 4.210555665126821623e+01
9.621795172752936054e+00 1.679044666059088442e+01 4.213956172138467338e+01
1.203021392315764793e+01 1.663861038823577942e+01 4.155806994576811064e+01
1.855530007996258135e+01 1.309440102270389694e+01 3.796117189150466942e+01
1.971465390477138868e+01 1.092328564931763957e+01 3.701180823856000046e+01
1.891026684741800423e+01 1.278120178770762649e+01 3.814704553037162071e+01
1.538222569107508875e+01 1.572808555647004880e+01 4.029496172056463621e+01
1.490191588093991371e+01 1.586240383030889056e+01 4.061921185608353824e+01
1.265503875360490582e+01 1.652299364865361397e+01 4.138557751411664754e+01
1.769217730403018152e+01 1.436936140838593801e+01 3.919752729508139311e+01
1.789174903112559889e+01 1.411464578470555864e+01 3.882182468450493928e+01
2.509206735657308673e+00 2.076266088774587004e+01 4.268824170108353400e+01
4.254498616204049455e+00 1.884144135685730603e+01 4.247094573317500021e+01
3.591217619413656692e+00 1.948527267507047256e+01 4.260664282312303897e+01
1.096627336720233181e+01 1.622096191899866113e+01 4.202061129612739165e+01
1.138345192176626064e+01 1.629402569961017022e+01 4.183589154255287923e+01
8.829910567360835572e+00 1.701314589750337092e+01 4.222897378910279542e+01
9.573255962946221942e+00 1.673900048516052053e+01 4.216739067182153633e+01
8.022739037991755140e+00 1.729758101758205413e+01 4.233550483140879095e+01
6.536364145065141962e+00 1.789226529365893015e+01 4.236976294529382159e+01
1.991371456793912031e+01 1.034274018680977747e+01 3.680906726918404104e+01
1.967437773114398070e+01 1.150535044610740165e+01 3.750827436792606306e+01
1.948259683942808351e+01 1.209541311935137564e+01 3.794288749330323185e+01
1.865977616376785519e+01 1.315519271868784301e+01 3.844130721098112247e+01
1.328029441380084030e+01 1.640728902787495969e+01 4.121296991719552238e+01
1.266033000931219377e+01 1.626848909065657622e+01 4.152610937859724771e+01
1.377927726750374227e+01 1.591160159871703428e+01 4.130116376148055224e+01
1.329122890475618313e+01 1.589798616575189527e+01 4.149410924690942437e+01
1.687194686778840591e+01 1.482423250587701524e+01 4.005566463694422197e+01
5.731313209516999407e+00 1.822247699182431901e+01 4.238771932787713581e+01
2.878322724064882543e+00 2.007954517862599531e+01 4.271996787543476159e+01
2.183563466954675292e+00 2.043261632293186381e+01 4.279172757306845654e+01
2.915452098666325931e+00 1.959654614088605129e+01 4.263669192184810441e+01
3.583568425983577832e+00 1.912985403203509804e+01 4.253617894069714822e+01
9.382972669455853065e+00 1.676956946546784266e+01 4.230329951149765577e+01
8.702996634237317508e+00 1.703351531801190433e+01 4.231940083845349676e+01
1.247171458423872359e+01 1.606415966704748755e+01 4.166173991277327104e+01
1.214801139023505883e+01 1.589218991029501105e+01 4.180061820583414800e+01
7.935913064041393739e+00 1.730936479283887408e+01 4.240704249678364590e+01
6.555235578662516716e+00 1.770819532324954437e+01 4.234959956911112755e+01
7.480693262226240314e+00 1.725202249493086271e+01 4.245508961005317161e+01
6.659670593533355110e+00 1.747563072416454588e+01 4.242595834491757500e+01
1.780077135471046068e+00 1.672024538168762220e+01 4.245275175354012731e+01
8.988435882118707143e-01 1.648119637484293065e+01 4.236276486017412424e+01
1.524307516609783697e+00 1.563416450616764841e+01 4.290674856936676207e+01
2.092724833345829705e+00 1.629666258770682319e+01 4.272543415053377203e+01
2.661224023208866640e+00 1.695915916560436543e+01 4.254136734145657073e+01
2.062795056012063810e+00 1.726649393245826758e+01 4.238333287229743007e+01
1.464357011832345234e+00 1.757383369348459468e+01 4.222530868749466038e+01
9.854234281106798443e-01 1.718191057093788032e+01 4.223162991487360074e+01
1.698566921543283703e+00 1.794768854084918175e+01 4.213497629267445888e+01
2.531246670136583887e+00 1.801394547364902721e+01 4.220278297800140166e+01
3.428867445473801290e+00 1.755254685833101647e+01 4.243984944282237848e+01
3.502695488968150528e+00 1.705045901840862754e+01 4.256990602982806848e+01
3.260512470614893132e+00 1.666878533444588228e+01 4.278194391705013544e+01
4.345783794186296234e+00 1.714188275986239063e+01 4.259853111913469093e+01
4.197262660226343201e+00 1.814629144404728223e+01 4.233858140227523137e+01
3.860203485778488375e+00 1.637821319533474451e+01 4.302268067746977920e+01
1.837127176103824056e+01 1.361687699332180124e+01 3.886562905856046513e+01
1.454435309248762209e+01 1.587191689353132418e+01 4.101724691407981283e+01
1.756122967594644990e+01 1.435440653489246010e+01 4.004577505766668821e+01
1.595625807408215735e+01 1.522104403183590193e+01 4.050460589066982209e+01
5.769272946118066514e+00 1.785425262744039188e+01 4.234654830351474430e+01
2.238996280338261702e+00 1.970791782438513451e+01 4.266669010596751832e+01
2.911713047189946835e+00 1.941868854488291163e+01 4.260142169249423461e+01
4.225916697689840795e+00 1.866150073413903243e+01 4.238679411064701696e+01
4.983058623210645521e+00 1.800032545751583157e+01 4.234158605061006142e+01
3.525949612420260504e+00 1.877009652566298215e+01 4.236773098963764284e+01
3.507071290294350163e+00 1.842654711098070663e+01 4.233379527910560114e+01
1.161470587889339967e+01 1.597753430325328416e+01 4.193563019607965714e+01
1.091492595019011169e+01 1.621322202055675632e+01 4.207992263041432324e+01
1.006394599034780590e+01 1.650524742762004848e+01 4.228717086278398796e+01
9.123493228416153400e+00 1.680460411654577868e+01 4.251337675917690007e+01
1.291347323656733437e+01 1.548995582041470342e+01 4.176530283537784527e+01
1.226433837600233900e+01 1.573365342411283585e+01 4.185045110458974449e+01
1.366948358676971509e+01 1.525591680353058877e+01 4.164300212444984339e+01
5.838911068185240971e+00 1.769917013763879865e+01 4.239683554606470040e+01
6.030034782174535479e+00 1.732437775481311348e+01 4.265577316069873604e+01
6.803674579352157359e+00 1.719439652181163325e+01 4.262012949443476373e+01
8.529653284857705131e+00 1.705699786376995419e+01 4.246046491025636982e+01
1.831248350341906361e+00 1.525035057558361373e+01 4.312924270062500653e+01
3.363933311520720171e+00 1.808012797008165506e+01 4.227063817006869328e+01
2.816872907660907810e+00 1.870680686139508353e+01 4.233174844197893805e+01
2.707803673432046754e+00 1.552947435588365011e+01 4.317762726779766069e+01
2.126587098105799267e+00 1.898711301266684259e+01 4.232810820949432440e+01
4.807615056223018435e+00 1.787257101690450511e+01 4.244417389686804398e+01
4.460479314475124468e+00 1.608734816219329389e+01 4.326365381800823684e+01
5.187581186551747159e+00 1.723311592973836781e+01 4.262713478297840908e+01
3.584024538846355412e+00 1.580841021837378868e+01 4.322113328650391395e+01
2.010398301733420823e+01 1.044403360196213981e+01 3.725974266345138375e+01
1.914611799718067786e+01 1.264990203735227681e+01 3.848405316854506708e+01
1.983926116934037509e+01 1.151763580612751880e+01 3.803476477802085753e+01
1.518371703745239820e+01 1.545617299707925696e+01 4.099394403999195902e+01
1.433067547383691931e+01 1.579031685315947442e+01 4.115974044590679171e+01
1.392207467841404700e+01 1.552759333148882881e+01 4.146211021130726948e+01
1.797212500243120559e+01 1.412657762716827570e+01 3.961670980617245874e+01
1.863418907485477449e+00 2.024707684452643264e+01 4.276532651133479135e+01
2.826105292657888679e+00 1.887864473956177136e+01 4.234824256145121524e+01
4.843237618470116246e+00 1.797035272067739342e+01 4.236150394401722252e+01
1.105560427553503722e+01 1.615404847030188762e+01 4.207388520536571974e+01
1.091391287833913459e+01 1.621377497843410964e+01 4.215045003250625655e+01
9.869215978908270515e+00 1.653159645301829173e+01 4.244396078410198925e+01
1.179364697081526714e+01 1.584361997298002755e+01 4.204220411088983411e+01
1.352348477720397746e+01 1.519432692137191410e+01 4.181542977379938719e+01
1.253110016273238259e+01 1.553346463519828724e+01 4.201055204848893965e+01
6.744683556368590516e+00 1.701391005313022475e+01 4.289319495511352898e+01
6.111058244467455935e+00 1.632997915948875089e+01 4.324724802255146727e+01
6.935969805195279392e+00 1.645118278392207856e+01 4.323905996249996520e+01
6.970549273588577677e+00 1.596629515773278030e+01 4.365555537318167723e+01
6.801499189364071718e+00 1.713992762645945334e+01 4.270404564748402265e+01
7.577289109469345973e+00 1.706441343651329845e+01 4.258451208533601573e+01
5.018213743236321633e+00 1.792269603601535621e+01 4.236771295008164628e+01
8.302005623430629200e+00 1.702833529839518789e+01 4.248423148172401653e+01
8.478071249812598964e+00 1.698038327186374730e+01 4.249047868713425657e+01
8.350646171980363519e+00 1.693447063630400962e+01 4.254892190690165421e+01
5.245309252812984546e+00 1.670597770015082517e+01 4.295963104825907664e+01
5.418746219120172292e+00 1.759850622834925460e+01 4.254993747684853389e+01
5.286162544071927094e+00 1.620874058980518839e+01 4.325544248753107723e+01
1.964744640381707441e+01 1.210818648681573961e+01 3.846955286188082823e+01
2.003134025788327577e+01 1.092727663160818707e+01 3.759992330900147550e+01
1.885130104859112166e+01 1.311862207486787035e+01 3.890945806518681849e+01
1.812467599426440046e+01 1.391599634731027813e+01 3.920050376809296466e+01
1.652999925400132142e+01 1.471466003045484428e+01 4.071405006914360314e+01
1.582366828902234168e+01 1.504016521378942706e+01 4.097061471542906474e+01
1.074493428899516090e+01 1.624093125797928749e+01 4.227103728954716644e+01
1.061510184399241652e+01 1.625852527930582525e+01 4.237679106772469595e+01
1.151017005146489502e+01 1.596312541810862484e+01 4.219497646165714144e+01
1.413366321847602158e+01 1.489868171185133150e+01 4.186547938627022347e+01
1.326856872685607236e+01 1.522332915050087898e+01 4.197890068696722210e+01
1.210610516499282596e+01 1.571264956357356191e+01 4.223877255820125498e+01
6.896007951668583047e+00 1.694816967455964374e+01 4.294346966485338868e+01
6.180603402177888839e+00 1.536038741862670598e+01 4.408010765547439291e+01
5.320798144610423996e+00 1.572375649938112296e+01 4.367202386940269321e+01
7.573462325266132389e+00 1.695536034360856803e+01 4.275234798753132281e+01
7.761024887314874832e+00 1.657237304997052618e+01 4.323087433164243265e+01
8.484164614355291789e+00 1.648391320533948345e+01 4.315954207848766089e+01
8.345414705055960169e+00 1.677080025874444402e+01 4.280064327884358732e+01
8.462199393540030812e+00 1.691572609045830689e+01 4.254379030284822960e+01
3.903527941548694979e+00 1.545877590616177955e+01 4.353919040027324883e+01
4.484332080471940429e+00 1.478054932167307989e+01 4.408434573553272173e+01
5.331806341647485681e+00 1.507026318526835773e+01 4.408271958519742384e+01
3.346075588194619588e+00 1.482955338636384290e+01 4.381449843029157876e+01
1.872010817276073658e+00 1.458648033759858897e+01 4.358300187197279740e+01
3.636965732550290653e+00 1.449083115273794498e+01 4.408497654858734194e+01
1.853592914780588430e+01 1.350413496600561380e+01 3.936225907173923844e+01
1.475667198391216672e+01 1.528905938832332723e+01 4.127887635092109520e+01
1.646372008642458695e+01 1.462421749630492052e+01 4.094726662597064148e+01
1.767948665028886523e+01 1.404560243607400416e+01 4.047994760234080047e+01
1.142585718610730261e+01 1.597665297151712771e+01 4.225489967058349094e+01
1.055603185915836839e+01 1.629093321770127289e+01 4.253546337087504980e+01
9.839856268151313756e+00 1.654772971060204156e+01 4.252442224026840023e+01
9.116358866146294204e+00 1.658648137047157434e+01 4.284887567912466011e+01
1.442647867193241851e+01 1.502157636242366578e+01 4.152054980711250920e+01
1.455288362701320359e+01 1.515730176615919511e+01 4.143010903199758843e+01
1.276548172196020658e+01 1.543526287798835028e+01 4.215838457092296210e+01
6.970156513747907567e+00 1.549307091880381115e+01 4.403798584881884182e+01
8.469285003327728489e+00 1.641977804058301871e+01 4.327652876468916787e+01
2.789248095563748642e+00 1.420094204396441739e+01 4.408569771590278918e+01
1.933142147833098079e+01 1.262037558493162592e+01 3.895325607002943968e+01
1.999761553712744799e+01 1.144053653469076970e+01 3.838614976174618221e+01
2.017959020779698065e+01 1.093872854749480439e+01 3.807417935225672068e+01
2.038853566784836246e+01 1.034909878190510391e+01 3.769158110412978857e+01
1.825206596697745809e+01 1.388411950550806750e+01 4.003584625498118754e+01
1.582470440668927125e+01 1.459471690443590752e+01 4.123997770046104705e+01
1.518340205658245701e+01 1.478726475540602969e+01 4.139811289142315331e+01
1.646610085714726424e+01 1.440221966573693102e+01 4.108188443841886794e+01
1.136102069022939176e+01 1.598543739554864551e+01 4.230817905148287394e+01
9.890736762127581017e+00 1.651118750046256523e+01 4.272940560571818480e+01
9.208299837758797679e+00 1.639533405772879604e+01 4.308812516288521266e+01
9.178773776198401180e+00 1.626691964392811585e+01 4.332226135667648492e+01
1.400623139607864687e+01 1.491313984341460674e+01 4.194724222078489362e+01
5.623785299934439763e+00 1.484519295653664450e+01 4.442128917629576534e+01
6.941051387017020957e+00 1.510242686448831684e+01 4.453126294440223631e+01
6.904943359028070660e+00 1.458724568106968711e+01 4.500988427562031546e+01
6.106459113776002035e+00 1.432988099169072527e+01 4.503927710982043919e+01
7.760214859401133758e+00 1.562581195296618297e+01 4.399583827481017551e+01
8.550864056667078827e+00 1.623191414819639533e+01 4.357111926615359465e+01
5.067810237996527967e+00 1.433052534123180344e+01 4.475909297922955687e+01
3.649964001213710674e+00 1.400856073945662317e+01 4.459132965434068296e+01
1.981262052902958715e+01 1.212116289619509502e+01 3.899710064830549783e+01
2.007018897221535525e+01 1.153557139286178845e+01 3.877265868573769581e+01
1.929147565813864773e+01 1.270937306599260808e+01 3.934383692218602846e+01
1.474698523888439539e+01 1.460232087009213586e+01 4.191551929797562792e+01
1.710717169059917353e+01 1.420762987569852953e+01 4.092385216642481538e+01
1.642974013559227586e+01 1.404596975814619420e+01 4.143712203206430189e+01
1.127203388062261702e+01 1.603421035209806433e+01 4.254650193270918379e+01
9.888615089286343363e+00 1.611398689582062360e+01 4.336801601349744573e+01
1.059765271786087837e+01 1.596123058125100158e+01 4.341371632850731288e+01
9.932951200650087742e+00 1.630669636092924790e+01 4.301666554195184489e+01
1.065711286589163365e+01 1.621812052731281284e+01 4.294526555517649058e+01
9.886472025303239874e+00 1.640236241349787250e+01 4.289705550097832543e+01
8.550962749969741594e+00 1.575864316058817671e+01 4.395365462274728685e+01
1.198742694871956616e+01 1.577771843887570924e+01 4.255753120822010516e+01
1.342508098391567906e+01 1.515778207562182622e+01 4.207767746723428104e+01
1.286768014407100580e+01 1.538735172495742987e+01 4.223685516015562058e+01
1.270283185375734902e+01 1.552123629751642930e+01 4.256856059879574161e+01
1.580608602998389145e+01 1.441688725576244856e+01 4.141767556609318035e+01
4.512264574579830878e+00 1.381593490120112300e+01 4.509804280499884044e+01
5.309353222101353964e+00 1.407292343434273363e+01 4.506864115483891453e+01
3.762667421673674184e+00 1.345665593358786971e+01 4.511406454262390753e+01
1.877160547393494028e+01 1.329671502340700684e+01 3.968990358661561402e+01
1.551630609346677758e+01 1.429307327488827539e+01 4.176239113598951036e+01
1.708027027823349897e+01 1.394235080713174568e+01 4.119029918926754164e+01
1.011001366409550783e+01 1.582365654086320106e+01 4.379449734303810260e+01
9.341007567750375884e+00 1.589133131131877263e+01 4.391150934332672762e+01
1.023178875091923246e+01 1.581293997338704216e+01 4.377597336907955849e+01
8.520818736500043400e+00 1.536761314560452085e+01 4.444903773282992177e+01
1.134747824765217317e+01 1.597974032763958085e+01 4.285383135676998734e+01
1.408475431696929547e+01 1.488026912129197754e+01 4.199674456234110664e+01
1.439207285291545269e+01 1.473631932874775785e+01 4.223296339983234304e+01
1.362991532120481963e+01 1.506180234745186475e+01 4.223491918714393023e+01
1.276214189551472877e+01 1.548869055709069009e+01 4.240850721080678909e+01
1.203769929510488623e+01 1.574141729290807845e+01 4.276243988674158203e+01
7.702893664202745683e+00 1.484438972945891777e+01 4.498051372717153384e+01
1.628500424142242409e+01 1.398400424925062779e+01 4.160933804730261443e+01
6.928701172610789882e+00 1.425096851139693221e+01 4.552706209166333196e+01
5.338818812072803510e+00 1.373680171747176360e+01 4.558729300511195959e+01
3.969048764436083232e+00 1.316139752263134355e+01 4.565733321581671333e+01
2.032785230945068022e+01 1.095030245090664778e+01 3.854830910517470244e+01
2.021469889768450656e+01 1.149358244132504403e+01 3.909527521106001302e+01
1.925377431034363696e+01 1.289757528967845879e+01 4.015311815438755616e+01
1.875296075617935188e+01 1.339076864040480963e+01 4.009455923860272719e+01
1.850732129721413344e+01 1.351161817013319677e+01 4.033859949401944789e+01
1.774404084189042408e+01 1.372764961850930909e+01 4.093079300392552256e+01
9.179633850504568926e+00 1.507199148952876122e+01 4.485510222507861755e+01
9.997900332168839554e+00 1.559568121582720934e+01 4.432343472668132023e+01
1.133538834302002485e+01 1.593713194248507037e+01 4.322511201730323194e+01
1.009262115390766290e+01 1.572774701548834742e+01 4.397851310545032533e+01
1.533404241871444107e+01 1.434377007283220351e+01 4.207308060052860554e+01
1.341886500206996580e+01 1.526454463011654461e+01 4.257960008143847830e+01
1.272796358753680046e+01 1.550308717688034399e+01 4.267105599839531749e+01
1.705333688370797773e+01 1.367503798848661312e+01 4.145630704834367464e+01
6.152566204481792589e+00 1.365766738482800946e+01 4.608032425343557748e+01
4.784854707303174415e+00 1.308228078094598068e+01 4.614571037778448215e+01
1.996060733136767240e+01 1.205062869120182434e+01 3.942166480838215392e+01
1.967390610495712622e+01 1.240820583333326077e+01 3.979525861760615157e+01
9.916814617097950091e+00 1.518575463298561168e+01 4.479216118620086462e+01
1.112270117163726191e+01 1.573455591899428718e+01 4.364045724584264718e+01
1.130565984734614027e+01 1.580869484995176499e+01 4.345935742206907548e+01
1.142905362374239431e+01 1.593918499851546677e+01 4.296691305561122221e+01
1.084459381974138736e+01 1.556408389772158962e+01 4.404557052367558612e+01
8.440986670852161922e+00 1.495816011857651162e+01 4.491795431763180346e+01
1.220082142737939357e+01 1.566032818679778238e+01 4.298855704951228063e+01
1.201353335045576820e+01 1.565619406575668293e+01 4.350498570662183084e+01
1.515638897219985459e+01 1.441093835752861096e+01 4.223098464806199814e+01
1.404318559064872041e+01 1.496979511130965435e+01 4.248848120494525205e+01
6.880935497601015527e+00 1.385693932570983300e+01 4.603580618883962217e+01
7.608435783466758195e+00 1.405595297257025322e+01 4.598796832077294283e+01
1.592085790090768427e+01 1.408533622936713670e+01 4.222897565630316308e+01
5.468890889609299144e+00 1.337006297018272072e+01 4.611302447542352212e+01
2.038096028158690842e+01 1.141461929577900136e+01 3.957254249153042025e+01
1.876264473518632059e+01 1.313936477157654537e+01 4.064131448372033617e+01
1.838106836857153326e+01 1.324753248250916471e+01 4.093750821835450893e+01
1.770798232008463557e+01 1.337246254573393323e+01 4.128556928407503079e+01
9.860123048976477733e+00 1.487718598057695552e+01 4.530992127407284897e+01
1.065500041851322699e+01 1.529966615169425381e+01 4.472984741110030171e+01
8.384205269121068227e+00 1.464953774839268341e+01 4.543560590105374786e+01
8.336039644743335586e+00 1.425497567790227826e+01 4.594088796019013188e+01
1.297269316573254017e+01 1.538145319897028784e+01 4.301020413496992489e+01
1.269316443328764699e+01 1.543012196960082072e+01 4.338241253587379020e+01
1.466735865353532020e+01 1.467516436330150853e+01 4.240262553257969103e+01
1.528784441892829449e+01 1.435495863691912533e+01 4.223064216380574720e+01
1.410161682884017154e+01 1.493600481907029831e+01 4.259097334764700094e+01
7.006792103031592056e+00 1.356448867101902778e+01 4.645294172278271105e+01
1.648707747829168468e+01 1.388021937047132504e+01 4.184317265637758254e+01
5.773191829466885139e+00 1.312001159824691854e+01 4.657057599246265056e+01
6.626173031227449606e+00 1.302641424141799398e+01 4.694321640670649032e+01
5.393845204604292398e+00 1.258211309161197455e+01 4.706101119672133137e+01
2.061668333929413066e+01 1.086648501010435552e+01 3.919327007040715927e+01
2.058602601657181097e+01 1.036448789409148930e+01 3.832371869155716837e+01
2.080243902499764985e+01 1.030191014240848268e+01 3.880757667028382940e+01
2.010850213439718459e+01 1.198046710316986463e+01 3.984567872622550055e+01
1.975545180844964577e+01 1.240368575648373728e+01 4.021154014565544088e+01
9.064894081512189672e+00 1.445431938136513317e+01 4.589437542802152592e+01
1.130480936957038196e+01 1.571853568557598280e+01 4.361276107452303563e+01
1.234908136663756117e+01 1.523663872318168089e+01 4.417982970285429190e+01
1.159668211819162487e+01 1.540039622323506308e+01 4.411266491871250395e+01
1.268157533831155703e+01 1.538400941757334017e+01 4.354450177159256441e+01
1.529422859415095637e+01 1.438029866419511471e+01 4.231625771067767516e+01
1.396821789185336726e+01 1.504393206327603316e+01 4.281655977453719686e+01
1.374534030490093883e+01 1.510232104136812126e+01 4.303187416933216980e+01
1.284791926887910662e+01 1.537864752324460405e+01 4.335450987935531231e+01
1.368280630432412792e+01 1.510097213754823464e+01 4.320397963471982195e+01
8.462343805053725632e+00 1.396260646616890000e+01 4.636391160464399519e+01
7.865856537153240069e+00 1.347137197443248269e+01 4.682513405165195763e+01
6.009901118529433539e+00 1.280423354551516546e+01 4.700213503020541594e+01
1.666768250546479990e+01 1.369932541231378487e+01 4.204105385120691807e+01
1.760626274662331170e+01 1.330160964120067568e+01 4.156208785705742059e+01
1.963714133294331177e+01 1.233874712489870795e+01 4.060665425216185298e+01
1.901794722518576464e+01 1.276702697589686153e+01 4.094379432701038013e+01
1.836295660625248871e+01 1.306973978799933001e+01 4.111470821117517005e+01
1.858868678729252366e+01 1.284763793791575281e+01 4.130522291775692878e+01
9.175892599284980022e+00 1.376054980271848649e+01 4.668444919335451004e+01
9.772304067819906237e+00 1.425250005952911181e+01 4.621694707637429644e+01
9.735649776328864746e+00 1.453248783799067034e+01 4.581807850973535068e+01
1.040620623833928704e+01 1.461062072968708847e+01 4.574204043306636436e+01
1.134042044311786057e+01 1.523617508609187077e+01 4.459436454835918795e+01
1.107675210498805995e+01 1.468867193528844517e+01 4.566620845736757417e+01
1.255721061618231715e+01 1.536473614395604237e+01 4.387557909805021694e+01
1.228621489843806991e+01 1.514842256530752707e+01 4.440725520433623785e+01
1.478747759601604095e+01 1.460764178661582235e+01 4.260798246876186113e+01
1.451741246385825690e+01 1.482342428238249177e+01 4.305352876872010626e+01
1.335018963126963776e+01 1.511160626073572999e+01 4.358406134227177375e+01
7.244964491716054056e+00 1.324888571557287165e+01 4.688419270900748614e+01
8.520978036995980887e+00 1.361596123428154570e+01 4.675480496790603269e+01
7.843438662185281629e+00 1.295678609789520230e+01 4.725731493290992802e+01
8.564135933146552304e+00 1.335857859609481046e+01 4.695985976859699917e+01
6.198183637271998059e+00 1.253556410198802951e+01 4.727036429023268482e+01
1.741321220966446859e+01 1.331394207201783075e+01 4.185324461954394337e+01
2.054736925142381310e+01 1.133584573006458385e+01 4.004928894720605825e+01
9.831942467181988832e+00 1.390542476877353373e+01 4.661392338113068945e+01
1.048827195922095257e+01 1.405039087677725185e+01 4.654188016968094388e+01
9.957489098151901530e+00 1.313282876539187605e+01 4.722944590450590141e+01
1.022313355614062225e+01 1.359165604087289125e+01 4.688637922608871378e+01
1.131608693631492457e+01 1.514042273518389869e+01 4.479525530325206262e+01
1.120020197253773198e+01 1.503304303902771721e+01 4.515920302079098292e+01
1.147123634861829977e+01 1.522402976410580244e+01 4.456845526133442803e+01
1.548464469897393236e+01 1.427887231272989155e+01 4.262245630699701593e+01
1.529377195252475730e+01 1.442280410163401960e+01 4.291245309504214589e+01
1.401915200984887733e+01 1.483908062959486962e+01 4.362365008129669519e+01
1.310170324584592016e+01 1.507283646745589856e+01 4.424620156824749984e+01
7.009544529620918674e+00 1.248900265976856261e+01 4.747969909535790833e+01
8.532740729603682794e+00 1.267278783201110315e+01 4.753588957448253183e+01
5.546672692855654674e+00 1.203260537297789945e+01 4.755860865612761046e+01
1.616601910348831694e+01 1.395011905074028391e+01 4.263538627120968272e+01
1.639004197360022275e+01 1.385327064105452166e+01 4.243918049249479907e+01
2.025645473419245945e+01 1.191067395647611882e+01 4.026949749529879341e+01
1.955590439564498340e+01 1.218894761771190716e+01 4.100452951196734119e+01
1.815933770053697316e+01 1.292824352202087290e+01 4.166502373093532441e+01
9.260733169780809959e+00 1.324578807043884865e+01 4.709456277378814804e+01
1.111947918633493160e+01 1.440875251619693209e+01 4.606313411461687224e+01
1.197660718324199891e+01 1.498131060046949337e+01 4.486069812987082628e+01
1.524432650546666856e+01 1.440111320185563848e+01 4.308607772169476391e+01
1.607771787645975792e+01 1.402200197810967808e+01 4.278060556862216401e+01
1.468744636049640206e+01 1.456685195160318180e+01 4.366321006598362686e+01
1.751552971608283826e+01 1.327465006847692841e+01 4.215812946807400152e+01
1.385317162529708668e+01 1.481331468712026478e+01 4.406553691775564374e+01
7.819132671479353647e+00 1.244235772488906733e+01 4.768930995440908305e+01
7.114407363823056052e+00 1.212252528694443221e+01 4.781163948136070019e+01
6.410558422424559311e+00 1.180312471398458740e+01 4.793374988177716034e+01
1.684556812338968257e+01 1.362132086856434654e+01 4.264731248843013844e+01
1.070972660055883452e+01 1.326186578368392688e+01 4.706171604249033180e+01
9.244825091340228340e+00 1.290271640547139498e+01 4.738275629073950057e+01
1.174959794664396640e+01 1.476663770463658487e+01 4.559050462089103917e+01
1.127035334233734076e+01 1.409687394219045053e+01 4.641205055038495431e+01
1.135154793320996802e+01 1.378499174594110599e+01 4.663403953914846056e+01
1.146238762746166628e+01 1.339058673233250119e+01 4.689385931879422031e+01
1.221454611029969861e+01 1.351887201403678063e+01 4.672605744929246896e+01
1.263669006672206940e+01 1.482230197266116889e+01 4.492616353446451427e+01
1.236058596303779566e+01 1.469391105205956904e+01 4.544273767790257779e+01
1.535609667051534721e+01 1.429450914689134144e+01 4.370280532925284689e+01
1.597951616263905095e+01 1.397868332481489873e+01 4.311884728117365029e+01
1.460444472494507551e+01 1.455394689377481754e+01 4.388417980488465275e+01
1.380697837013525842e+01 1.474475752999008726e+01 4.428335023937998471e+01
2.065175910303602436e+01 1.128748054665630995e+01 4.038382782858611364e+01
2.017561680857715700e+01 1.176174558173201135e+01 4.066649332315809318e+01
1.880397518111243116e+01 1.248923987643517997e+01 4.146399031935578705e+01
1.944965069686242742e+01 1.204961760956828165e+01 4.126234689726847193e+01
1.756803641529991822e+01 1.310299799298372569e+01 4.243647536660779451e+01
1.067139684913891351e+01 1.301140860080661987e+01 4.728268880408021602e+01
1.014648391458749366e+01 1.269472607178170342e+01 4.766403982740057188e+01
9.496646889700837590e+00 1.231842525848035308e+01 4.796229013930224738e+01
1.204676141173843540e+01 1.414012337093966210e+01 4.628329141782693057e+01
1.223086224039680481e+01 1.460122802033238010e+01 4.558428040983220342e+01
1.451562579580615342e+01 1.441673115220917722e+01 4.432436296354468652e+01
1.828412947164868285e+01 1.258506688389519823e+01 4.222034389979432945e+01
1.353118705967386681e+01 1.478845571951713112e+01 4.465113720648022877e+01
1.329725453019965009e+01 1.466317315586169912e+01 4.499173733966989630e+01
8.659122283241281082e+00 1.238038546725889688e+01 4.782582514222753645e+01
2.009477009768782452e+01 1.161049732847191152e+01 4.106220498275332886e+01
1.857439049677987342e+01 1.249766367814021528e+01 4.183690045334589769e+01
1.670730250248738358e+01 1.355603053427199711e+01 4.315496906847564418e+01
1.138284025693947044e+01 1.288999977789087481e+01 4.734035032736785809e+01
1.209298592814204376e+01 1.276851899375411925e+01 4.739898131249999835e+01
1.228907529858484793e+01 1.447717369879453742e+01 4.587187001107749751e+01
1.248429982098038948e+01 1.467918473073820707e+01 4.541280956323479501e+01
1.521780393987618396e+01 1.408829092921255999e+01 4.436945870585539353e+01
1.321988350432697068e+01 1.459168538684755845e+01 4.523484467059547143e+01
8.216416404198936263e+00 1.194306571611370060e+01 4.821653398157123860e+01
7.159398201859655586e+00 1.146375249007788177e+01 4.839947260163426535e+01
2.054382669272559880e+01 1.108926987126895547e+01 4.091260306058924101e+01
1.954198071383402890e+01 1.183898032229343578e+01 4.153904360058744061e+01
1.898963566951741910e+01 1.206726059131142570e+01 4.201553093113258086e+01
1.605076173388535565e+01 1.390767991398192827e+01 4.353031963822090944e+01
1.742944290576004818e+01 1.313312246679623740e+01 4.318453359959457316e+01
1.091960080221475948e+01 1.242714250747425453e+01 4.786211096119137665e+01
1.251904677244077568e+01 1.385101562043153756e+01 4.644013861405648669e+01
1.271345233363351035e+01 1.284402536665561101e+01 4.714099208925061646e+01
1.282703401877364335e+01 1.418034900671224285e+01 4.615471251341489989e+01
1.395694646166676556e+01 1.450424585307252023e+01 4.505728057720328650e+01
1.461167119241166823e+01 1.425643359840338853e+01 4.484075025109155632e+01
1.795702409549374678e+01 1.277788670196594545e+01 4.279949752542027142e+01
1.236959243822884780e+01 1.455353640989741493e+01 4.558248891007754366e+01
1.298947083313930406e+01 1.434039048689375662e+01 4.557444772333593619e+01
1.329417948593303755e+01 1.409342128872984468e+01 4.595464549232421092e+01
1.349773551779802538e+01 1.382454907398092203e+01 4.611425306158225368e+01
1.286939475980923042e+01 1.350126457436902072e+01 4.650500227634089612e+01
6.433162951702917631e+00 1.147352172403177839e+01 4.822779492467744689e+01
7.885879736511296478e+00 1.145396678100941479e+01 4.857130535562215812e+01
1.674304971011713405e+01 1.352064657398039849e+01 4.335834743417916570e+01
1.150677634296177487e+01 1.259796284920315834e+01 4.763036879347860264e+01
1.123486127072738761e+01 1.222332636301596231e+01 4.846253378906342135e+01
9.186981594391722794e+00 1.171504993690186147e+01 4.852838752573817516e+01
1.033291458844453459e+01 1.225646156140270371e+01 4.809361702573139041e+01
1.591440054462840159e+01 1.388468555681593131e+01 4.366403641394855839e+01
1.526618551362840392e+01 1.400800772188788024e+01 4.462737197223563612e+01
1.448565606245022508e+01 1.420756527521159107e+01 4.502163506299059037e+01
1.847718698328341347e+01 1.242261923806494117e+01 4.240502181895484313e+01
1.352397350247582963e+01 1.348365779928721864e+01 4.629272855042108858e+01
1.309108409154051245e+01 1.325693562447296259e+01 4.667328911442427852e+01
1.417801141018097688e+01 1.346605977420828104e+01 4.608240930654278600e+01
1.395374070500665553e+01 1.299499718427148132e+01 4.662482557644447212e+01
1.333387212232122643e+01 1.291953638144518557e+01 4.688287393867074115e+01
1.288153981834517836e+01 1.267966172593115282e+01 4.765682189024055759e+01
9.760078462369083496e+00 1.198571009441254809e+01 4.831361616368574374e+01
6.354799624047185347e+00 1.091402811017442964e+01 4.868808486293395532e+01
2.050367653033404736e+01 1.087424780216173303e+01 4.121748992963294000e+01
1.963080803301478028e+01 1.142384122328703100e+01 4.180128044496093764e+01
1.647339621322587533e+01 1.347444772477362918e+01 4.362533550588265285e+01
1.480194099524041107e+01 1.295882144997131924e+01 4.625328766413137771e+01
1.491977996771851522e+01 1.319432755299617632e+01 4.598201822712338327e+01
1.213842757538751904e+01 1.219016605187126423e+01 4.882618961870269914e+01
1.591990206377981565e+01 1.375972537044448885e+01 4.441876319805499662e+01
1.360968225989843816e+01 1.412704767517356252e+01 4.556624503629316081e+01
1.372414733105650164e+01 1.408766366859052432e+01 4.556469387423558004e+01
1.376580525072476391e+01 1.400433614823590744e+01 4.575578870795779096e+01
1.501379333212349287e+01 1.391040433119447250e+01 4.498593695997907105e+01
1.423130783211706785e+01 1.391312799072935569e+01 4.555764778360340728e+01
1.806516548561579327e+01 1.258894497078943076e+01 4.299297859932050869e+01
1.367308420437960237e+01 1.259077787387279201e+01 4.790983518012364328e+01
8.612793029932044320e+00 1.144416400660964328e+01 4.874329848453608349e+01
1.052384971511240330e+01 1.186686402329662826e+01 4.888150490100412071e+01
7.538356748282155628e+00 1.071171945704789152e+01 4.912731398463639465e+01
1.459793215857445325e+01 1.285364688119683763e+01 4.680087478695942593e+01
1.703271573270992079e+01 1.306405497271608773e+01 4.358331231738439726e+01
1.290627256981604454e+01 1.239061929189160871e+01 4.836844894859769539e+01
1.515376618715787949e+01 1.361485280313435631e+01 4.523597245429850489e+01
1.505013470270069753e+01 1.328732293509279394e+01 4.576745614564583065e+01
1.554124169688632051e+01 1.361363187466390023e+01 4.495027354675617204e+01
1.870081405610953240e+01 1.204469596562812583e+01 4.279731641876954029e+01
1.759124184419419024e+01 1.265431222078134610e+01 4.354120672581365170e+01
1.445964305013488982e+01 1.265153877652355874e+01 4.743927293769309728e+01
9.313463055729629403e+00 1.145518925411676037e+01 4.905039782863638465e+01
1.001445403207529594e+01 1.146618664882052308e+01 4.935737414717373639e+01
8.075328989695176318e+00 1.107779039976083091e+01 4.893540637866588838e+01
7.001414993110550711e+00 1.034562439329261885e+01 4.931918924426098272e+01
1.648243758217909516e+01 1.339148976572382210e+01 4.411828316156276486e+01
1.565138687960020114e+01 1.292258694125921181e+01 4.588168681680371463e+01
1.524582752217717818e+01 1.271232408648175394e+01 4.697011996331739425e+01
1.142650734605597940e+01 1.183319805099691990e+01 4.924583245370706663e+01
1.507906683075382404e+01 1.351112292501599832e+01 4.550384463857279371e+01
1.817024214749590882e+01 1.226968780879096954e+01 4.323301727525358018e+01
9.020406382858597638e+00 1.098398620436262085e+01 4.957193491124802875e+01
7.809847161363627777e+00 1.040513119080105930e+01 4.967938851169729020e+01
7.680077441214338663e+00 9.847257055552299576e+00 5.016835743824240978e+01
1.933590005544416357e+01 1.150004811367544910e+01 4.260346043784293357e+01
1.875180071879340105e+01 1.188493054134609928e+01 4.291824862213569958e+01
1.606889695833048037e+01 1.331672754705084571e+01 4.491460440809624544e+01
1.644103287105487965e+01 1.335336501851177005e+01 4.432553947912686709e+01
1.704569411691459635e+01 1.302241630753280432e+01 4.382644770450185234e+01
1.660678496086744715e+01 1.322411391963380645e+01 4.429668249326633145e+01
1.702494736755124549e+01 1.273457828581224582e+01 4.449110222528741332e+01
1.601976262896332770e+01 1.263617754427084172e+01 4.650901390613142894e+01
1.729372231709866981e+01 1.268843036637600541e+01 4.418021788601538447e+01
1.537284427795417585e+01 1.354260867228887655e+01 4.515808338179543568e+01
1.591795486829834161e+01 1.310845564568734289e+01 4.545205286948595358e+01
1.822114476965903762e+01 1.211950618649279399e+01 4.339057526449152391e+01
1.071647760394881566e+01 1.147715862832130895e+01 4.966434760318324493e+01
6.182298797752835640e+00 1.031658470243889525e+01 4.908160315956483544e+01
6.627647431177479120e+00 9.906464670824188801e+00 4.949300264276913452e+01
8.619214908651377627e+00 1.046461884286947353e+01 5.003976584111942572e+01
1.671637111774168361e+01 1.274383802569084168e+01 4.511993942852750195e+01
1.679282527921240842e+01 1.284798322713870178e+01 4.485038931333318146e+01
1.638246754934947091e+01 1.271828021889760407e+01 4.559259446966672158e+01
1.679215243534817148e+01 1.256016629708003940e+01 4.604946353253340163e+01
1.711456697970409024e+01 1.251401137050714674e+01 4.530361695783137321e+01
1.651610154952930287e+01 1.281136438029886726e+01 4.537801452898425225e+01
1.798122717872564991e+01 1.215227072503800265e+01 4.406751578428908545e+01
1.751572751166607844e+01 1.237932357725226140e+01 4.478797246381624575e+01
1.007317939308513388e+01 1.100068443261211826e+01 5.003217399050876679e+01
8.895248747873658601e+00 9.935807867876265576e+00 5.070939693631342493e+01
