1.356514551980463779e+01 3.901786990743091543e+00 4.763632554976574340e+01
1.341013857242304574e+01 4.651382530764426093e+00 4.759399273226302540e+01
1.326128952684465112e+01 5.030419412174207849e+00 4.763450035727741039e+01
1.351605369525741374e+01 2.729143660374432123e+00 4.775717805516342906e+01
1.389975262933387690e+01 3.432033215033457374e+00 4.761121994120252765e+01
1.392342173280793638e+01 5.086603037540549543e+00 4.745541755595694866e+01
1.364613551347126297e+01 2.149056930924873487e+00 4.778758627758233501e+01
1.425007349448054050e+01 4.065392763691625611e+00 4.748235053944499384e+01
1.374429235332127952e+01 4.494223288059164823e+00 4.754589218753017121e+01
1.408674873980837816e+01 4.575998430081861024e+00 4.746890209759026646e+01
-1.012134627238104834e+01 -3.180094976355300140e+00 2.991709409107393469e+01
-1.001666276353387630e+01 -3.508268521908695536e+00 2.935558769395601786e+01
-9.772202123799063500e+00 -3.820340267520720534e+00 2.999794341665913677e+01
-1.036557995824571066e+01 -2.868449653279694811e+00 2.927471512859689540e+01
-1.022686410779028598e+01 -2.730108794087975799e+00 3.042728066184896107e+01
-1.047010419630730205e+01 -2.540557082189789373e+00 2.983633505782375650e+01
-9.667641023777676423e+00 -4.148266302331957256e+00 2.943653680581599730e+01
-1.051495047202863020e+01 -2.083520988150916242e+00 3.040457465057034980e+01
-1.024378009427893410e+01 -2.268158518519640232e+00 3.109737710423235413e+01
-9.983256115285232823e+00 -2.919947124735842170e+00 3.101174562873018559e+01
-9.826692708511796326e+00 -3.432411624536716221e+00 3.058497272816458690e+01
-9.309237714003174347e+00 -4.701661263534335333e+00 2.942147828076036475e+01
-9.553457039093920855e+00 -4.390051154301021441e+00 2.877959265692943447e+01
-9.423388682066279998e+00 -4.459978123788852500e+00 3.007871605431209261e+01
-1.055979435743380712e+01 -1.626489878652344290e+00 3.096536914453230693e+01
-9.441719802034615583e+00 -4.169831330601425634e+00 3.060910147318883645e+01
-8.861180890491697326e+00 -4.964035771913742678e+00 3.022633720747855079e+01
-9.978545060300284320e+00 -2.631161400140802797e+00 3.148614470516275432e+01
-9.705361505962946111e+00 -3.390566706522536666e+00 3.115636650348265491e+01
-1.087147427527707322e+01 -9.595824955532898937e-01 3.085829557007786050e+01
-1.060463720487351402e+01 -1.169458979505711094e+00 3.152551796472820200e+01
-8.858678562082829444e+00 -5.140615166715668316e+00 2.936756556476368729e+01
-9.125994707040014475e+00 -4.603633349694231214e+00 3.059901836023872690e+01
-9.460052736195244449e+00 -3.879655297627927268e+00 3.113267191724915861e+01
-9.739907201832357586e+00 -3.109583674277916376e+00 3.159555191715159594e+01
-1.005084175118883039e+01 -2.233962797103083098e+00 3.185222650044022075e+01
-1.032789123278246812e+01 -1.701417423134510276e+00 3.168884267111677389e+01
-1.081447358565355366e+01 -5.948680903524626862e-01 3.142419408863868924e+01
-8.408120942022620170e+00 -5.579568005595479718e+00 2.931375806965900921e+01
-8.568344698524468228e+00 -5.327809380998936639e+00 2.980420763898795400e+01
-8.828544507154406418e+00 -4.747315904688256261e+00 3.111961333872856628e+01
-8.531149510070246578e+00 -4.890971836761785596e+00 3.163909996727298690e+01
-8.967333822745104044e+00 -4.258311401459395462e+00 3.171250154782563158e+01
-9.162788522468130026e+00 -4.330014507230243836e+00 3.104479452603482770e+01
-8.364953310532046160e+00 -5.203917882436015496e+00 3.109369617923494644e+01
-8.071632226255328391e+00 -5.776534108649507893e+00 2.991819192824742046e+01
-8.298200527057289833e+00 -5.468784339781909587e+00 3.037426403988378354e+01
-9.478389971775198930e+00 -3.589406215406594214e+00 3.165574674991619020e+01
-9.773707593368644808e+00 -2.766674332362525579e+00 3.201560208023675358e+01
-1.004918161107295838e+01 -1.893015316790674030e+00 3.231892057981205824e+01
-9.496732854757008013e+00 -3.299083678357902283e+00 3.217885125117806666e+01
-1.051205095341957829e+01 -7.370457357880960680e-01 3.196402377249668092e+01
-1.032617447380999742e+01 -1.360698109021313940e+00 3.215952578382353266e+01
-1.023352015635803092e+01 -9.281524923202747468e-01 3.259873491712560423e+01
-7.735476643536420838e+00 -5.973302915898601739e+00 3.052219568180379028e+01
-8.012848569317663205e+00 -5.976158676130031822e+00 2.928442596698067391e+01
-7.682417281399881226e+00 -6.187935356756788075e+00 2.979578575892980652e+01
-9.106123100132109016e+00 -3.769306935328436747e+00 3.230323078990031860e+01
-7.868606750475673373e+00 -5.443821794930574498e+00 3.196189359395449969e+01
-8.571384124499347834e+00 -4.611498280057278798e+00 3.208200565698693651e+01
-8.715848530172287667e+00 -4.239124844555779426e+00 3.242746264678192603e+01
-7.802036202962247202e+00 -5.708579933291398234e+00 3.124151549727784527e+01
-9.772320047374323693e+00 -2.425332243821392009e+00 3.247806431336999822e+01
-9.495265848976606193e+00 -2.957870009360857644e+00 3.264172194947249750e+01
-1.072200706083678767e+01 -1.618189621746914386e-01 3.185998193682910795e+01
-1.041938062475140647e+01 -3.042457846603603411e-01 3.240255704143634574e+01
-1.062938024297837991e+01 2.709750162919016825e-01 3.229965295497240163e+01
-1.004751710197073500e+01 -1.552069216552323105e+00 3.279486919710886639e+01
-7.153303664355395775e+00 -6.458761913550441491e+00 3.059822293896140977e+01
-7.381943929923026282e+00 -6.132694683127066781e+00 3.101148249780382571e+01
-8.233252978076912143e+00 -5.034870014569023056e+00 3.215738924809021881e+01
-9.770691180889734540e+00 -2.084316666219268033e+00 3.295456234425709141e+01
-9.271104972096146923e+00 -3.475259056607316488e+00 3.272283107761850829e+01
-1.032679326164552869e+01 1.281670177218093287e-01 3.283751014711053529e+01
-1.053695187481343609e+01 7.038235401393214685e-01 3.273463816937915993e+01
-7.232494960815632368e+00 -6.605537042144334237e+00 2.967202611923814715e+01
-8.927344346975383260e+00 -3.896299339238438630e+00 3.279674536962226483e+01
-8.325785029930125702e+00 -4.708686437404653091e+00 3.255160131395953726e+01
-9.954929665275932038e+00 -1.119517053571133625e+00 3.323010570798068386e+01
-9.769057790782367690e+00 -1.743302089341199235e+00 3.342628020328134397e+01
-9.493794367736464679e+00 -2.616701891631631138e+00 3.311410305120217146e+01
-1.014086321458059992e+01 -4.956023875583479565e-01 3.303383545658984843e+01
-1.023406772636215756e+01 5.612246737183168577e-01 3.327297843340891603e+01
-6.839383334451914820e+00 -6.837302352629273550e+00 3.013661863940246732e+01
-7.179613445418949524e+00 -6.819890707279364861e+00 2.894652492594033788e+01
-6.782572573373294667e+00 -7.023136817299180379e+00 2.954829174239366196e+01
-6.730642712175271214e+00 -7.238065813759496869e+00 2.892796209019127573e+01
-6.332003582098351124e+00 -7.512413671880263877e+00 2.927127667984777304e+01
-6.386048236955513602e+00 -7.226115798137984214e+00 3.014939261285072902e+01
-9.285997918714405941e+00 -3.154207650849985889e+00 3.310540467025070654e+01
-9.045245727197430696e+00 -3.651611490253323655e+00 3.326824326631743389e+01
-7.935240766900190756e+00 -5.178823973297729033e+00 3.267587521059991218e+01
-6.571507702293494013e+00 -6.943903944195524147e+00 3.067420158984603873e+01
-7.028417861497910479e+00 -6.292081924066454945e+00 3.150086100944088940e+01
-7.235680359777981074e+00 -5.934484850870543227e+00 3.212791842149894705e+01
-9.492318603774542396e+00 -2.275533924553895915e+00 3.358702867475964382e+01
-1.004808965064209225e+01 -6.325516564623595572e-02 3.346911480033082142e+01
-9.862340227194279052e+00 -6.869618085018034392e-01 3.366501035558819410e+01
-1.045077708834132579e+01 1.173718369721343802e+00 3.313115317017903294e+01
-6.011034303276240109e+00 -7.883813936381843135e+00 2.898911439225619091e+01
-6.003969548627241082e+00 -7.731977416600838815e+00 2.957679210596006669e+01
-5.996911825366971094e+00 -7.580389713723127976e+00 3.016363072708502102e+01
-8.572770489541143846e+00 -4.268191521889179718e+00 3.318157109898692170e+01
-7.442948078543817125e+00 -5.576889585338839161e+00 3.274976981002994592e+01
-6.563990525770308615e+00 -6.724403371323014689e+00 3.141403416778267044e+01
-6.674632547036575048e+00 -6.451585165273710842e+00 3.199074336058308532e+01
-9.676590431464884290e+00 -1.310662700888823862e+00 3.386090821560479469e+01
-9.127844732143513440e+00 -3.073568167615450264e+00 3.377412027890444080e+01
-9.768588589931638921e+00 -2.690048673805867097e-01 3.410638508425716253e+01
-9.954447443526133199e+00 3.550872828012963112e-01 3.391038225608163259e+01
-1.015064336540620893e+01 1.014619621522856674e+00 3.369644488348087918e+01
-5.989858649267945978e+00 -7.428921432050817231e+00 3.075016115872349332e+01
-5.645370820825263536e+00 -8.028889247135907681e+00 2.937925435522091533e+01
-5.384213032066020865e+00 -8.044587623813889365e+00 2.998781183734926259e+01
-8.043585543162373952e+00 -4.929182706029657801e+00 3.323161988995871496e+01
-5.981978497876149881e+00 -7.209650376938910199e+00 3.149026903478577921e+01
-5.974094592951164628e+00 -6.990432345750462240e+00 3.223060351778514843e+01
-6.750398292310586967e+00 -6.254275157553848885e+00 3.245066547149102121e+01
-9.490840687024517663e+00 -1.934366105029151406e+00 3.405680404687080909e+01
-9.582615251181332283e+00 -8.929757708657793946e-01 3.430274162406406901e+01
-1.036749356808104316e+01 1.627359520821435979e+00 3.355446128904309688e+01
-1.006726887350541944e+01 1.467792130804354001e+00 3.411956260964334575e+01
-5.349659862246904041e+00 -7.864492728451963011e+00 3.075211664116163135e+01
-5.559931127467280909e+00 -7.578185219476232248e+00 3.120071040248423344e+01
-5.627627122430329365e+00 -8.175798877766847994e+00 2.887347007073525518e+01
-5.237889499534414739e+00 -8.315921228651861341e+00 2.934369722854578910e+01
-8.819746063435376371e+00 -3.827680486488767908e+00 3.382157368240127937e+01
-7.608461679260322796e+00 -5.346980179633744612e+00 3.319462639733338705e+01
-8.151930599855147008e+00 -4.679516325939133026e+00 3.378695661631782343e+01
-6.320142527285325329e+00 -6.611402849042923968e+00 3.248183419619122958e+01
-6.950546360560442949e+00 -5.975041089083369172e+00 3.282368222286907411e+01
-5.282137677732977821e+00 -7.424813190901565108e+00 3.231600611792894995e+01
-9.210434390412775230e+00 -2.495522639378696894e+00 3.427281232369702479e+01
-9.871038268320155851e+00 8.084301763941910135e-01 3.433368950251692553e+01
-9.674834837383498254e+00 1.489621496650669896e-01 3.454766495000661308e+01
-4.848319911301419260e+00 -8.455981890094736997e+00 2.981380726546243309e+01
-4.708534690401702250e+00 -8.300689833860348088e+00 3.075409396404966245e+01
-4.932315521503161548e+00 -8.646212659462728212e+00 2.906572957229830934e+01
-8.480403014113973015e+00 -4.242948964016600044e+00 3.389062923697672147e+01
-8.837215344700277697e+00 -3.497148909672789241e+00 3.421375316256108334e+01
-7.177249478555109974e+00 -5.702860165641652657e+00 3.322414285260155964e+01
-7.730054238779590747e+00 -5.109001958245236175e+00 3.365985256890518684e+01
-7.282078138169150172e+00 -5.514926545064257724e+00 3.371269963831486649e+01
-5.129730648218995270e+00 -7.727542838706629169e+00 3.165208149750706568e+01
-5.966196830734520340e+00 -6.770973131335257911e+00 3.297142866520329108e+01
-8.929770171302518378e+00 -3.057177032585510990e+00 3.448904454578658374e+01
-9.396883938550958604e+00 -1.516785712854030965e+00 3.449853557722820341e+01
-9.200448402217343613e+00 -2.101049402317144654e+00 3.458998433885594181e+01
-9.488778033977228077e+00 -4.751747841296961594e-01 3.474416003544582310e+01
-9.787629090905786811e+00 1.261816114762674301e+00 3.475691899495255655e+01
-4.704036395913227864e+00 -8.088793629722681899e+00 3.142861627453007145e+01
-4.305107235194895132e+00 -9.152906081086431556e+00 2.899755359512808184e+01
-4.226039066906443153e+00 -9.014144016667328785e+00 2.958347568161425656e+01
-6.458148514169345766e+00 -6.373188752846849603e+00 3.289758885397713328e+01
-6.707116285459009397e+00 -6.027933055867282341e+00 3.356394546652788335e+01
-5.434537880910816909e+00 -7.122083526013769372e+00 3.297643869069893441e+01
-8.963101974519982917e+00 -2.607470422714270875e+00 3.474935157562431698e+01
-9.591408117394927046e+00 6.023796496324942407e-01 3.497097398854669592e+01
-9.394942302479405427e+00 -5.736290391296869351e-02 3.518549384868677521e+01
-9.302879428737810485e+00 -1.098989581627265677e+00 3.494038593444702201e+01
-3.991674661471227736e+00 -8.549491406957216100e+00 3.150649813408197986e+01
-4.458277090325145409e+00 -8.596211289240244469e+00 3.028462097780979789e+01
-8.260225900521680487e+00 -4.429940947190269540e+00 3.435367908575878459e+01
-8.594393826101585532e+00 -4.003630012343768030e+00 3.437261116796874916e+01
-7.567295366439567239e+00 -5.077179389906576468e+00 3.435338411719798302e+01
-8.649275936276417553e+00 -3.618473307482774182e+00 3.470517952551390550e+01
-8.634826551445854648e+00 -3.026271650134668256e+00 3.518005197577804921e+01
-6.050557965991482767e+00 -6.582850374324787701e+00 3.354503099515378750e+01
-4.699535508445147336e+00 -7.876896632414446486e+00 3.210095191010787374e+01
-9.507981276551397798e+00 1.055840996645066365e+00 3.539422225610973527e+01
-9.208913811409644268e+00 -6.813600277258832216e-01 3.538196943789268545e+01
-4.067866482397248795e+00 -8.736571969963167206e+00 3.075609642370125485e+01
-4.146882650714400320e+00 -8.875233731905144197e+00 3.017019088377179514e+01
-3.492065421221072885e+00 -9.263487902902454607e+00 3.005977977968660753e+01
-5.538294274183052757e+00 -6.926570202034369572e+00 3.341667093390109500e+01
-6.956074270670269399e+00 -5.682671640452232609e+00 3.423004064318052997e+01
-4.902975940652223308e+00 -7.473125872909538892e+00 3.298144743408636970e+01
-4.730737350303295230e+00 -7.711712074675532769e+00 3.257419046350786829e+01
-8.910310541932933148e+00 -2.267576851856834441e+00 3.512264883244147029e+01
-9.106596022797164736e+00 -1.683284269564117475e+00 3.503153592765488611e+01
-9.114954083027633658e+00 -2.637487001017252419e-01 3.582346002246850958e+01
-9.311351532796471986e+00 3.956222287739214472e-01 3.560897275488787983e+01
-4.329315496381513917e+00 -8.195290031027308686e+00 3.189423973493209274e+01
-4.269716591007705730e+00 -8.026118903848791675e+00 3.254593082413530425e+01
-3.400069033185084688e+00 -9.101519597021210828e+00 3.074388202212320564e+01
-3.455889899540189436e+00 -9.507612078963802560e+00 2.933460174074232185e+01
-8.368758424474274094e+00 -4.179797911265729304e+00 3.492137870250477505e+01
-6.134907726981249532e+00 -6.394734608878513527e+00 3.411851022478549567e+01
-5.628771048958327583e+00 -6.729048825330357531e+00 3.401394324464679642e+01
-6.530878058329999014e+00 -6.033010667968177643e+00 3.426204532776903022e+01
-5.075604009040460163e+00 -7.241223379479658107e+00 3.338942721823288196e+01
-8.620287665466120686e+00 -2.434025026217042420e+00 3.565504884435622301e+01
-8.286431275122270179e+00 -3.826366421611737678e+00 3.537165255419186849e+01
-8.940126574668722625e+00 -1.307120858269607444e+00 3.560632357572668383e+01
-9.704318989171762055e+00 1.715179042688838029e+00 3.517978257272680764e+01
-7.083666382687827223e+00 -5.437413787829498801e+00 3.470630760708456819e+01
-4.371354837953295380e+00 -7.824203577540923327e+00 3.298645343512164629e+01
-3.566213490950254084e+00 -8.861039200597238263e+00 3.119581814348717330e+01
-3.915512716675824123e+00 -8.362495306359727820e+00 3.224947621498461103e+01
-2.991600140564643961e+00 -9.615746489844653411e+00 2.979606228799518419e+01
-7.852502908236892232e+00 -4.639417907463382562e+00 3.501049673082889768e+01
-5.109988319872017293e+00 -7.082309124271440659e+00 3.386227693736059052e+01
-5.785485282177397437e+00 -6.507724585465720857e+00 3.454077101689056661e+01
-8.384489066083945730e+00 -2.932685609753177935e+00 3.581672728262126526e+01
-8.002041241394428184e+00 -4.351537774816123694e+00 3.542152459397185282e+01
-8.204112811980900588e+00 -3.473217953888374510e+00 3.582167333060656489e+01
-8.693923191120076055e+00 -1.976947236465725899e+00 3.575664027492273078e+01
-8.846241979623544083e+00 -8.893005233990535219e-01 3.604778127586290992e+01
-9.156724938189862328e+00 8.472323346467489635e-01 3.609639823390843816e+01
-8.987327904036117587e+00 2.034732014837891678e-01 3.625679247794747084e+01
-7.336106509314808122e+00 -5.099164663645797901e+00 3.509964948073984914e+01
-4.526524210241224644e+00 -7.531120956855374970e+00 3.364714717198726390e+01
-3.839359091296600468e+00 -8.175526911704508848e+00 3.299144898082635535e+01
-2.731904998625366510e+00 -9.466663240076163888e+00 3.073201041266161226e+01
-3.064051469368082703e+00 -8.985632878540355861e+00 3.162927394770046163e+01
-6.630012512154451088e+00 -5.850440932799590321e+00 3.474690989058046142e+01
-6.219284400001494184e+00 -6.206540192897509911e+00 3.469185158628977206e+01
-9.282835771777600442e+00 1.465258793767334256e+00 3.602248998236809285e+01
-9.381855013220446793e+00 2.067240745408339020e+00 3.600270209009114097e+01
-9.641334119545595271e+00 2.220869388255039212e+00 3.548382063274516440e+01
-6.819968134970775253e+00 -5.558680772563429073e+00 3.518746581632953507e+01
-3.834854307442119303e+00 -7.966700634521825641e+00 3.372700509284523207e+01
-3.166818303885655439e+00 -8.728466665952405279e+00 3.230199579548954603e+01
-2.582420178986979842e+00 -9.348649253985701790e+00 3.132179867055311107e+01
-7.550521678478504306e+00 -4.764913945068195211e+00 3.546728368634403239e+01
-7.953764250606487174e+00 -4.019440879956513335e+00 3.579325962814792916e+01
-5.334578838229639963e+00 -6.764453707362163115e+00 3.462166692016761260e+01
-8.329687351980018306e+00 -2.600789918325363548e+00 3.618844953877604098e+01
-8.577344514484313009e+00 -1.515251297928790430e+00 3.627223799946072091e+01
-8.809167843269117171e+00 -4.265297923134064306e-01 3.636152744122710345e+01
-4.681693614326968067e+00 -7.238039198325819434e+00 3.430736757212910959e+01
-7.044597867334282171e+00 -5.126699509832732815e+00 3.580483157710256137e+01
-7.635709692416297933e+00 -4.523094564241115556e+00 3.592116897897265915e+01
-6.303647448214712234e+00 -6.018359873110484592e+00 3.527503496474469102e+01
-6.361798028253607740e+00 -5.773297550038806847e+00 3.581328480553569449e+01
-5.683889484377224299e+00 -6.401264824946152565e+00 3.526278837397287447e+01
-4.873180916109853378e+00 -7.010941515281593261e+00 3.477964107860886855e+01
-8.121783916555958882e+00 -3.120265492256677042e+00 3.627146487338573166e+01
-8.308388907776805610e+00 -2.141299506807873954e+00 3.649671935829127278e+01
-3.830352917936646229e+00 -7.757959742507530621e+00 3.447486140341577965e+01
-3.412730619074100247e+00 -8.062563045598196254e+00 3.412095519933478016e+01
-9.514962376932876609e+00 2.711698595695861247e+00 3.588189342009822269e+01
-8.991206562524814316e+00 1.292348956065982879e+00 3.660554835023654618e+01
-9.122766126793697694e+00 1.913854117933767585e+00 3.652079011431393951e+01
-8.681356907333585227e+00 4.071908462587120470e-02 3.679522726559731183e+01
-8.859641670265194335e+00 6.709404123667290776e-01 3.669030337175146883e+01
-8.438767866292028685e+00 -1.047216290651937332e+00 3.679515343282298545e+01
-8.503061779864664160e+00 -5.894810940934190890e-01 3.690014323935498908e+01
-3.269581681235536941e+00 -8.471300308405755430e+00 3.297468230347878659e+01
-2.562391206106052088e+00 -9.110100952986901035e+00 3.206120558097828876e+01
-3.320408264738400117e+00 -8.309445626008262309e+00 3.340620697984589782e+01
-7.649876733048424526e+00 -3.928881084859575878e+00 3.640851623821738769e+01
-5.064662725773763086e+00 -6.783841272570036551e+00 3.524821896795415910e+01
-4.253860403907910204e+00 -7.393597233750294428e+00 3.476590729834567384e+01
-9.223368564840766837e+00 2.538591850904744707e+00 3.646492992109648412e+01
-8.863358316003715487e+00 1.760287526409545444e+00 3.703950459104844128e+01
-2.555505046148549120e+00 -8.968264574208751228e+00 3.253873551095281158e+01
-7.663926204858534597e+00 -3.334621244685992636e+00 3.689591620604275590e+01
-5.844071775691624282e+00 -6.178060660448732477e+00 3.570173453741490022e+01
-6.419932193470527793e+00 -5.528296013832997069e+00 3.634895328312935447e+01
-5.224804682851797999e+00 -6.560722817533160445e+00 3.568714633638916212e+01
-8.194657118613301705e+00 -1.718953929179338980e+00 3.694560576253842044e+01
-8.039411021706245108e+00 -2.767353565084074152e+00 3.672118906341416533e+01
-3.433775766970997179e+00 -7.898129155307015203e+00 3.466555259868882644e+01
-8.731799180700750895e+00 1.138997702050584815e+00 3.712431966728805577e+01
-8.801884376638598795e+00 2.288407367430838057e+00 3.730762371448049208e+01
-8.309582297620146107e+00 -9.253758746483475850e-02 3.747460297212637670e+01
-8.196715269272392135e+00 -7.525601856296828540e-01 3.743916808566827115e+01
-2.699503186962187939e+00 -8.767228036410241288e+00 3.295780967024984420e+01
-7.269228770065024214e+00 -4.694718643864964847e+00 3.642098753172307823e+01
-7.288038052641023334e+00 -3.902448999938106677e+00 3.707080496003298009e+01
-6.824200667286371313e+00 -5.100485388399153663e+00 3.647084735482955153e+01
-5.905184869590869745e+00 -5.920771968506584493e+00 3.626423869422732338e+01
-5.384945367832806085e+00 -6.337603663821304245e+00 3.612578894322788869e+01
-4.445744357407469316e+00 -7.166227472125159537e+00 3.523398215076548468e+01
-7.925724855468906149e+00 -2.345156534158556294e+00 3.716994522193493822e+01
-2.801301213504063359e+00 -8.443402740999703227e+00 3.383308582541810949e+01
-4.685493888337042279e+00 -6.831787154789478400e+00 3.589228076824939961e+01
-3.825852801034415940e+00 -7.549214386884226080e+00 3.521974245547654192e+01
-2.939334788973535950e+00 -8.180183635883247817e+00 3.452418202740489050e+01
-9.323969737708203809e+00 3.159190353416434505e+00 3.640906720739342006e+01
-8.540809065677381184e+00 5.554256213235138073e-01 3.727245957238702800e+01
-8.004346441183352923e+00 -1.337610679289571003e+00 3.752906310913959942e+01
-2.129254941661673950e+00 -9.063241990309006013e+00 3.294543384753615101e+01
-7.222894937831514817e+00 -4.354165544728856752e+00 3.679653763043138071e+01
-5.966296059540829866e+00 -5.663480628459522492e+00 3.682645268782319903e+01
-4.925244404523436259e+00 -6.497346455979948310e+00 3.655008618036072221e+01
-7.638212637494699919e+00 -2.931152999648197532e+00 3.719537025588343226e+01
-3.886279136674923862e+00 -7.304956306110995001e+00 3.594585903125382487e+01
-8.999871109281841086e+00 2.967857666839782471e+00 3.705703574198673778e+01
-8.400307471677812998e+00 1.070003042326833409e+00 3.774951469025011619e+01
-8.604047349187961657e+00 1.606784428797502828e+00 3.755801542837066620e+01
-8.055779994383794218e+00 -4.316014947696755755e-01 3.784161571202627528e+01
-3.179913947931438667e+00 -7.873444948079483474e+00 3.519095535018528409e+01
-2.282159319703837230e+00 -8.577369118308725504e+00 3.425755039678826819e+01
-2.205707112898033895e+00 -8.820304289469282466e+00 3.360247442870674917e+01
-1.454449150780101396e+00 -9.187756185807398168e+00 3.365830225421706245e+01
-6.478055511480040884e+00 -5.283327722374036028e+00 3.688436550409412717e+01
-6.903176803366326553e+00 -4.866137902186667752e+00 3.692018092280764563e+01
-7.320550233789717254e+00 -3.444047609074106120e+00 3.732173658433342922e+01
-5.454536166600433944e+00 -6.043637360193403474e+00 3.676854727865396910e+01
-4.494200608124377716e+00 -6.797363143737500835e+00 3.642206070783743144e+01
-7.811963902264175807e+00 -1.922659347143683473e+00 3.761895177344287333e+01
-7.524401436397099019e+00 -2.508845887845123634e+00 3.764434423262270002e+01
-8.196559513590299773e+00 5.332689420447361828e-01 3.794101299604579225e+01
-8.407900999136282749e+00 2.110645322936030244e+00 3.792075181538675821e+01
-7.890838329298118126e+00 -9.153888566409164040e-01 3.797735300006198145e+01
-7.992781634209427111e+00 -3.491859123877835008e-03 3.813252985818548524e+01
-3.294652025236849635e+00 -7.684284561533871738e+00 3.563014159976745532e+01
-2.534369569831496083e+00 -8.197477537957949423e+00 3.516204873844240097e+01
-1.559762870085184883e+00 -9.358861596891541623e+00 3.293463148074724245e+01
-1.799986593481785135e+00 -8.880769555944009852e+00 3.407606520014005724e+01
-6.912158346566371847e+00 -4.470220221337221744e+00 3.724566026146275988e+01
-9.197994187154508339e+00 3.648527418547363510e+00 3.680627004645652534e+01
-8.572872408888152052e+00 2.776710099482430749e+00 3.772154998092488398e+01
-8.298733401119124053e+00 1.444248391925032626e+00 3.809197523721119438e+01
-8.133721155003501124e+00 9.607888013127076077e-01 3.822832585358424495e+01
-7.698330176409307946e+00 -1.500610865316410747e+00 3.806743097248668306e+01
-2.726668268008975549e+00 -7.977673003085603121e+00 3.557728406561513879e+01
-1.889043967136566193e+00 -8.521401246956193276e+00 3.513305296839984493e+01
-2.151699374788827779e+00 -8.198796522203906534e+00 3.577389587507489210e+01
-3.337370000359292543e+00 -7.462022440408345503e+00 3.631042884165883322e+01
-3.946737297873128103e+00 -7.060568446020540456e+00 3.667183711137224833e+01
-3.315051470988726212e+00 -7.303511389843978741e+00 3.688139959482297314e+01
-2.817922286374576757e+00 -7.599487362802247681e+00 3.669293502077925240e+01
-2.763580187423547940e+00 -7.819320955319723154e+00 3.604000813732167074e+01
-6.873726839438221603e+00 -3.864638391813334017e+00 3.769497411949598131e+01
-5.524123113338920810e+00 -5.749670178114940633e+00 3.741107507440312219e+01
-5.018338774073328068e+00 -6.105325139140725277e+00 3.740637838087313582e+01
-7.236815397028173003e+00 -3.095031470684260544e+00 3.766973665841889130e+01
-4.466034840786822002e+00 -6.656916813740663130e+00 3.697374233920859865e+01
-6.029962921850279045e+00 -5.393976158891036654e+00 3.741577774323344840e+01
-8.685272934318957638e+00 3.416697457958403294e+00 3.760416437759479891e+01
-8.211648549572165834e+00 2.614698446798768394e+00 3.828367876938544612e+01
-7.880265339544710201e+00 6.218914863229477730e-01 3.859308694023634700e+01
-7.788712068470695193e+00 -5.409742723278538890e-01 3.832430970351764188e+01
-1.349103520653682997e+00 -9.016602494333241680e+00 3.438110400665132715e+01
-1.762684536983988082e+00 -8.711417531696161731e+00 3.468119118115803445e+01
-1.243691236379391718e+00 -8.845340979416574712e+00 3.510397988018990389e+01
-9.777117858208690393e-01 -9.475688925496223547e+00 3.334911528825835347e+01
-6.536273694639118226e+00 -5.037951536369082106e+00 3.742049085168831368e+01
-7.309992847461461274e+00 -2.127844261078579713e+00 3.821199163185428205e+01
-6.950914846714506545e+00 -2.799988313256289718e+00 3.828379647144434728e+01
-7.993119650092894268e+00 1.281565611458292953e+00 3.862645812968962389e+01
-7.584653657840767949e+00 -1.078380922811557063e+00 3.851606563040490272e+01
-9.466872341461065599e-01 -9.309611542409252039e+00 3.395180905865991150e+01
-2.232488045809278621e+00 -7.954361656405680492e+00 3.644967395837337421e+01
-1.634089479100409470e+00 -8.467984939766768804e+00 3.571963071455569150e+01
-3.439473962478458269e+00 -7.098127623932235508e+00 3.737135066835455177e+01
-2.872263227001263353e+00 -7.379652763665029980e+00 3.734573068557783415e+01
-4.512772676016375328e+00 -6.460826952425467340e+00 3.740168580549376287e+01
-6.835195560646364576e+00 -3.258997580741477051e+00 3.814432091297230443e+01
-6.410171123381790181e+00 -4.675206039444024242e+00 3.783886639231306503e+01
-6.032451389591537705e+00 -5.196186170647311364e+00 3.780261431025625285e+01
-6.433332412292720903e+00 -3.423059580225600307e+00 3.861915023473712694e+01
-6.519128659345141408e+00 -3.763161185343437243e+00 3.827403320975356849e+01
-6.284097352382526758e+00 -4.312699178992495774e+00 3.825696123920002378e+01
-6.419973893887986449e+00 -2.959805336407897780e+00 3.894934318800225270e+01
-6.808009121074909409e+00 -2.333031382036307999e+00 3.880499949299424856e+01
-7.196003253375304887e+00 -1.706263851417575417e+00 3.866065718892294001e+01
-8.764782008879874908e+00 4.046705016048504078e+00 3.753797466127394244e+01
-8.330653888740080504e+00 3.256159742408883062e+00 3.815604595400913013e+01
-8.102384775743736611e+00 1.948056930225349648e+00 3.845507208646844077e+01
-7.648910486146792920e+00 -2.616039604075351063e-02 3.879566114639985130e+01
-5.953220558155704056e-01 -9.119759792141101329e+00 3.507805005925052910e+01
-1.627699827819950817e+00 -8.334588740165104426e+00 3.616965109486778829e+01
-1.219173665460857592e+00 -8.638413961714023870e+00 3.582561893764120242e+01
-4.007146174239042402e+00 -6.816373657490449212e+00 3.739698982427617580e+01
-4.598597997836912477e+00 -6.188247245578879507e+00 3.782121404242683127e+01
-5.273571870489133673e+00 -5.729846281027747956e+00 3.779548160155667347e+01
-5.906458942786092514e+00 -4.833540523837824843e+00 3.822078414512513689e+01
-6.157916777524300223e+00 -3.950031051958677430e+00 3.867522474883456596e+01
-8.449655631871872075e+00 3.904922041126082544e+00 3.802841249342738905e+01
-7.886236275121894401e+00 2.503671491923670445e+00 3.885478884282704826e+01
-7.687594376403901641e+00 1.118940292224412936e+00 3.916078614312477413e+01
-7.457605926756799342e+00 -6.100281558622622224e-01 3.894465493288826252e+01
-4.956266311896540544e-01 -9.356110665241239133e+00 3.442025738544145241e+01
-3.959305305385550922e-01 -9.592461342155578663e+00 3.376235310522585564e+01
-7.447771705055208358e-01 -8.945386383337671887e+00 3.543957945329045600e+01
-2.305251896787441801e+00 -7.661079665063757815e+00 3.732011634047431414e+01
-5.528800232120233638e+00 -5.354365271442497409e+00 3.818457627131774501e+01
-5.767676391425009541e+00 -4.434619316025939284e+00 3.868089071399556644e+01
-6.031584078853427400e+00 -3.587068642746567448e+00 3.909380444472255789e+01
-6.338388275480301814e+00 -2.550229548545749125e+00 3.938617409102248246e+01
-5.950174634430091203e+00 -3.177075759141781752e+00 3.953075745779230488e+01
-8.527221994876891031e+00 4.520977472425946608e+00 3.794823556340118387e+01
-8.015070261432569509e+00 3.115159626110191926e+00 3.864720354072585451e+01
-7.509137867602175831e+00 4.883755146410019843e-01 3.926678734756583822e+01
-7.722917474522039250e+00 1.819377268052513985e+00 3.912109615979071009e+01
-7.208544353972200724e+00 -1.252312626348011992e+00 3.898151303598150719e+01
-1.194631972106813711e+00 -8.431294607331762947e+00 3.654780051581106193e+01
-6.619451863591475638e-01 -8.811812077257744846e+00 3.599512340698123580e+01
-2.466299880907353859e-01 -9.045277860053341001e+00 3.577457673673781358e+01
-3.450502499234793241e+00 -6.946754952179936105e+00 3.778002733858872375e+01
-2.321228545208815941e+00 -7.434302449852514094e+00 3.793307079796079506e+01
-4.560169217951782983e+00 -5.964737149239549119e+00 3.831512139116957627e+01
-4.010713444095135749e+00 -6.487095948554661540e+00 3.804171525084903038e+01
-5.304932192137372660e+00 -4.974122427461516338e+00 3.871570539117414711e+01
-6.632390773638976000e+00 -1.966581662862705526e+00 3.935839386643385751e+01
-6.832326930207942794e+00 -1.426291923078364166e+00 3.944706869666039495e+01
-5.562017249047959133e+00 -3.755125327177736949e+00 3.947542965721115849e+01
-5.628790868852002305e+00 -4.035514428723636193e+00 3.914115767267256274e+01
-8.134284980890587491e+00 3.763009037254830158e+00 3.851923429239771224e+01
-7.495954201657294647e+00 1.466846692771393235e+00 3.951052469022740610e+01
-7.330667442356989305e+00 -1.421675452422734576e-01 3.937278442982533733e+01
5.257189149241026094e-02 -9.393977656066438087e+00 3.505209749873557001e+01
-1.701104292134971940e+00 -8.089475531213622617e+00 3.685944283088375073e+01
-3.194935825627942538e-01 -8.797597031833378267e+00 3.650120043619151744e+01
-2.893537164092858216e+00 -7.077212639275821005e+00 3.816324566564109233e+01
-5.025203439361553670e+00 -5.512525638110176374e+00 3.856646710793144450e+01
-6.456756053961599129e+00 -1.599970118676869779e+00 3.991180455330130883e+01
-5.868771211722363823e+00 -2.767421798688845413e+00 3.996730852316400018e+01
-5.472665225419888202e+00 -3.304118441756622282e+00 3.995578103071620291e+01
-7.068876692208987400e+00 -7.374243740053157969e-01 3.945265332191632268e+01
-8.014463944690035646e+00 4.289960682561404504e+00 3.874623454377297094e+01
-7.818511921143149301e+00 3.620888340508088721e+00 3.901068667703309245e+01
-7.382340242854357193e+00 9.564672659314141789e-01 3.969464077205854124e+01
-1.737534012970487263e+00 -7.942859344663819599e+00 3.729446346778270538e+01
-5.870071028690914128e-01 -8.468488870129531776e+00 3.723798627413034978e+01
-3.440122498620271863e+00 -6.645925169718504222e+00 3.838469554513376636e+01
-1.831832650434123355e+00 -7.732883312735129522e+00 3.775519999962290996e+01
-4.521868292476878715e+00 -5.670601845855246737e+00 3.894813309409439483e+01
-5.225953793898876043e+00 -4.483987642224644077e+00 3.918849053596508014e+01
-6.626678675648860484e+00 -9.242316222719700880e-01 4.000893269979073352e+01
-6.162780879847320925e+00 -2.183696831051593623e+00 3.993955518807290161e+01
-5.391196758184691795e+00 -2.894252946381766112e+00 4.039251353941084233e+01
-7.670046698406496333e+00 3.053545090525511263e+00 3.925456530105544317e+01
-7.521681899711532893e+00 2.491949933214660184e+00 3.949827255568765594e+01
-7.373447554085844402e+00 1.925962073711832812e+00 3.974175947001833720e+01
-1.170126606354415788e+00 -8.224485257785875802e+00 3.726882325284788777e+01
2.515194823981533601e-01 -9.145170024441654277e+00 3.610951640531401807e+01
-4.014262023227312071e+00 -6.158035990215841693e+00 3.868597331309130283e+01
-2.337202128440194482e+00 -7.207523734604689203e+00 3.854600205774850963e+01
-4.857111134274738617e+00 -5.267371537637477452e+00 3.893288953841253175e+01
-7.203734650624681102e+00 3.255989669463528746e-01 3.980081717626300275e+01
-4.823160933006100493e+00 -4.932393068355763965e+00 3.923579718424465312e+01
-5.092838574689275255e+00 -3.923036673094853821e+00 3.985667748702451973e+01
-4.730890031200218893e+00 -4.542835533626825573e+00 3.969961577936637553e+01
-7.225139900284104577e+00 1.360076007337441384e+00 3.998536147696760423e+01
-5.904001127977968055e-01 -8.324821550386026558e+00 3.768755202300133789e+01
-3.112076306325900488e-03 -8.712817294578901084e+00 3.720710334885330184e+01
2.080039227256401946e-01 -8.956931468376962968e+00 3.667760859642380211e+01
7.253022203503367571e-01 -9.456727087317524649e+00 3.573527673826860251e+01
-3.374654514162846120e+00 -6.425605396601682173e+00 3.889402488728877216e+01
-2.897044059512805081e+00 -6.780841229713253426e+00 3.874314046666279410e+01
-1.762598960429523576e+00 -7.589981072729370837e+00 3.824795237771245127e+01
-1.187994835205401500e+00 -7.972438526010328985e+00 3.794990588834277645e+01
-4.420436831507860376e+00 -5.380704148378499418e+00 3.928307870659696022e+01
-6.941947766336800996e+00 -2.696145937074307386e-01 3.988071817003471153e+01
-7.076673173516834225e+00 7.937805093517695809e-01 4.022921942476651935e+01
-4.410607794411591343e+00 -5.002878231881920712e+00 3.964196714099065844e+01
-6.305073253950201462e+00 -1.281491895101152245e+00 4.029953620609922638e+01
-6.081332735699158221e+00 -1.773579388945376367e+00 4.037634189246863770e+01
-5.787232220986224362e+00 -2.357348527066577493e+00 4.040427470272943822e+01
-4.932861576585944263e+00 -3.478531134442434336e+00 4.041018677998150821e+01
-3.459075907180592768e+00 -6.156741811234688555e+00 3.932667883054753588e+01
-4.017792427771044395e+00 -5.828907814422878531e+00 3.933033757193978630e+01
-6.802054241110902844e+00 2.447019441947003715e-01 4.035180829499295641e+01
-4.623886591278627556e+00 -4.090863367903912362e+00 4.023769743423702039e+01
-5.301367080560827283e+00 -2.443472519160800438e+00 4.087300774543445669e+01
-4.897372305541561666e+00 -2.939276634201033467e+00 4.090480778729515521e+01
-7.484665650038097695e+00 3.475193735374443982e+00 3.951917180727443224e+01
-7.373763976369359874e+00 2.963567116783992095e+00 3.970446264413404691e+01
-7.135586214926365578e+00 2.614452046968516630e+00 4.007600260616047194e+01
-6.970725696043256647e+00 1.938012703272231851e+00 4.034851246688048576e+01
-1.205863500043802494e+00 -7.720345629442613600e+00 3.863108625204081648e+01
7.496676765945515797e-01 -9.245060823138739892e+00 3.644441747932685161e+01
-2.900537006962375930e+00 -6.484469108427850514e+00 3.932301828866938109e+01
-1.780081997967657426e+00 -7.338019762288682912e+00 3.892927808867895578e+01
-2.341457647217340732e+00 -6.812511063253196220e+00 3.931935163350741647e+01
-6.845440572603363805e+00 1.319158401299396211e+00 4.055927945021501557e+01
-3.907002526642675999e+00 -5.361817649246117590e+00 3.988662126203518454e+01
-4.265445182993418349e+00 -4.726347983474012970e+00 4.006216154129964480e+01
-6.253782784514428705e+00 -8.514699043570269632e-01 4.059654066883649648e+01
-5.705651746080249609e+00 -1.947302744753196979e+00 4.084118893846758880e+01
-6.527940258065521029e+00 -3.033476064094590696e-01 4.047416756841585084e+01
-6.652554249327380376e-01 -8.062093599590037130e+00 3.832973386348543698e+01
-1.088167867556315976e-02 -8.425121606353629389e+00 3.810611142117195271e+01
5.806446102366337181e-01 -8.957087525313752963e+00 3.717622521017509030e+01
-3.451961628167509843e+00 -5.953170914512557310e+00 3.968679099807103228e+01
-6.611677411389857539e+00 5.746262899219379827e-01 4.076700214039777137e+01
-5.979706902358898901e+00 -1.399415116219347333e+00 4.071887194519768371e+01
-4.495493457086541689e+00 -3.810988869747272911e+00 4.061701367100626925e+01
-4.493310215009504560e+00 -3.435149246942191592e+00 4.093661843550304980e+01
-5.130571373750819397e+00 -2.177839339332915181e+00 4.127011973885148421e+01
-6.200443163409957492e+00 -2.478734624977796119e-01 4.095044150039783659e+01
-5.857739141334323385e+00 -9.331377331649357565e-01 4.110337172643622949e+01
-7.151601165112346337e+00 3.329802482793053020e+00 4.002646678784101653e+01
5.747990283967935321e-01 -8.741282310484088214e+00 3.785056005476748453e+01
-7.630229467880674799e-01 -7.829449063335928827e+00 3.886043881544632939e+01
-1.424176171697116855e-01 -8.108162467184378386e+00 3.883116049255400526e+01
-1.223723851065018797e+00 -7.468338339665288927e+00 3.931201460372429324e+01
-4.154861806832079729e+00 -4.258709427031161177e+00 4.061874730895605978e+01
-3.796120804789766101e+00 -4.894253492196138922e+00 4.044346447847983939e+01
-5.583728217434462238e+00 -1.481228287852502268e+00 4.122555091706234265e+01
-4.726215986818656845e+00 -2.673912593825862327e+00 4.130210121155123204e+01
-5.804397314503350280e+00 -3.295783326511605438e-01 4.145726613448222508e+01
-6.613832080487302534e+00 1.845516591934952988e+00 4.088986629241959747e+01
-1.782548485471979083e+00 -7.140450097579378763e+00 3.931568490556001905e+01
-2.319899211101208891e+00 -6.503840582129400971e+00 3.987626581138055570e+01
-3.335338681811424788e+00 -5.524871543765415893e+00 4.020961535339814219e+01
-6.399930190214423220e+00 1.162338565894465603e+00 4.107978121773503943e+01
-4.089342325732516770e+00 -3.930897318055509349e+00 4.096842002795688842e+01
-3.685274215853452606e+00 -4.426751063898286098e+00 4.100023156658946988e+01
-3.184832536606206688e+00 -5.205573400120229621e+00 4.065325287825705658e+01
-3.185710322662942851e+00 -4.831506579135586676e+00 4.102284132508412284e+01
-5.461692510818605406e+00 -1.014809289850219676e+00 4.161021697541996645e+01
-6.330313297525532734e-01 -7.719982388918202432e+00 3.932215518938026833e+01
-2.886160943164217230e+00 -6.077428583975892806e+00 4.004321398334398907e+01
-6.147096801607171201e+00 3.556635765593736953e-01 4.130431354477995143e+01
-4.086503560838913529e+00 -3.507616592469204875e+00 4.131321489645852552e+01
-4.236710113292964763e+00 -3.037096966302581968e+00 4.153243666444413407e+01
-4.555048835725870937e+00 -2.408555655530924433e+00 4.169939172233307545e+01
-5.178961300441198290e+00 -1.515416184422180734e+00 4.160044006137912476e+01
-4.677022033504434795e+00 -1.756552452397632580e+00 4.195209005557435944e+01
-2.785975005532398630e+00 -5.656979049678927396e+00 4.054434154031454085e+01
5.689553060537640983e-01 -8.525478077904567797e+00 3.852488174082827044e+01
-4.210397795715217079e-02 -7.971724310527244839e+00 3.933230416132028040e+01
-6.381534858460115034e-01 -7.558834225996198697e+00 3.969838292981155803e+01
-1.211615834018402005e+00 -7.128836161029068030e+00 3.991282801124459212e+01
-1.705805807857906586e+00 -6.857708569007182398e+00 3.988341846515538691e+01
-2.319706908649018295e+00 -6.201830996267711171e+00 4.040004030442491967e+01
-3.152464948933036748e+00 -4.573527498393683111e+00 4.134414826650266406e+01
-3.591932544962002094e+00 -3.907584586817632211e+00 4.151926698441207009e+01
-2.685805470393873406e+00 -5.236531604328665601e+00 4.104546757571119997e+01
-5.339678700264203215e+00 -5.485516422312439744e-01 4.199477004412448622e+01
-5.682181543020457859e+00 1.365379480382319100e-01 4.184201844659442315e+01
5.484184420609694577e-01 -8.223293858477646268e+00 3.934244396294715074e+01
-1.857895502118999564e+00 -6.545671864826440256e+00 4.027067237146748369e+01
-2.620028083950525222e+00 -4.720199936949430075e+00 4.168781831099614976e+01
-3.009897582187170073e+00 -4.247866451774957142e+00 4.174344138738772614e+01
-3.002917151936277840e+00 -3.818486760287650661e+00 4.211107984094499557e+01
-3.498587185057428162e+00 -3.388660179097103153e+00 4.203806924297251157e+01
-4.977189860300457624e+00 -1.106024377320821594e+00 4.203030947328911537e+01
-4.221968737000308280e+00 -2.174239521567500333e+00 4.215745270716551829e+01
-5.985782556254114262e+00 1.104628281808666346e+00 4.157234187878304255e+01
-5.266956954154585618e-02 -7.649315961617549675e+00 4.008469172220257803e+01
-2.536161124508846232e+00 -4.253062715979593733e+00 4.215471673507173733e+01
-3.980074210333063078e+00 -2.639054740284481948e+00 4.212826242811217270e+01
-4.854855083064131271e+00 -6.403215307550484958e-01 4.241486926770323862e+01
-5.217672351677053122e+00 -8.240075974150309901e-02 4.237925952756529568e+01
-2.186390766917156725e+00 -5.641158422188526700e+00 4.106806786395502229e+01
5.405492061293508677e-01 -7.981537341045949141e+00 3.990667401102859202e+01
-6.260985790278013052e-01 -7.219514100596421180e+00 4.029883073607674504e+01
-1.199528987701381499e+00 -6.789709496291972179e+00 4.051297364561683878e+01
-2.186763295166850973e+00 -5.222990090825074816e+00 4.153708067784884150e+01
-3.767460250367270280e+00 -2.312429788535195652e+00 4.252155661659118380e+01
-4.130215865171139811e+00 -1.754617484094964874e+00 4.248597216377867625e+01
-4.492683408354971597e+00 -1.197246585544546438e+00 4.245040812999302204e+01
-1.753130622749954348e+00 -6.326261596225148942e+00 4.075693772426981099e+01
-1.686795450760857573e+00 -6.045929160897975052e+00 4.109067451673045213e+01
-1.680222118125046737e+00 -5.632093771305115126e+00 4.156145122137050407e+01
-2.088007835404693147e+00 -4.866756688093005323e+00 4.203121336990823664e+01
-2.452255498323096639e+00 -3.785936470716168678e+00 4.262161489431572647e+01
-2.928616723776885422e+00 -3.327823718548929666e+00 4.258936117796136500e+01
-3.405161945326540707e+00 -2.869533032362712621e+00 4.255709057387341687e+01
-3.543569582967582399e+00 -1.844413088584588190e+00 4.285850209256177834e+01
-3.767883585906907751e+00 -1.305182780994756708e+00 4.291183765386963955e+01
-4.613295782406259704e+00 -3.403304146199635505e-01 4.269892499473716185e+01
1.138753719771464779e+00 -8.474784049001076625e+00 3.935257818754551806e+01
-4.169844100067165299e-02 -7.344037204723546708e+00 4.062501846304233055e+01
-1.975886372119834089e+00 -4.244051692158789635e+00 4.265386809457865525e+01
-3.203845666070604281e+00 -2.284069140254796793e+00 4.292390989302165138e+01
-4.009670002504490682e+00 -5.979415393112427202e-01 4.301818295214992816e+01
-1.132746903873911748e+00 -6.020188150426507789e+00 4.164847511759888476e+01
-1.187447452086793254e+00 -6.450497476689482035e+00 4.111326838801635120e+01
-1.787718536937940472e+00 -5.253339691979057591e+00 4.188396150634453363e+01
5.326785492792026622e-01 -7.739780189100550878e+00 4.047090196961604391e+01
-5.354074227730950541e-01 -7.014098526788756338e+00 4.073973408615233183e+01
-2.861182557290213424e+00 -3.058088926837497556e+00 4.286419049241941082e+01
-6.089075500501859306e-01 -6.744722899851020692e+00 4.113931260093084319e+01
-3.002556710994729983e+00 -1.698786631903608235e+00 4.329062895488975471e+01
-1.078082677319111227e+00 -5.590130722683465336e+00 4.218337230339390942e+01
-1.555749268480715042e+00 -5.013376843653306381e+00 4.237475805010971186e+01
1.126610586774843492e+00 -8.098695213833186912e+00 4.023042331231361857e+01
1.720545251063195558e+00 -8.457610604704921542e+00 3.998994475486899347e+01
-2.318150002095118456e+00 -3.246316226048188813e+00 4.317075240958072158e+01
-1.499704585619947794e+00 -4.701984618263809423e+00 4.268610477465168174e+01
-1.875524769547147086e+00 -3.839289025244257303e+00 4.306558088612854363e+01
-2.646079657816191588e+00 -2.693418940290888131e+00 4.315533125099343437e+01
-6.144361177337720470e-01 -6.536821454567395939e+00 4.146711738004353975e+01
-3.405526198811887895e+00 -8.557769229903788855e-01 4.333770625876618965e+01
-6.976011262335646279e-01 -6.041961872419828516e+00 4.196724808503966386e+01
1.712025988751257666e+00 -8.189154813642158359e+00 4.061670997331200539e+01
-3.073636092828122696e-02 -7.038761362266932942e+00 4.116533714394228838e+01
5.472143250125908187e-01 -7.332684087283371177e+00 4.119135593794824501e+01
1.118388758317430787e+00 -7.830299825798571867e+00 4.085734988274401758e+01
-2.579945696869119232e+00 -2.238276826531362396e+00 4.337737193925597268e+01
-2.378644030589032621e+00 -1.653087811611547275e+00 4.374406030546207091e+01
-3.659943325626714206e+00 -2.666136576252245427e-01 4.326055009331791723e+01
-2.801281309391290719e+00 -1.113656668686862972e+00 4.365727671236971474e+01
-3.119479205974865277e+00 -4.618662232606539630e-01 4.355062073276103263e+01
-1.387729929323675560e+00 -4.252583363585504372e+00 4.314368774333962619e+01
-5.904813218423609067e-01 -5.773153728438734866e+00 4.235920292428395584e+01
-1.023415683067151694e+00 -5.160016969767625916e+00 4.271834549136172399e+01
-2.137101071801613905e+00 -2.719395866554193741e+00 4.350079410629011534e+01
-4.154994422522136077e-02 -6.623126738121833057e+00 4.182088656916046432e+01
4.542867878866914677e-01 -6.992938972998056890e+00 4.165501901678539554e+01
1.032905637680847866e+00 -7.184099384631588592e+00 4.184598193048365999e+01
1.125542271114873039e+00 -7.626799005666641484e+00 4.121738906632612753e+01
-1.775145237960581879e+00 -3.434532991449982919e+00 4.347729569240082270e+01
-1.956030922675124684e+00 -2.192492167804716008e+00 4.383083455729210698e+01
-2.222773595597847152e+00 -1.406263119289325791e+00 4.396158678611566017e+01
-9.115348997292839206e-01 -4.710694438011429952e+00 4.317579262995602818e+01
-1.673914415018995794e-01 -6.117371742791527289e+00 4.229977225879009239e+01
-4.833651625153836950e-01 -5.504349609782827280e+00 4.275115477870190972e+01
1.703505534176977587e+00 -7.920728351835531811e+00 4.124340390326374006e+01
-1.231041246319413140e+00 -3.623129919278003097e+00 4.378445675929818037e+01
-1.643642187835486768e+00 -1.699184387980930966e+00 4.426622061009360465e+01
-2.421586223184874154e+00 -6.914498219922867728e-01 4.402877933072992533e+01
-7.995647901180235051e-01 -4.261116281508263270e+00 4.363350734220203719e+01
-1.533526107148352136e+00 -2.731758852262854198e+00 4.391758281432423416e+01
5.690666960521147122e-02 -5.848820775134600858e+00 4.278397941754595735e+01
-4.681221647193075652e-01 -5.263416157465500511e+00 4.303804316999685398e+01
5.319344298420808359e-01 -6.709522487506345279e+00 4.217502263095651927e+01
-1.111041775832996237e+00 -3.270999408828634714e+00 4.400432267904160000e+01
