8.654201501855407486e+00 1.434710630690756794e+01 4.092688542962341813e+01
8.999746587113165219e+00 1.386144643495265960e+01 4.109315562474202466e+01
9.660641803367409963e+00 1.384131002865191817e+01 4.089216302216468080e+01
8.459448067349121914e+00 1.409134551113016087e+01 4.110165336009066550e+01
9.557703323719819011e+00 1.363197953634645643e+01 4.111079383746520222e+01
1.349604601067346010e+01 1.469481148264081583e+01 3.978486825986786357e+01
1.797292168293375170e+01 8.843035741893141122e+00 3.483048832881507195e+01
1.828082494695581417e+01 1.106747517242050982e+01 3.639319406140442226e+01
1.809539271769139290e+01 9.855228201507454600e+00 3.551377290157928712e+01
7.405989227046291923e+00 1.521696327478579747e+01 4.077463066034000860e+01
7.919118773566600211e+00 1.432120545012445945e+01 4.111015287790026207e+01
1.412009569037136636e+01 1.446697562291775974e+01 3.969829590546212472e+01
1.401616766972754391e+01 1.435619934380712870e+01 3.979460264909496914e+01
1.738782347732854205e+01 1.279795975976491285e+01 3.751766033229960584e+01
1.633458584324992913e+01 1.348255282245104070e+01 3.919686831073821054e+01
1.183200892076221855e+01 1.446085837521271245e+01 4.014730009925658294e+01
1.250798510015655829e+01 1.441254957789201363e+01 4.003631228549820520e+01
6.851488095541171219e+00 1.511397986084687517e+01 4.095512471426720680e+01
7.378637611703274146e+00 1.455108113272265236e+01 4.111865553813856167e+01
5.839859647382089847e+00 1.676124097841902483e+01 4.039960453981559141e+01
5.742858045260847533e+00 1.740128932173404408e+01 4.005943786848411037e+01
5.139483801905008420e+00 1.752080217635493753e+01 4.007860943675314047e+01
5.821061048775282742e+00 1.631294928302624569e+01 4.058974894332234840e+01
5.285867501891074127e+00 1.656105963333267539e+01 4.058867762820243996e+01
5.960775402153108971e+00 1.552749114664295682e+01 4.095332838496555183e+01
1.098204586988808984e+01 1.380139403973509715e+01 4.049029553696207273e+01
1.037824031029030181e+01 1.410514506094317966e+01 4.051103866777960150e+01
1.161254034802191804e+01 1.382302479769084691e+01 4.037127130448661205e+01
8.463112676999950068e+00 1.390045571515208778e+01 4.124011537057473475e+01
9.394508474912232288e+00 1.327892933109669471e+01 4.164694682204163456e+01
8.781611635087310574e+00 1.339107490629745811e+01 4.180825704057215830e+01
1.032115053101184543e+01 1.382129816540851763e+01 4.069128841011033870e+01
1.303055028612167376e+01 1.446499427860979381e+01 3.993159959420689376e+01
1.804973999114240613e+01 9.398683261084217477e+00 3.522093981463491730e+01
1.805812914370729416e+01 1.149960941911923484e+01 3.667375825566342229e+01
1.832195850681793914e+01 1.049871710893885890e+01 3.618549154991325878e+01
1.761326791761941024e+01 1.236547770677997704e+01 3.723642924828775591e+01
1.491718884510803456e+01 1.419544430306068783e+01 3.947925514407229031e+01
1.581680784554544594e+01 1.392803882313402219e+01 3.917526241947616228e+01
1.453601446119284368e+01 1.401751017198098026e+01 3.980435313575030420e+01
1.691005657752175040e+01 1.313685654620359244e+01 3.876089067314905634e+01
1.235284598535372247e+01 1.416369159669346445e+01 4.014022456476664757e+01
1.224297678174600001e+01 1.384468722938852281e+01 4.025224160585685951e+01
7.926532654161125180e+00 1.393957367452199136e+01 4.138705977930235491e+01
7.389199682376984768e+00 1.397885420083599506e+01 4.153421321966511215e+01
6.837873711813875488e+00 1.478103045607703869e+01 4.112716338487592083e+01
5.623889718029531082e+00 1.604414066188606114e+01 4.077100298945880752e+01
6.296786388832897430e+00 1.501107529151291331e+01 4.113567504119774298e+01
6.851787332339791092e+00 1.401824656303133132e+01 4.168183898232926765e+01
6.574811041275961720e+00 1.451423144300456336e+01 4.140851084079869082e+01
5.689728045542877588e+00 1.527061122154079520e+01 4.110824044420490253e+01
1.011495745495188459e+01 1.340273667197848440e+01 4.112842218855983134e+01
1.159307998037754039e+01 1.348954748102449130e+01 4.050167332016409460e+01
1.123025758353159631e+01 1.294368413333090118e+01 4.116375698585679999e+01
1.067236151123248078e+01 1.317335564144228677e+01 4.114607166987307352e+01
1.287362304725265894e+01 1.386639737416351359e+01 4.013315173780665646e+01
1.783565048757570892e+01 1.193237660155487134e+01 3.695491271891840768e+01
1.836332065428343796e+01 9.929652390961857478e+00 3.597782329981708926e+01
1.813817527505063509e+01 1.160149729042695022e+01 3.719693084437879804e+01
1.572850899527936619e+01 1.381672625700799806e+01 3.935977687415267923e+01
1.533619928306748825e+01 1.380343650478129547e+01 3.956634620146381565e+01
1.342801315342301471e+01 1.391676273915240358e+01 4.002355297860783878e+01
1.740901580356842615e+01 1.286900462744956464e+01 3.828688543032662750e+01
1.752865330649382969e+01 1.274902065014905439e+01 3.788799849815954701e+01
4.812918953960830137e+00 1.639074910601181401e+01 4.073430727557494890e+01
6.284449569741661357e+00 1.421415355510750089e+01 4.165765045287281509e+01
5.724847066898419712e+00 1.494149180069950056e+01 4.128537913971308626e+01
1.177837808007923392e+01 1.284627758544412757e+01 4.100687415654819290e+01
1.220362910823206626e+01 1.317778882827409248e+01 4.051305611940506424e+01
1.000626911384238404e+01 1.316710050078682137e+01 4.148592917524873513e+01
1.061780822335530772e+01 1.305541887646703714e+01 4.132496713232015395e+01
9.349428078198323888e+00 1.324365098650449823e+01 4.178074482154314495e+01
8.138688224266928728e+00 1.360002994926460573e+01 4.176596390229377675e+01
1.840488061514287210e+01 9.360161576662768823e+00 3.577018212570354905e+01
1.856275563632421566e+01 1.051670017985545691e+01 3.652932775232491736e+01
1.851664297485182331e+01 1.098593973776001320e+01 3.700973381809414064e+01
1.801744619298505867e+01 1.190462252567684764e+01 3.751391295999461306e+01
1.398247820264061048e+01 1.396716321910680314e+01 3.991388821741252002e+01
1.337480407892007150e+01 1.355504930225670179e+01 4.015870620592497886e+01
1.433244191040358295e+01 1.343117803826154955e+01 4.004291568079870700e+01
1.387613983642616233e+01 1.324340577664809970e+01 4.018429661865192770e+01
1.685608397535371239e+01 1.303697071528258888e+01 3.921854060409564369e+01
7.495519980966656171e+00 1.380905055035342421e+01 4.172368377027379438e+01
5.081960566293106218e+00 1.553038037575612229e+01 4.108078601458765888e+01
4.473682392411421738e+00 1.579029257977914469e+01 4.105332086125067548e+01
5.152814517644527470e+00 1.487205527191244592e+01 4.143508747936115810e+01
5.717263581512940895e+00 1.441000961652915180e+01 4.163347585440954646e+01
1.048272225348102182e+01 1.294933877935511468e+01 4.172584742197268781e+01
9.916253326058646067e+00 1.309646125638967007e+01 4.175328622129764966e+01
1.314898275893811608e+01 1.321003379195658134e+01 4.033454488263382132e+01
1.281358853878256276e+01 1.286615066662842111e+01 4.052444524868854359e+01
9.302583775508885822e+00 1.322183936101711410e+01 4.195524728102613210e+01
8.196105027238017371e+00 1.341967191052654229e+01 4.189782681916496188e+01
9.041624760195132282e+00 1.309189816701673514e+01 4.222142446518700609e+01
8.391224811995240174e+00 1.319553221324418679e+01 4.220837652556966901e+01
5.040115157383372235e+00 1.240162394186291195e+01 4.208306096620201231e+01
4.471813177146936269e+00 1.220008534549059220e+01 4.193795432414563606e+01
4.832214947373344671e+00 1.165981689198751248e+01 4.224415474792012759e+01
5.220249205138600246e+00 1.213142845872497588e+01 4.223605570234842332e+01
5.608319057768510696e+00 1.260314883217722581e+01 4.222821471331170784e+01
5.168127180004842280e+00 1.277483617595346210e+01 4.210363686984067755e+01
4.727887014381441766e+00 1.294660213262435278e+01 4.197999596015262114e+01
4.449326846563915083e+00 1.266479612048066983e+01 4.191450819396130356e+01
4.825582245034367723e+00 1.321543334658082891e+01 4.193460150368996864e+01
5.363579101507158775e+00 1.331234992416554341e+01 4.201287498776202511e+01
6.023913265015302443e+00 1.305423716776856224e+01 4.219829273423265903e+01
6.178864760549084068e+00 1.270784722102415465e+01 4.231113621819795867e+01
6.015009106030190900e+00 1.244227328488213757e+01 4.237742044626487825e+01
6.750428148027931563e+00 1.281274582641740345e+01 4.239448437551631343e+01
6.439908784783736628e+00 1.350637235801015024e+01 4.216951686472325633e+01
6.421921421455283330e+00 1.228135761500456624e+01 4.252682755222623001e+01
1.789476728320522270e+01 1.226785848020506364e+01 3.797707595884087795e+01
1.503345370831842231e+01 1.364329256234980825e+01 3.983899902113808622e+01
1.737873582494499658e+01 1.259206431557795725e+01 3.924025064741701385e+01
1.615858975665269881e+01 1.325989957738142522e+01 3.956581392654049978e+01
7.610742741707836601e+00 1.344841683373456931e+01 4.198818029204281288e+01
4.580090232684717932e+00 1.480268839025545624e+01 4.158502692105837895e+01
5.149123751271583060e+00 1.460619487459442567e+01 4.160926756340708721e+01
6.335827997045831772e+00 1.401075322429842629e+01 4.175179799636380551e+01
7.025176666002508341e+00 1.347732462656489183e+01 4.207888740592634491e+01
5.819820865099655016e+00 1.400336404658560419e+01 4.182174705785703139e+01
5.889489900491064134e+00 1.366707801262694844e+01 4.210017561560033528e+01
1.232636774754640463e+01 1.274894889990395264e+01 4.085001767803303352e+01
1.172562936410460210e+01 1.278743917388458406e+01 4.113829434603108837e+01
1.104988462684468864e+01 1.280200676560494344e+01 4.169837930508236212e+01
1.034255110476151174e+01 1.288454090645793215e+01 4.224896776674611942e+01
1.342372675122862979e+01 1.255421695620882616e+01 4.053585849806614050e+01
1.287529937682172054e+01 1.265150962902497511e+01 4.069287526776476227e+01
1.407453218891558322e+01 1.247264551792046205e+01 4.044432984164899381e+01
7.740913523792765538e+00 1.329913697274064610e+01 4.219542902309019894e+01
7.891899443579242224e+00 1.302229898655375351e+01 4.256161336720169430e+01
8.504866568286429285e+00 1.298763145557519216e+01 4.248299653866595804e+01
9.822654782595215295e+00 1.305306518261899917e+01 4.210207404463155711e+01
5.039964150334343529e+00 1.142105550802008374e+01 4.235841708699437191e+01
5.901553834421320310e+00 1.340930501983634748e+01 4.209116097604597684e+01
5.338945561723340560e+00 1.382791841962317392e+01 4.203085103177100024e+01
5.636533282189999383e+00 1.165419519329806874e+01 4.246442668058402603e+01
4.788226286292069922e+00 1.398890468977291590e+01 4.196152936330818051e+01
6.923600619756719254e+00 1.334491186682997466e+01 4.230001953953479443e+01
6.829159753940986732e+00 1.212035630954058441e+01 4.267648411758278826e+01
7.321012612898248229e+00 1.291748110618772394e+01 4.247802052918486027e+01
6.232810842695970521e+00 1.188724532451878702e+01 4.257042780762141376e+01
1.873871371358260873e+01 9.481966676452790566e+00 3.629232594044694338e+01
1.838566232021369018e+01 1.141662600797854310e+01 3.760256844070182325e+01
1.879880150262550842e+01 1.043482561825892319e+01 3.714625976851722555e+01
1.553011980884507182e+01 1.326928649252378278e+01 3.987365144883133183e+01
1.481641290204062855e+01 1.344810914769557186e+01 3.995656685353304027e+01
1.437692965773553766e+01 1.293188194969496152e+01 4.020989120828684094e+01
1.765545137432572886e+01 1.250789289996163767e+01 3.877445852498547652e+01
4.223653880031659646e+00 1.542631692004737332e+01 4.130524765591313496e+01
5.303903521928491571e+00 1.399608107250394262e+01 4.189166489609871036e+01
6.951882257465417325e+00 1.342482617897013064e+01 4.217971447631308024e+01
1.184230494424912550e+01 1.275063218060119219e+01 4.113230006349943579e+01
1.173716087187595569e+01 1.274897174735346361e+01 4.131453328104859679e+01
1.094453990166764257e+01 1.275324293741359583e+01 4.209072671263056264e+01
1.245426774118036661e+01 1.255754468380879274e+01 4.110083934426150165e+01
1.391539154151347546e+01 1.229807511488306204e+01 4.068214793977254118e+01
1.306546230579016665e+01 1.236462628115975271e+01 4.106942081116599752e+01
8.413113323224825635e+00 1.285384456802527531e+01 4.270570191673761684e+01
7.992161838979433774e+00 1.236752994207257039e+01 4.279476309407659329e+01
8.573060093251829272e+00 1.249106304748615059e+01 4.285387631224148919e+01
8.543520726137844079e+00 1.217752627738239468e+01 4.298851431881958973e+01
8.500280891309595077e+00 1.294027057633990019e+01 4.258396380430575334e+01
9.117760656336953318e+00 1.295310872671625368e+01 4.240452707400533683e+01
7.090553014193191395e+00 1.340273785453119793e+01 4.218247634412232117e+01
9.692109792251944356e+00 1.298822818411242785e+01 4.223519256949509071e+01
9.831532942975979239e+00 1.296600445990747374e+01 4.223814563742565298e+01
9.730391666903445369e+00 1.291874346158087583e+01 4.232671727130863815e+01
7.360621945312888492e+00 1.257129637183231630e+01 4.261812987329795277e+01
7.407773052621199561e+00 1.318348700580536637e+01 4.243075623906976546e+01
7.411024946678550940e+00 1.224400076783450864e+01 4.273565153888979751e+01
1.875279853652680373e+01 1.090431062349054159e+01 3.762700631435962606e+01
1.884507095011753464e+01 9.965375372431513057e+00 3.666580488031980423e+01
1.826100212844648496e+01 1.178630003334791176e+01 3.806634577425850097e+01
1.773618898342378003e+01 1.244246367898835537e+01 3.832673102899240547e+01
1.658796111011608687e+01 1.270361370107284671e+01 3.977166654967117410e+01
1.602648994062889898e+01 1.289508814674060666e+01 3.990835177650097165e+01
1.161690315735715195e+01 1.265467830444578645e+01 4.167092141910258363e+01
1.154657499220235550e+01 1.262205126461489257e+01 4.193245111221897048e+01
1.224377187078954421e+01 1.255442890347144314e+01 4.146533924255174952e+01
1.440664335181875799e+01 1.204201804068811477e+01 4.082846510363840054e+01
1.367635220507260563e+01 1.217172074318472319e+01 4.103801357444149289e+01
1.274970574968784831e+01 1.236021779240857121e+01 4.161607302779737694e+01
8.523439060822472157e+00 1.281819939322621771e+01 4.273653559681751801e+01
7.933479353621580188e+00 1.174062387779936145e+01 4.306434068125447823e+01
7.381729563361107971e+00 1.193036456365822851e+01 4.287035796283576872e+01
9.108922548557680798e+00 1.285819278009422284e+01 4.260676288470768469e+01
9.153679341477744202e+00 1.261461953778765555e+01 4.291299964284846169e+01
9.749204135739814703e+00 1.259346270578666704e+01 4.285975383656631976e+01
9.717392105001268376e+00 1.277612112204583639e+01 4.263005697118194348e+01
9.818755541378740404e+00 1.291379787716377692e+01 4.231549480043263856e+01
6.380869232077815312e+00 1.166367347459740422e+01 4.270141782327852553e+01
6.708560148805287504e+00 1.124507476476769874e+01 4.290803714562250804e+01
7.320674084353077760e+00 1.149265309120190004e+01 4.298612453863321292e+01
5.932110660953845205e+00 1.120654866883113421e+01 4.272656401083855826e+01
4.963703892973177823e+00 1.096916806949363021e+01 4.250205850289786014e+01
6.096357834328128611e+00 1.099753749589547702e+01 4.282996582578394396e+01
1.806051162431110768e+01 1.200452269714735998e+01 3.854057145254471095e+01
1.509647477894969470e+01 1.287896022416933661e+01 4.010874568940351992e+01
1.652210430749637382e+01 1.252099602269522549e+01 3.994307442038523703e+01
1.746024935945610679e+01 1.214653129014707922e+01 3.961992484590307129e+01
1.218368829944209608e+01 1.250737156983251808e+01 4.164347663499878394e+01
1.148837117363926552e+01 1.258998111714524448e+01 4.223067115007791728e+01
1.091564740052838900e+01 1.273723763121682850e+01 4.223981139424030573e+01
1.032485836703787818e+01 1.269415879506777500e+01 4.265333284235879319e+01
1.472579547704958713e+01 1.239096965821321916e+01 4.035270022233503795e+01
1.487714698680607839e+01 1.262047215044264448e+01 4.023549292703675206e+01
1.328678961711763584e+01 1.221647186934482932e+01 4.145594980962867027e+01
8.513003271819080453e+00 1.187181913220206120e+01 4.310562537781752468e+01
9.715101377885783762e+00 1.254749945378896214e+01 4.294402534161448415e+01
5.483788716735225499e+00 1.074990466752212903e+01 4.275186941383497441e+01
1.862466199479928974e+01 1.130483347624006640e+01 3.815574086714993030e+01
1.899187514871869453e+01 1.030114434578762506e+01 3.756236131753291119e+01
1.905749224038564549e+01 9.892005173944509622e+00 3.722150184936844397e+01
1.912750730596180659e+01 9.414005592120844312e+00 3.680254954132184508e+01
1.790190084374999913e+01 1.214680557856644505e+01 3.926206587744876941e+01
1.592445554242679151e+01 1.225497578618091232e+01 4.016662618643454863e+01
1.537654770439859320e+01 1.230930945260832843e+01 4.026109209011234213e+01
1.647155724064732496e+01 1.220066605332968379e+01 4.007221702846477029e+01
1.214853656827580863e+01 1.249099084257553649e+01 4.177417368627619254e+01
1.094106041021739451e+01 1.270710367590859491e+01 4.247442823808184897e+01
1.034543665534669898e+01 1.257235515171927354e+01 4.280645827103963796e+01
1.027717624491377535e+01 1.248026603973814197e+01 4.297511975741333146e+01
1.428704005802431354e+01 1.197878255918653956e+01 4.100661073996420924e+01
7.448987697836525257e+00 1.137081217802241007e+01 4.307890912552038998e+01
8.428739616475667162e+00 1.165195876931237784e+01 4.323124551877538124e+01
8.311575095913564581e+00 1.133044965880281296e+01 4.332588781543609002e+01
7.701887024260475556e+00 1.109736760728275762e+01 4.325330323567190050e+01
9.092275826308688025e+00 1.200310935897569919e+01 4.314693641905837040e+01
9.702274350224236343e+00 1.244015719225180128e+01 4.307108647267610024e+01
6.964982557503685889e+00 1.100138577364515946e+01 4.309358871820662529e+01
5.982336660059779376e+00 1.069096475959093340e+01 4.292998320889419972e+01
1.898948491866031318e+01 1.082252726552877675e+01 3.824547683620363614e+01
1.912962371398234040e+01 1.032046221256703866e+01 3.801117473449708939e+01
1.862858201878003683e+01 1.126450117843924126e+01 3.858445290117499837e+01
1.489860315684293823e+01 1.178545209236412106e+01 4.097515834005960045e+01
1.701876249999999757e+01 1.214638648354183736e+01 3.997788399454192643e+01
1.631593930486389254e+01 1.163186295149597704e+01 4.054134335516138776e+01
1.206068501450046959e+01 1.244276847971456945e+01 4.222155110191721405e+01
1.083908727773422775e+01 1.241300253499467310e+01 4.300624495660792945e+01
1.139972725872094372e+01 1.234581975990937330e+01 4.303734858122432172e+01
1.094197988915732012e+01 1.255131304350256904e+01 4.275314389236531554e+01
1.153800191387559693e+01 1.253036420863046452e+01 4.269988638459883390e+01
1.093140108047344583e+01 1.261228745110094884e+01 4.267659644122984020e+01
9.670894438518359948e+00 1.213452556834134377e+01 4.318828323745145070e+01
1.263217595557112993e+01 1.229569007005015813e+01 4.221245765721936039e+01
1.382391492198785343e+01 1.207277860145944715e+01 4.129577690116455102e+01
1.335686309980384046e+01 1.214247389256696508e+01 4.162042846496814263e+01
1.320325102253837812e+01 1.214861925833291600e+01 4.220338357180267508e+01
1.584644811172648460e+01 1.197074999409903207e+01 4.040109314624942982e+01
6.481042838593686461e+00 1.063202407382303960e+01 4.310837547911339129e+01
7.091777641578516977e+00 1.086469050624110189e+01 4.318083981870876897e+01
5.915525011172075409e+00 1.033127786874920595e+01 4.302936727394251903e+01
1.826590125149177624e+01 1.170570323876981789e+01 3.892317486907888480e+01
1.552855605807942752e+01 1.162126166267066552e+01 4.087723665467592582e+01
1.690445532247783689e+01 1.171952397100009691e+01 4.032987679434183548e+01
1.090381151003441929e+01 1.225019232804971736e+01 4.319213478933701111e+01
1.024982817725289053e+01 1.226583601095583909e+01 4.322959279165156232e+01
1.100735670256870158e+01 1.224771858984955131e+01 4.318620633043113344e+01
9.587048582779416961e+00 1.191442934890860883e+01 4.331394474248376270e+01
1.209726509278014461e+01 1.239798561788675002e+01 4.257348912081017289e+01
1.436093654828165889e+01 1.192917328155948020e+01 4.113559165976879939e+01
1.457045021482382019e+01 1.170670507741622401e+01 4.162919804226352483e+01
1.396401696069854736e+01 1.192456527859911830e+01 4.162480433443126770e+01
1.326236276864631414e+01 1.218061793091542100e+01 4.190498963306638558e+01
1.265625295464416844e+01 1.226573882797575088e+01 4.244713731121765932e+01
8.924906250000001151e+00 1.156336781946072811e+01 4.339841826263395319e+01
1.615710386498630413e+01 1.145717293456888974e+01 4.077941329155027006e+01
8.219160672139931734e+00 1.113613014162243964e+01 4.343109100343471596e+01
6.992944748446221936e+00 1.067048014287145108e+01 4.328612380454968900e+01
5.893201616567523615e+00 1.014735722358801517e+01 4.313330161297575671e+01
1.926994116902275067e+01 9.818636039933361204e+00 3.777720517034701686e+01
1.929196065488098100e+01 1.022568852748170620e+01 3.840629155051338728e+01
1.864064582420014915e+01 1.120274821440983182e+01 3.952794105364203148e+01
1.827133074955961334e+01 1.167464467814926188e+01 3.939495583627647335e+01
1.807286588874853095e+01 1.169501529421395780e+01 3.962442553853646388e+01
1.748410354737496775e+01 1.169450495776103338e+01 4.010158961393836563e+01
1.006518383673069650e+01 1.179769592773917886e+01 4.347401750257500197e+01
1.072770285062360074e+01 1.214904512015045235e+01 4.338937184909676148e+01
1.202910426077854744e+01 1.237081627518895388e+01 4.289950206977715652e+01
1.086813725443770906e+01 1.220003557067385991e+01 4.327885319513755746e+01
1.534063006310600308e+01 1.152789395798180294e+01 4.130662279127450631e+01
1.377427582652792282e+01 1.200143032863145365e+01 4.219432292105243221e+01
1.321510247001989669e+01 1.213359080871609308e+01 4.232078509990642345e+01
1.679021959374999895e+01 1.129315312254388282e+01 4.068165935189599480e+01
7.513562499999999922e+00 1.070898377546479274e+01 4.346388263236311644e+01
6.406868873123025665e+00 1.018583540553801647e+01 4.331118895568953064e+01
1.911784557418181407e+01 1.063454974895001293e+01 3.876201700520163484e+01
1.892824268987867242e+01 1.085573118664077619e+01 3.916270922933606613e+01
1.063523002529822392e+01 1.191487285994164047e+01 4.351181676997021697e+01
1.176479236965528052e+01 1.222966182672566582e+01 4.314284420547694054e+01
1.195859251038432269e+01 1.227873570314566010e+01 4.306842826406764146e+01
1.214546723521041471e+01 1.235942067457349225e+01 4.270531945236393767e+01
1.148672709437960826e+01 1.213420880137411473e+01 4.332818005585384924e+01
9.494841024673030816e+00 1.168048121444652132e+01 4.343620097395749724e+01
1.275208356926460418e+01 1.218853093465947879e+01 4.271078683300621748e+01
1.252199062500000082e+01 1.221167053652819412e+01 4.309951542104320055e+01
1.517592653898127786e+01 1.148891780759968562e+01 4.163361144761998389e+01
1.427620121138020970e+01 1.181871075978860652e+01 4.205527439870112971e+01
8.108271855623348401e+00 1.090635993017001759e+01 4.353323634450033808e+01
8.701232141786743313e+00 1.110351041774634595e+01 4.360250784830157045e+01
1.578282930610869705e+01 1.127098715040873955e+01 4.163805240389483941e+01
6.960374375457202056e+00 1.044747554970157744e+01 4.338755858224304518e+01
1.943619961835891630e+01 1.001465534511162758e+01 3.898719520442127617e+01
1.824389567510244703e+01 1.124310015361625936e+01 3.998692370561681031e+01
1.794960777169854538e+01 1.124267261694398456e+01 4.022544164737983863e+01
1.733162606740129874e+01 1.112588037235313543e+01 4.057084692006437621e+01
1.055021104704652402e+01 1.176535981283316445e+01 4.364535690510866317e+01
1.120613422252510993e+01 1.203224310519328455e+01 4.354968205372344414e+01
9.408888373373974545e+00 1.153079506790212427e+01 4.356956281165557243e+01
9.294346164732973037e+00 1.130069918086345204e+01 4.367178951060930103e+01
1.335776297498173193e+01 1.201763600816331135e+01 4.271629191155689398e+01
1.308057747706119933e+01 1.206608255019965448e+01 4.299849037080536363e+01
1.477769242496012936e+01 1.163615649734034996e+01 4.191628793717278967e+01
1.528000096250686113e+01 1.145144900625392204e+01 4.163437446075391790e+01
1.430433962616174171e+01 1.176741924096865866e+01 4.221048748799257311e+01
8.077482730328084060e+00 1.070885040654422582e+01 4.365290267742027197e+01
1.628648055811709128e+01 1.128190711081518494e+01 4.115989615056960815e+01
7.025096988409939236e+00 1.027344677634565606e+01 4.352887221306006182e+01
7.587470792868957759e+00 1.027288714076282616e+01 4.371776204355438011e+01
6.536500557464640870e+00 9.837717900756679512e+00 4.359393720821750406e+01
1.959441179096236141e+01 9.629409641268694031e+00 3.856733125781887850e+01
1.941058823621329665e+01 9.316313188062920858e+00 3.754327973915454209e+01
1.965378362989005723e+01 9.174818682631817879e+00 3.813602299856344047e+01
1.924612598132042507e+01 1.044673134272483139e+01 3.927822767946860694e+01
1.900801402844032850e+01 1.073031694664602043e+01 3.966128933172448967e+01
9.888420799025160690e+00 1.149823581384892179e+01 4.374119108127167976e+01
1.191959523797062914e+01 1.222597874734511869e+01 4.313398436618467713e+01
1.272428615259827467e+01 1.200252523658040715e+01 4.342700946891549307e+01
1.210539261231586394e+01 1.206837803626861039e+01 4.337755926645437654e+01
1.306435953945516815e+01 1.204220606957379580e+01 4.311891231005746050e+01
1.527931830788559076e+01 1.145355234478087247e+01 4.177719141928576363e+01
1.417225426362163709e+01 1.183825358559541918e+01 4.246073912732516220e+01
1.396782811082274911e+01 1.184659000661763528e+01 4.272184282833075741e+01
1.320775926173033987e+01 1.203294260315452036e+01 4.297549278450087229e+01
1.389383450412507592e+01 1.185422807948049950e+01 4.285142773928792082e+01
9.263676517622759121e+00 1.110332253054504292e+01 4.379149934686683565e+01
8.639890216262468670e+00 1.070879517908253931e+01 4.384178773545500718e+01
7.061925133138258204e+00 1.005526082795150167e+01 4.365583906723499297e+01
1.637314806157111491e+01 1.102898995666639337e+01 4.151366052425106545e+01
1.717129787195486657e+01 1.091907828606407271e+01 4.097343505796574448e+01
1.889597712944245700e+01 1.052492523243740230e+01 4.007165405944294889e+01
1.841490937500000058e+01 1.079127039210334793e+01 4.034938914356406059e+01
1.787328332802250941e+01 1.095855463792262796e+01 4.046006505270162990e+01
1.798366225682718422e+01 1.066836486971440578e+01 4.080734701822225219e+01
9.764874353546815655e+00 1.101929295286392474e+01 4.395309751027932066e+01
1.039029469778529347e+01 1.141443618127065029e+01 4.390279089812521107e+01
1.042983094347983020e+01 1.158707754673940826e+01 4.377764690089710342e+01
1.097095829658121779e+01 1.167591016465190634e+01 4.381410449261333895e+01
1.180436347577959566e+01 1.200547330445044381e+01 4.352920377360143078e+01
1.151144626681877803e+01 1.176468157050741681e+01 4.385054340612303037e+01
1.293235933162090490e+01 1.207414159962435107e+01 4.328759833009891622e+01
1.263116525725793515e+01 1.196849405789333254e+01 4.350090178880322611e+01
1.483475017217934422e+01 1.153354314207174447e+01 4.222667938262772225e+01
1.457958437499999960e+01 1.167569531060452803e+01 4.272743228264727833e+01
1.360715215075935980e+01 1.187261509014717475e+01 4.313839806081080042e+01
8.113678771400518741e+00 1.049082222939435383e+01 4.377977068055991339e+01
9.202387000285989771e+00 1.086403358611262426e+01 4.389743799833017590e+01
8.390554983377553455e+00 1.025927239240897038e+01 4.401180163859638128e+01
9.115000555227869228e+00 1.063499588582393152e+01 4.399254190316707991e+01
7.071716972204713514e+00 9.828407122937166562e+00 4.378979062862206462e+01
1.696249642187055784e+01 1.078741676804488492e+01 4.138954222113032699e+01
1.958054717786140841e+01 9.803444090881423989e+00 3.956805298299682505e+01
1.032846269119906779e+01 1.117488178958156375e+01 4.400887753981140094e+01
1.089238125433995386e+01 1.133059044792425318e+01 4.406470296843937717e+01
1.006439081222246124e+01 1.048742613350460573e+01 4.429426856642030685e+01
1.047852305775563053e+01 1.090904872218588473e+01 4.417947333395077436e+01
1.176780949243762109e+01 1.196204210280135172e+01 4.360961860236866983e+01
1.163183058634112932e+01 1.194274019614385551e+01 4.371827753170300923e+01
1.191880456273906752e+01 1.200035378669710617e+01 4.352528580265417446e+01
1.537026835779995970e+01 1.129938762946392217e+01 4.224292504697500306e+01
1.520004179182433113e+01 1.139410657839376206e+01 4.257682457121467934e+01
1.415017735965057710e+01 1.170295798710927038e+01 4.315797140947431387e+01
1.334332500000000010e+01 1.193666126125720517e+01 4.347652416271282760e+01
7.606238078578626549e+00 9.819138288622040633e+00 4.398564638469601107e+01
8.782762192493036579e+00 1.003597166760739867e+01 4.421931047054183495e+01
6.425493559161201240e+00 9.387534628229722955e+00 4.381941023531962998e+01
1.590575283723624977e+01 1.106525455550763937e+01 4.225921344675639091e+01
1.611214752206384304e+01 1.105067720218853289e+01 4.195671592492798396e+01
1.937445611197591688e+01 1.025887465406171728e+01 3.979463675098065778e+01
1.875880711760256858e+01 1.023280977303056893e+01 4.059401554197697237e+01
1.755231019793573921e+01 1.054567905222549129e+01 4.126542165670934281e+01
9.589600303419114624e+00 1.056124333450199160e+01 4.414329395957042124e+01
1.147192366635268890e+01 1.159216211093744064e+01 4.397577143895942697e+01
1.232899976029307609e+01 1.189190749846613038e+01 4.366956723612536706e+01
1.516729424409742499e+01 1.137404652458426746e+01 4.275364109460690543e+01
1.582077106681109413e+01 1.111250253474324090e+01 4.242615937395849812e+01
1.469228294603576401e+01 1.153349700061717087e+01 4.317760987931028183e+01
1.699703298735508028e+01 1.068819794264663159e+01 4.177026821973753812e+01
1.397415795044726927e+01 1.174567216840836537e+01 4.338343848026522664e+01
8.140821488835388919e+00 9.809894534691631307e+00 4.418177631568789820e+01
7.531574182673328011e+00 9.518933658584314728e+00 4.413610512583422718e+01
6.923118868391997083e+00 9.228403925947093356e+00 4.409049688954524271e+01
1.644130224492469949e+01 1.083110173299866297e+01 4.227554904854812889e+01
1.074817367605443508e+01 1.062736743905852244e+01 4.432450698018121216e+01
9.423323154175127669e+00 1.026159187628855207e+01 4.425677161502821377e+01
1.205121657267599566e+01 1.185338713321418069e+01 4.388696197129533516e+01
1.156938341339760612e+01 1.140318653487852352e+01 4.410026596230278528e+01
1.150492300737032636e+01 1.111890477706470293e+01 4.422491896484622487e+01
1.143242266802555385e+01 1.076743126800503703e+01 4.435478799574330111e+01
1.211630316611124236e+01 1.090745410252250025e+01 4.438507705832671490e+01
1.288981438590202444e+01 1.182182728172111474e+01 4.372954214593323741e+01
1.259399549428403908e+01 1.180579459999461456e+01 4.387662702720444230e+01
1.523359618718608388e+01 1.136397699392284544e+01 4.319735304579184287e+01
1.575428234094731117e+01 1.107233247625488559e+01 4.277999305362742177e+01
1.460397913317293828e+01 1.155483184415844455e+01 4.329040884714017068e+01
1.393461751067710530e+01 1.172055112328493287e+01 4.351832772131161420e+01
1.964817103765954798e+01 9.665990539657395075e+00 4.002301381929741098e+01
1.923781090018855977e+01 9.966759011125143175e+00 4.031694852545518160e+01
1.806838449423901594e+01 1.025543862850480004e+01 4.112327800580226977e+01
1.858487916018502872e+01 9.964837357017758634e+00 4.098114891318544295e+01
1.699804502396225558e+01 1.045864212607769694e+01 4.212903818054002159e+01
1.058177889463567922e+01 1.038912865557075627e+01 4.445076406881461395e+01
9.995453363214249265e+00 1.011152458160122336e+01 4.455853845821979320e+01
9.331575424551317610e+00 9.760253884698364857e+00 4.460923382874266707e+01
1.224534112636816019e+01 1.147570181601772887e+01 4.413580330247712169e+01
1.255394473494760454e+01 1.174327895484090867e+01 4.393595275450615389e+01
1.452461193425458674e+01 1.150458593350323255e+01 4.356031434819426806e+01
1.755418918314767041e+01 1.008651587261903693e+01 4.198283980922950320e+01
1.367752711764903140e+01 1.180904822228649209e+01 4.366297183328437370e+01
1.345103221973146290e+01 1.175170452610371719e+01 4.378963461624999809e+01
8.736551663025577952e+00 9.785052944436822386e+00 4.439552978789743065e+01
1.910119810529551287e+01 9.674628337960081481e+00 4.083946854244303637e+01
1.783133128694902325e+01 1.012968728805173235e+01 4.155085959877497714e+01
1.634078316165347289e+01 1.077048213702991752e+01 4.280652024463303462e+01
1.109867819807279510e+01 1.029087489392419030e+01 4.460727967907487823e+01
1.161742819806380922e+01 1.019259904933625016e+01 4.476392522209493308e+01
1.248615143795963789e+01 1.170080350931375079e+01 4.402911129714789240e+01
1.270395698520262684e+01 1.179615704129692055e+01 4.387453385727028632e+01
1.511520332660940191e+01 1.128847149968789942e+01 4.360258053977765513e+01
1.335757175639597349e+01 1.173889912534680491e+01 4.386211942479179982e+01
8.245982182028148699e+00 9.419649292737284796e+00 4.452915375368077378e+01
7.332359076037538337e+00 8.983559695172370851e+00 4.446033789682079629e+01
1.946598161044723341e+01 9.276860117936495342e+00 4.071973086094342875e+01
1.860571677053003015e+01 9.694491764774305409e+00 4.133840470636604181e+01
1.811065551257186357e+01 9.714541554134367374e+00 4.183695067316032379e+01
1.579790244839443680e+01 1.106565241134501321e+01 4.307607982935659408e+01
1.692795636994873831e+01 1.046847524218590664e+01 4.283325677078902061e+01
1.048978381097461821e+01 9.887834213905879466e+00 4.480324681992735947e+01
1.251870328200323002e+01 1.122787039447196555e+01 4.427821111741319982e+01
1.221498684742508267e+01 1.025518180872952811e+01 4.473758553690504414e+01
1.292108941555256330e+01 1.154823354168341076e+01 4.417136306712754390e+01
1.401150116610626917e+01 1.168168102237565797e+01 4.384973042635636631e+01
1.457591774226138526e+01 1.147875341130453108e+01 4.378152770923535542e+01
1.732211919887379636e+01 1.021712721479069508e+01 4.250117695219852010e+01
1.269883528935216610e+01 1.171153907964258600e+01 4.395008344809920686e+01
1.334603416984132984e+01 1.156972328761500179e+01 4.401326655864594528e+01
1.349371815142642106e+01 1.146084190962185723e+01 4.416092411704796916e+01
1.344019164823067491e+01 1.126430681613807216e+01 4.429711571681574611e+01
1.273068760921700893e+01 1.093176548173377327e+01 4.439766368528770357e+01
6.823465122503777458e+00 8.960541075941392819e+00 4.425266258293533639e+01
7.841350453163388856e+00 9.006619069329021343e+00 4.466821536603325171e+01
1.636255427689928865e+01 1.076722458390163339e+01 4.295474633331242842e+01
1.105404426520171945e+01 1.004032391549014847e+01 4.478356647883540376e+01
1.068058418372203455e+01 9.745278779425522231e+00 4.505959387209399836e+01
8.875799613971551594e+00 9.265047809335127837e+00 4.485850146514979997e+01
9.926014716119846426e+00 9.735490010378743619e+00 4.482292472966049246e+01
1.572480021109007176e+01 1.106751137188570056e+01 4.323866326343492261e+01
1.514133470955739469e+01 1.127545592445570932e+01 4.371325613610874683e+01
1.454353440142402754e+01 1.142107254294362306e+01 4.388692724917699195e+01
1.771633217457201326e+01 9.965828196461178123e+00 4.216909414850795912e+01
1.334526218308125145e+01 1.095609754474124742e+01 4.441031128743968281e+01
1.276309703082459102e+01 1.064369473868715943e+01 4.453510525537587483e+01
1.396037922226585515e+01 1.098044088899509418e+01 4.442302843968557369e+01
1.341059786794553510e+01 1.038047599406604604e+01 4.468501613827339725e+01
1.281286183531802969e+01 1.031782296837637070e+01 4.471127259508316598e+01
1.227097143025427606e+01 1.011732911893075126e+01 4.491632618274483946e+01
9.400759039742796475e+00 9.500213545564728079e+00 4.484071631972130945e+01
6.596480791049647685e+00 8.501183596659462438e+00 4.448301594224353295e+01
1.937036584752826940e+01 8.977209948931010430e+00 4.108499585695975043e+01
1.862049799687087770e+01 9.236166179426566814e+00 4.166810872486300354e+01
1.621666381594728179e+01 1.077080101654140520e+01 4.328033176022282902e+01
1.420594766593257674e+01 1.032608753962786707e+01 4.464671913591067920e+01
1.448111255697497590e+01 1.062593122081447738e+01 4.451577978707696559e+01
1.143510937689305429e+01 9.755363234340059364e+00 4.529823003347628685e+01
1.570606093232314393e+01 1.107241031145981758e+01 4.364513355495709135e+01
1.399358306063446733e+01 1.142784387023299075e+01 4.407656455931537920e+01
1.411327032383112368e+01 1.140166001402541163e+01 4.408825662569687864e+01
1.406767531216451239e+01 1.137331200325929892e+01 4.415050091756778272e+01
1.507645708865395662e+01 1.116009655091839470e+01 4.392438817892960401e+01
1.464357688404066593e+01 1.128565283360790694e+01 4.414010015014795130e+01
1.744429111520356201e+01 1.005613742278617195e+01 4.274513976663703119e+01
1.292435702412233489e+01 1.004242933579866914e+01 4.507134412591226891e+01
8.350408681794348809e+00 9.029720661867278508e+00 4.487630181058923284e+01
9.965708917395069477e+00 9.446121678515392972e+00 4.517741479341698607e+01
7.368534248320389501e+00 8.386816361549762178e+00 4.490584899763463511e+01
1.390207675148930555e+01 1.020334271996273579e+01 4.478364665330894923e+01
1.670883832066812147e+01 1.047404201213017672e+01 4.332241391793994012e+01
1.218025114912313001e+01 9.898964207862880116e+00 4.518459227536851586e+01
1.539222257537811700e+01 1.096212183508928106e+01 4.406978459259548941e+01
1.471583502116249065e+01 1.080610961898749167e+01 4.440454359149882180e+01
1.560871334524215470e+01 1.089951633708687240e+01 4.396203715901113895e+01
1.796086022623454781e+01 9.643944666222949991e+00 4.265759960068068324e+01
1.720032310933212116e+01 1.017782705697869439e+01 4.336494049473130730e+01
1.365872881731608501e+01 1.003450650359027563e+01 4.497851812984306008e+01
8.902016085101985610e+00 9.071962238701020809e+00 4.509469013370173940e+01
9.453360684488188781e+00 9.114313852138034022e+00 4.531369127585823975e+01
7.859263814730371500e+00 8.708115884218349478e+00 4.489108006261366057e+01
6.877801521517601380e+00 8.065545786896901603e+00 4.492062118230195722e+01
1.620389578527354146e+01 1.077435647773693184e+01 4.355173183366761691e+01
1.500156694229285748e+01 1.027179142950127222e+01 4.460885335437946253e+01
1.439351156219496808e+01 1.002669959049675619e+01 4.488638612200901434e+01
1.071935719489782635e+01 9.455665858907970289e+00 4.541600303607886246e+01
1.505760789283594114e+01 1.095869936021794722e+01 4.426299218011592984e+01
1.762605910029269651e+01 9.862498929084175359e+00 4.310031752861770826e+01
8.506398755855869354e+00 8.674638281570398846e+00 4.529889316292744894e+01
7.472672359731124203e+00 8.150181607777797765e+00 4.518734181771799996e+01
7.186279730851375724e+00 7.634054221427992282e+00 4.537656822896640563e+01
1.847786370940073652e+01 9.231690383064515615e+00 4.257088541173106222e+01
1.805190822346595780e+01 9.547117420271558075e+00 4.283563535171958137e+01
1.614120997238794075e+01 1.063888412662628546e+01 4.399999979179313669e+01
1.614175572129877523e+01 1.073940038969622535e+01 4.368741365088138195e+01
1.670279889390108252e+01 1.047567332835977183e+01 4.345817952529178996e+01
1.628037417161505473e+01 1.063350528924818938e+01 4.370101455792145373e+01
1.678869790941564233e+01 1.019742424551351689e+01 4.390795226371471927e+01
1.507712949737842933e+01 9.886148425856433164e+00 4.481851250628616867e+01
1.685500986824593994e+01 1.019476685910803759e+01 4.375844885103083470e+01
1.557364332383910899e+01 1.088378116753492719e+01 4.405282048556618690e+01
1.547183139228051552e+01 1.063180337539724718e+01 4.438660233683826561e+01
1.762871644170528285e+01 9.783035556055535764e+00 4.327753833492339908e+01
1.000550482150504195e+01 9.156800881444391749e+00 4.553351360960136418e+01
6.311372955337514412e+00 8.005110852812919120e+00 4.466348898379477106e+01
6.510186153597161685e+00 7.656018506025796810e+00 4.492174533551265370e+01
8.067574024802855348e+00 8.234986054218701668e+00 4.545479229470277716e+01
1.611097620034618672e+01 1.028333579490267446e+01 4.434013344367927090e+01
1.644610697004505440e+01 1.028654999581618945e+01 4.414683550396011213e+01
1.564468584529049444e+01 1.004482021217270393e+01 4.458075254092523920e+01
1.575964412031933470e+01 9.746021977150380877e+00 4.475323117251458171e+01
1.628787889894920582e+01 9.818106067520124824e+00 4.455433731917008799e+01
1.587985806481451156e+01 1.022480360097999075e+01 4.446982762206798157e+01
1.743029125400974877e+01 9.755907574027485651e+00 4.381847120377029370e+01
1.675061602924424875e+01 9.935149166062631210e+00 4.429608248987643293e+01
9.334499730624209235e+00 8.738400480993830044e+00 4.562818693000153303e+01
8.079467225073761583e+00 7.760713922781108387e+00 4.577879655780270696e+01
8.663331005851214073e+00 8.319916108370525976e+00 4.572288570640496630e+01
1.634220360537435113e+01 9.459694632284449511e+00 4.471106695056462144e+01
6.921415230281641406e+00 7.080553434941236901e+00 4.553036956222770471e+01
1.681824525576806906e+01 9.440910199188053298e+00 4.453122813430130122e+01
1.672879341276660980e+01 9.371808181243199698e+00 4.463325641982657999e+01
1.727352643243157715e+01 9.479426896763978760e+00 4.424408578926823310e+01
1.705009241127529407e+01 9.499131499159298997e+00 4.440334270146340145e+01
7.496614434851065489e+00 7.202477514711894457e+00 4.583461870892228518e+01
6.348403864694391885e+00 6.958822092923633740e+00 4.522683574603080103e+01
1.668775065651685807e+01 9.290003529070300914e+00 4.467436722437967944e+01
1.778992114855897810e+01 9.024158402520916056e+00 4.416191146726907846e+01
1.734932890047976883e+01 9.063851530079153562e+00 4.449935933436434965e+01
1.692507915603652080e+01 9.171370309072399252e+00 4.464963352732040391e+01
1.737823352233639795e+01 8.763668288288272379e+00 4.460887197880936839e+01
6.626168565728609572e+00 6.623125918232452669e+00 4.553041953194516367e+01
7.053564945310032641e+00 6.515858526070235968e+00 4.583491234058799790e+01
1.306329823719191197e+01 9.446500190102691263e+00 4.505031383433968983e+01
1.262311338663237237e+01 9.501003983609077608e+00 4.511147704888282561e+01
1.320236504134576805e+01 8.850628098809039557e+00 4.503002038250847505e+01
1.353771432779153905e+01 9.355704022778613904e+00 4.499033942789709783e+01
1.152958154925120127e+01 9.128132912577722635e+00 4.527576541531738741e+01
1.232173235398302147e+01 8.959255704578161783e+00 4.515174031688714962e+01
1.369207798867010162e+01 8.845279177912518165e+00 4.496912914044886378e+01
1.404263421196979067e+01 9.435752433324779531e+00 4.492773041154542568e+01
1.455635107657777816e+01 9.320184501514038544e+00 4.486550126080133083e+01
1.421905700581422671e+01 8.822443118655709071e+00 4.490563454214056804e+01
1.280093046524197398e+01 8.128279439921941574e+00 4.508429985940708207e+01
1.252098501605910208e+01 8.471332681549595733e+00 4.512314735323656834e+01
1.334156736117699005e+01 8.254816530666838403e+00 4.501060681764771942e+01
1.110099247587526783e+01 8.852352808694027075e+00 4.534518235398071795e+01
1.162410129046604546e+01 8.501497507341976956e+00 4.525387120704321831e+01
1.202004925573138472e+01 8.416883317103570405e+00 4.519215134262967126e+01
1.471933269256816779e+01 8.613966502745476816e+00 4.484652837090543898e+01
1.546728074110669482e+01 9.133370974819071009e+00 4.477870571240870134e+01
1.517498701626864133e+01 8.520783335606530784e+00 4.480431837550775498e+01
1.590390020523139292e+01 8.540649513308197882e+00 4.474435344943187687e+01
1.411164015575129937e+01 8.081291428608064820e+00 4.491862438452723438e+01
1.488254273354976576e+01 7.907794222940934148e+00 4.483007288469102036e+01
1.539329480092392899e+01 8.224248427974723441e+00 4.479238686390169022e+01
1.641470208150491672e+01 8.857212686942176560e+00 4.469676350624378358e+01
1.458085430617792611e+01 7.275371537485352924e+00 4.485674460731431168e+01
1.342519663194707391e+01 7.536091732728673165e+00 4.498982418116423077e+01
1.398641387560880922e+01 7.303164018798721457e+00 4.492272170974514012e+01
1.314210729140354772e+01 7.677303014001305215e+00 4.502787111101253714e+01
1.260127949122962576e+01 7.550713603991614065e+00 4.510130465585268666e+01
1.114685216505575482e+01 8.302686520061907771e+00 4.533209829273503999e+01
1.225995809353865873e+01 8.001701344836982699e+00 4.515832699105542503e+01
1.057601355644084506e+01 8.729748888369462279e+00 4.543243962404645941e+01
1.661788520055526774e+01 8.533461283601932124e+00 4.467203268764268387e+01
1.350897985841188387e+01 6.817417283286395957e+00 4.497048200350099023e+01
1.427943603157559949e+01 6.643418651745039760e+00 4.488350157536841323e+01
1.294269619385963743e+01 7.099792045429566656e+00 4.504537087783780436e+01
1.171873579377376373e+01 7.875099101745641761e+00 4.523261567429619134e+01
1.009299275511966165e+01 8.501956983770638132e+00 4.550396560656474776e+01
1.061556098037906004e+01 8.153901455650601093e+00 4.541289886829669342e+01
9.691898934147440414e+00 8.146414538084131962e+00 4.555800026910936396e+01
1.099293033996357494e+01 7.533453651704366649e+00 4.533950582802955864e+01
1.187488976500844018e+01 7.248101842330504141e+00 4.519782229312009747e+01
9.198403598450758167e+00 7.943860251979342202e+00 4.563010988946395230e+01
9.733322925368449674e+00 7.568075313446898100e+00 4.553790597777377513e+01
1.018059474029237954e+01 7.847161159475865233e+00 4.547489655822275267e+01
1.238935881543839557e+01 7.039635773115693773e+00 4.512147627830481156e+01
1.138405751693210455e+01 6.906352101886504613e+00 4.526796425190730844e+01
1.078659717197246515e+01 6.736135569634445375e+00 4.535759167243636369e+01
1.026831882972948762e+01 7.192410947674925836e+00 4.544636552191583689e+01
1.130537714932512827e+01 6.279641321190683634e+00 4.526989334303995349e+01
1.203112272082623591e+01 6.621276070139800574e+00 4.516391813677541478e+01
1.050795762768617081e+01 6.550680209044953628e+00 4.539410153930800362e+01
9.667814198511003099e+00 6.654823546728515282e+00 4.551361280781372187e+01
1.182492737832952123e+01 5.822714132116185048e+00 4.518357206867179343e+01
9.284444725345201377e+00 7.290009918894112317e+00 4.559282951840830833e+01
8.797713367309052401e+00 7.585835916354050745e+00 4.567501829287745352e+01
1.274333461242263965e+01 6.522284836605701130e+00 4.506310112922314204e+01
1.359293451322148272e+01 6.098794093051838061e+00 4.495284750377392413e+01
1.306844374776355266e+01 6.021691889300899270e+00 4.501647791661789455e+01
1.074772161607889309e+01 5.909010156273072134e+00 4.534270277218846701e+01
1.011905654173503244e+01 6.067300375282099978e+00 4.543365258280017116e+01
1.135213729660291548e+01 5.623357482529870666e+00 4.524756603576846459e+01
1.218764771005052339e+01 5.993822850155321014e+00 4.513100160518416004e+01
8.408774512004006496e+00 7.213254316189575910e+00 4.571230160956358901e+01
1.397823569451886883e+01 6.011821699594196211e+00 4.490905236373950515e+01
1.014723597056496018e+01 5.370998868310393526e+00 4.540974130274096865e+01
9.607213398788763570e+00 5.743827926774246251e+00 4.549485778048161677e+01
8.932248822032736513e+00 6.851607078193430844e+00 4.562767256040306307e+01
1.098762520629854400e+01 5.267402915815171838e+00 4.529231912496374690e+01
1.254397667078120371e+01 5.944640486261739909e+00 4.508106112229445017e+01
8.019839174721820285e+00 6.840671385369551771e+00 4.574958711415930424e+01
8.543548117981229595e+00 6.478658492829286963e+00 4.566494262507662683e+01
1.367708376006681448e+01 5.380221943517160987e+00 4.493183268703530331e+01
9.066994207784885518e+00 6.116962948938620137e+00 4.558089823971567967e+01
8.793153373837339970e+00 5.611487196315230186e+00 4.556041789398743447e+01
9.115923475409037025e+00 5.111005028271192074e+00 4.548352403423231749e+01
8.452679576787103244e+00 6.045121278721556912e+00 4.564423494899710931e+01
7.838199625058085651e+00 5.973298882281810052e+00 4.570780168650782116e+01
9.652824441906947328e+00 5.155032616241669530e+00 4.543667125272105523e+01
1.234437807503922002e+01 5.366144263689405669e+00 4.509926873064415531e+01
1.178619992614797773e+01 4.995911907395474749e+00 4.517105297350078530e+01
