1.030322729849476815e+01 1.736338107606461278e+01 3.177173437599279637e+01
1.112745219596368784e+01 1.327224083209780936e+01 2.921875094571690568e+01
1.144498046102595801e+01 1.356429448643220503e+01 2.969201539089533881e+01
1.093884604839391983e+01 1.641957094758883429e+01 3.149546564185877529e+01
1.012917947720107392e+01 1.776242676022625844e+01 3.210154657605627193e+01
1.081000084062400468e+01 1.298026414849683796e+01 2.874548329044718287e+01
1.134336337862852950e+01 1.413521197086740955e+01 3.005235448955924937e+01
1.124154335858401055e+01 1.470623795112746102e+01 3.041275430122501788e+01
1.113934853129809177e+01 1.527712547484697403e+01 3.077303331730994174e+01
1.145321428722098922e+01 1.296981295894533837e+01 2.935299956635716256e+01
1.084383338879593062e+01 1.699071030697653129e+01 3.185698153355506435e+01
1.143163431264977703e+01 1.541755390546841653e+01 3.115646252064525612e+01
1.140295678920368161e+01 1.592602312944419474e+01 3.153764326924535766e+01
9.766336599241620675e+00 1.821799126242892441e+01 3.230807808093712907e+01
1.061147678980604425e+01 1.745426650230592003e+01 3.220662954673949940e+01
1.116885878193609472e+01 1.278311727080487081e+01 2.897281336311570143e+01
1.173995747307873039e+01 1.386367332153749565e+01 3.020382536319031530e+01
1.135914581229796916e+01 1.650838742664440062e+01 3.195675789657539667e+01
1.037815948033990487e+01 1.791806655491574674e+01 3.255833588929588984e+01
1.191071707225818876e+01 1.301351034952424257e+01 2.980124865127737266e+01
1.099217079772754424e+01 1.231901517094441623e+01 2.853361334243093950e+01
1.162470573050505074e+01 1.437308311252285975e+01 3.050258408689062506e+01
1.173496161710047758e+01 1.487001429673975927e+01 3.100080860066816513e+01
1.176881799355239444e+01 1.541034872333495542e+01 3.146443400775589438e+01
1.186201639604023761e+01 1.241279725720706040e+01 2.940586954398007080e+01
1.146142685922005100e+01 1.237425013564092069e+01 2.901345736886520754e+01
1.203987127233081722e+01 1.347963823204849909e+01 3.025433865710219905e+01
1.102727321309727948e+01 1.723543001728902624e+01 3.237452300617688650e+01
1.187585155161174377e+01 1.602564242608923450e+01 3.205660178800837912e+01
1.144714118630034960e+01 1.676750972594983580e+01 3.236475565127647513e+01
9.565841781870945582e+00 1.869026401419503713e+01 3.270347811521688897e+01
1.014604605862459508e+01 1.838150237965832190e+01 3.290997656214725708e+01
1.079704011134617936e+01 1.764722030419505927e+01 3.266070085362583342e+01
1.210858094980566158e+01 1.494509263401022814e+01 3.140839793384074241e+01
1.237720569807046900e+01 1.246178541375054749e+01 2.991036116011249746e+01
1.146959923330543951e+01 1.177964669841171563e+01 2.867458698451692101e+01
1.203524241841739517e+01 1.416339162627413906e+01 3.071606237965924535e+01
1.153265946649792184e+01 1.702663098926279162e+01 3.277274910710984557e+01
1.222410321193519778e+01 1.524009508893056974e+01 3.175166418349201791e+01
1.190682076470751127e+01 1.649375902240057457e+01 3.263270303749992252e+01
9.914089413502908954e+00 1.884533340018744241e+01 3.326190929151170650e+01
1.076834599416310745e+01 1.805320051262067338e+01 3.315883954961856972e+01
1.120864180290101508e+01 1.748008485402075607e+01 3.289192606177018519e+01
1.233028385083887812e+01 1.446290052340985888e+01 3.122932887542379277e+01
1.194566566959320042e+01 1.163686384745587254e+01 2.903099403234177345e+01
1.240933943820063412e+01 1.293323747801944812e+01 3.026658190497529333e+01
1.247302177905379672e+01 1.345032854100119479e+01 3.068581909490244186e+01
1.239826104971293219e+01 1.554356560694018441e+01 3.215629354015905506e+01
1.262526275436890266e+01 1.476239895883030862e+01 3.174296387110539186e+01
1.222174080823060294e+01 1.186018952735412135e+01 2.941604412708153049e+01
1.095010174085435395e+01 1.163174653485176613e+01 2.809282056498464186e+01
1.225557407376020436e+01 1.599474889067969663e+01 3.250153718249366364e+01
1.037212368505789151e+01 1.869027092863554529e+01 3.355799475717125802e+01
9.140571464166065141e+00 1.925724226166719077e+01 3.298589523383571986e+01
1.167808045512008164e+01 1.732201471208668409e+01 3.330370284868306641e+01
1.278783515184079889e+01 1.243918822521205136e+01 3.032392999778438636e+01
1.260646155202183394e+01 1.161975136331144043e+01 2.963123076514024490e+01
1.147776022347890823e+01 1.118448403183529294e+01 2.833544860450466629e+01
1.263492250561078478e+01 1.396770528926012211e+01 3.120799143017250898e+01
1.281996844352202380e+01 1.291064010494943837e+01 3.067918338589609561e+01
1.193862336131623891e+01 1.683229936401289706e+01 3.306154729217935540e+01
1.253132328120708650e+01 1.611263986295422868e+01 3.298563732508734603e+01
1.291992080082380134e+01 1.506164915497196510e+01 3.225594193282476141e+01
9.682115649061513452e+00 1.930952379276579123e+01 3.361275255480941127e+01
1.099676385607819107e+01 1.835931730623270397e+01 3.380610856400327435e+01
1.139084726793348956e+01 1.772490039480282675e+01 3.340966580896524363e+01
1.240257380835264023e+01 1.129740740949103994e+01 2.925514696086401045e+01
1.284330657368697004e+01 1.191048676222638036e+01 3.001945703371438512e+01
1.194697063335242149e+01 1.099421100173412569e+01 2.865785340515680701e+01
1.272356457578020894e+01 1.558736812431486030e+01 3.262095200582507459e+01
1.303162945977165421e+01 1.400357130818091456e+01 3.164705644080799374e+01
1.319846461106711111e+01 1.241659047697094920e+01 3.073660139420593040e+01
1.110886733071294152e+01 1.102968522193204137e+01 2.789333959595156287e+01
1.281132471874109946e+01 1.336996914403240844e+01 3.098356882470369555e+01
1.313199912927534818e+01 1.528702816130130238e+01 3.278145575529145361e+01
1.060327072813328897e+01 1.899374200318237627e+01 3.420451069341891781e+01
1.214753022602157984e+01 1.716394601716893931e+01 3.371548212337792449e+01
1.294613195978594078e+01 1.108604442376687871e+01 2.963394479001371451e+01
1.325397695588834779e+01 1.188782103726273220e+01 3.043291747712304840e+01
1.148590370258196458e+01 1.058936839007724373e+01 2.799636073203119935e+01
1.308729806212111058e+01 1.347454917962683574e+01 3.134255277773959847e+01
1.314288781313570098e+01 1.294570512856049582e+01 3.103968405234542516e+01
1.234458651278691832e+01 1.663796761492858067e+01 3.335034128105942131e+01
1.297584004907239219e+01 1.453279759633981350e+01 3.195169928449805141e+01
1.303679525424174734e+01 1.586010014906459276e+01 3.332570520821020210e+01
1.002671899933788779e+01 1.938366068622982397e+01 3.408487514164101384e+01
1.157342333191478012e+01 1.796962460658757976e+01 3.392721073528168318e+01
1.117948116242440904e+01 1.860410145267212556e+01 3.432362403783707805e+01
1.195131623167507406e+01 1.768929375675162419e+01 3.408015292656425288e+01
1.330946377162788785e+01 1.135909636652701948e+01 3.012861112370308092e+01
1.332634572026519493e+01 1.413523334778125573e+01 3.206176910972255456e+01
1.330413176117397533e+01 1.458755678066150807e+01 3.235003116533279410e+01
1.288466867596869925e+01 1.637185735600779779e+01 3.371930070942103441e+01
9.450334555721205732e+00 1.977350958605882880e+01 3.396332209975422245e+01
1.258275811990684545e+01 1.081296011009736624e+01 2.913932817212339188e+01
1.356022295680188705e+01 1.215399174243083280e+01 3.095247777829330360e+01
1.185670669879666406e+01 1.026730853379284092e+01 2.815115413001585409e+01
1.334361259316680304e+01 1.551249577067461338e+01 3.330717214581388674e+01
1.175613194065635092e+01 1.821423209170236390e+01 3.444450668776610769e+01
1.084026742708589275e+01 1.896483287309749244e+01 3.470760590992382078e+01
1.235238826555353953e+01 1.735311797188456495e+01 3.419065098788765056e+01
1.268252968608180886e+01 1.689303635163117079e+01 3.406795194059662890e+01
1.356628754475081244e+01 1.479211202544489545e+01 3.292730173349315237e+01
1.221982928146101699e+01 1.054020813142638069e+01 2.864536136070695704e+01
1.325537834716229391e+01 1.073076060742831217e+01 2.982063440478875194e+01
1.361579443757324626e+01 1.162530683089833694e+01 3.064883602101708959e+01
1.372038322356982754e+01 1.239911439324666453e+01 3.129665296584468948e+01
1.357995681198580051e+01 1.355674289111325592e+01 3.194034614398297478e+01
1.364758500156652943e+01 1.291307913140630603e+01 3.157030934429401015e+01
1.027085480555837194e+01 1.943165605691593356e+01 3.486970608202040012e+01
9.509862812189506798e+00 1.991074303335083329e+01 3.458694397968552892e+01
1.134249534571987361e+01 1.863581128681637722e+01 3.484810570767864846e+01
1.271058471418935554e+01 1.032163445112113109e+01 2.907922538552975666e+01
1.364436721793633289e+01 1.084003268034754974e+01 3.025518727581630074e+01
1.368842820986164455e+01 1.411321885332839976e+01 3.244414964300351301e+01
1.355728853502433040e+01 1.573797368060650115e+01 3.383290642191146702e+01
1.220308792113126373e+01 1.780888422690763662e+01 3.453256500785374072e+01
1.236340355727515039e+01 9.987355175092849535e+00 2.857747857933716418e+01
1.392197582483171203e+01 1.189139205315608017e+01 3.116835178154386909e+01
1.387429222815236152e+01 1.501160697901360130e+01 3.358577437564331092e+01
1.326054111536576841e+01 1.642644264940465249e+01 3.424710742669071095e+01
1.182831336623945973e+01 1.831078989273520818e+01 3.508316924574673834e+01
1.092869095244776112e+01 1.905774463918233863e+01 3.525276906207068350e+01
1.264985455848980855e+01 1.740388253276028152e+01 3.462040850550820892e+01
1.320134185420604922e+01 1.010306185475159957e+01 2.951309475829171447e+01
1.357109055650137108e+01 1.029891738444944060e+01 2.996323452026353706e+01
1.403317996303962190e+01 1.100474331516231707e+01 3.082080980950731330e+01
1.422813455107792535e+01 1.215746451561372155e+01 3.168694939688754175e+01
1.405725617815524764e+01 1.299031578304090573e+01 3.207304706074096146e+01
1.407260720448505253e+01 1.363893665718910242e+01 3.253823152988668710e+01
1.406760615186926522e+01 1.423299616042994309e+01 3.310783642810174854e+01
1.309705946771944518e+01 1.699884159720089016e+01 3.470818551532547502e+01
1.141470119814575845e+01 1.873262066902695722e+01 3.548913585571984441e+01
1.237312652732023111e+01 1.776494445236371789e+01 3.499067724453429662e+01
1.275534539284580049e+01 9.731280547688875515e+00 2.889150303364760575e+01
1.211503551946267088e+01 9.690574381728959352e+00 2.819558310679716584e+01
1.391570739878847718e+01 1.544014241396546083e+01 3.406303505515947450e+01
1.377372969997999164e+01 1.596328457925585731e+01 3.435825360794642336e+01
1.051500990081021314e+01 1.947964368365811438e+01 3.565481226209620758e+01
1.288036937923545899e+01 1.733989709930685663e+01 3.522528991157657430e+01
1.397912313095514314e+01 1.032119008774137825e+01 3.038176601290585666e+01
1.253253293974315774e+01 9.335682765175574715e+00 2.849736407479600686e+01
1.448351872016024622e+01 1.161268776114653001e+01 3.170344444911451376e+01
1.442959743023618913e+01 1.106989830006322961e+01 3.134147073447806164e+01
1.445676055625560785e+01 1.316462391646494012e+01 3.263227990485206220e+01
1.441168120762516125e+01 1.443932759956236112e+01 3.380515011441487871e+01
1.354519178270334656e+01 1.659366414366884968e+01 3.479594719586854268e+01
1.001964035169635814e+01 1.980473511631925376e+01 3.551636634882563470e+01
1.241587282950979443e+01 1.788552099116655114e+01 3.561395726769034553e+01
1.109877923019783807e+01 1.911757429906394634e+01 3.605750360094020124e+01
1.190071833396580381e+01 1.840749717824678910e+01 3.572452719271183952e+01
1.330574469581926600e+01 1.690311445580947591e+01 3.511085699185503017e+01
1.314728529230921694e+01 9.475206377154199444e+00 2.920552634816251825e+01
1.372457725783132609e+01 9.729255131574376492e+00 2.988742328026044959e+01
1.445055610275368885e+01 1.038435322987525922e+01 3.099303198472897591e+01
1.453464522764404165e+01 1.242385137334225220e+01 3.220596091826394769e+01
1.458288224957925294e+01 1.196100683539257226e+01 3.201392154261616696e+01
1.435212987651193117e+01 1.366969830752696780e+01 3.297155879203091899e+01
1.426735205907687565e+01 1.502276084046401827e+01 3.416487457021649021e+01
1.157101849136136273e+01 1.876118465491734000e+01 3.611933843423670965e+01
1.455504794451901063e+01 1.385625329506760828e+01 3.344561015281973937e+01
1.309314754779758161e+01 8.846464881131415936e+00 2.889754882520437462e+01
1.469810738904768321e+01 1.327319013285367255e+01 3.308601583719622852e+01
1.412711741180662095e+01 1.560576392900548370e+01 3.452431592215633316e+01
1.399076735749817146e+01 1.618861811458625510e+01 3.488365140437994683e+01
1.010150761619408755e+01 1.990141409695350561e+01 3.605715428231795983e+01
1.061716030641690800e+01 1.953258539186047216e+01 3.620897812001987148e+01
1.334123695512520946e+01 1.699264945764094037e+01 3.558820260762237808e+01
1.366658125438284088e+01 1.659052037046262384e+01 3.523605382928547414e+01
1.431331375536221273e+01 9.803216076943131796e+00 3.050816373166052031e+01
1.223983880174217376e+01 8.791965318135554597e+00 2.797004872115147478e+01
1.488155519784668712e+01 1.156848422451819758e+01 3.216595886934192805e+01
1.490177889505602771e+01 1.100798291458454869e+01 3.188552263207148840e+01
1.484102440998990780e+01 1.269013226740818823e+01 3.272631650640094847e+01
1.477836484573074571e+01 1.468680603344785141e+01 3.451317476437043297e+01
1.227693910151230483e+01 1.814143447757461658e+01 3.608854313378476064e+01
1.145617606730484894e+01 1.903110953099818659e+01 3.686631758479435916e+01
1.197306643899226408e+01 1.850404102675285500e+01 3.636453721990862675e+01
1.301655911032632851e+01 1.739513369145430133e+01 3.594158747842562462e+01
1.465454855355268471e+01 9.763660239306799937e+00 3.090408998907086158e+01
1.368417514991339878e+01 9.105051005744948966e+00 2.959504176607396531e+01
1.269052428628176443e+01 8.726422735883007320e+00 2.842233756652174392e+01
1.486131714346188915e+01 1.212887454024197886e+01 3.244522144877457492e+01
1.492198712728578869e+01 1.044751543599565480e+01 3.160432083839909723e+01
1.447551697985847063e+01 1.524628666117885523e+01 3.464328485338601382e+01
1.490185246862116131e+01 1.404910816863585232e+01 3.407602330535721080e+01
1.440081889423004746e+01 1.570182366775677707e+01 3.496586058857059243e+01
1.027800051779971824e+01 1.989194759587635275e+01 3.659480811573526893e+01
1.086714179480728859e+01 1.946148509364336476e+01 3.673054249580621189e+01
1.269275993698685845e+01 1.779691803448419307e+01 3.629603431731217000e+01
1.380899354194296258e+01 1.661984755361088162e+01 3.574906253184996530e+01
1.418923626771438151e+01 9.124765101251526289e+00 3.010989734050378175e+01
1.494218233278561669e+01 9.887158296911316313e+00 3.132336336029305457e+01
1.508386004086216481e+01 1.290275377913315324e+01 3.324016232796892467e+01
1.506960397702001586e+01 1.346224385080573427e+01 3.374475620091684647e+01
1.410821602438762667e+01 1.627470420041049692e+01 3.550400157298398085e+01
9.688613073511506357e+00 2.032259868796401037e+01 3.645904873223295084e+01
1.359970316299890136e+01 1.692653949601632490e+01 3.612903346574466212e+01
1.464758165695724657e+01 9.285115931751954932e+00 3.063461142828427697e+01
1.360636959602061680e+01 8.489035559793592256e+00 2.926845031374253026e+01
1.303903646905825475e+01 8.218076828791554433e+00 2.858975992470060490e+01
1.518857922488951750e+01 1.167480805521209852e+01 3.258175816730598484e+01
1.540460352507325403e+01 1.104355871741437767e+01 3.249261431277587064e+01
1.519508183059875250e+01 1.058599403391319704e+01 3.199904408892220076e+01
1.519698429584623867e+01 1.215241058399620755e+01 3.285022943404570128e+01
1.528910862264567605e+01 1.414835051392847731e+01 3.467151213651653308e+01
1.481204747554784973e+01 1.521427976714835140e+01 3.504819559810418639e+01
1.452360662184251794e+01 1.578757250765994868e+01 3.558652012108182561e+01
1.236919577069578224e+01 1.819858407261462574e+01 3.665015468247477060e+01
1.108577491289138273e+01 1.924864944107648057e+01 3.722976273042677064e+01
1.204544936129444288e+01 1.860056903097448711e+01 3.700229044520492039e+01
1.496236685038535086e+01 9.326842624071083776e+00 3.104249485695275013e+01
1.261255104245593373e+01 8.190877254721030454e+00 2.812621368431922164e+01
1.555216319165689320e+01 1.161584451781256710e+01 3.297395640865895672e+01
1.532659655112433050e+01 1.311531782160452941e+01 3.375380542689599395e+01
1.530637898429972488e+01 1.370167073356449805e+01 3.427587713923744417e+01
1.522409893926695190e+01 1.472721930858664763e+01 3.513044159048435233e+01
1.054124907518849241e+01 1.961257117843324949e+01 3.739125267837030009e+01
9.641570125518164502e+00 2.028267201965677557e+01 3.707639811172200695e+01
1.153649091162705353e+01 1.891294087323206341e+01 3.738770151797549346e+01
1.325474956518030645e+01 1.737756633564245945e+01 3.658133815158837621e+01
1.422418391117587255e+01 1.636086550933111639e+01 3.612468958683477638e+01
1.418294777255426808e+01 8.295309257819273085e+00 2.976897552299278260e+01
1.338405803663598981e+01 7.825136657733509082e+00 2.877753217622125703e+01
1.522866446579714861e+01 1.010379170294980078e+01 3.177613107811857773e+01
1.528984718639136275e+01 9.574375240755607308e+00 3.155994438658725443e+01
1.001382545508495525e+01 1.999219284361359428e+01 3.731838220934175610e+01
1.200178794231931079e+01 1.852367007180561487e+01 3.760659746307407403e+01
1.279317183472166342e+01 1.784431676629711561e+01 3.674300065453031294e+01
1.385830909338667816e+01 1.686043102475021271e+01 3.667142240589065239e+01
1.556930360894287269e+01 1.332790113312214508e+01 3.426744941328215077e+01
1.458280484855646897e+01 8.530633842154568214e+00 3.026521572510096547e+01
1.498256698133140752e+01 8.765899963952213270e+00 3.076134522210317002e+01
1.378333393018274222e+01 8.060125121601000586e+00 2.927304227236624712e+01
1.551836344136293455e+01 1.032712027713432335e+01 3.223639151366477051e+01
1.531009799896170520e+01 9.013790770721318069e+00 3.127901722356432757e+01
1.549092885758643057e+01 1.232811933238418511e+01 3.341158677544969180e+01
1.590742611184908917e+01 1.107913227144039503e+01 3.309866198037332907e+01
1.563987199905387371e+01 1.423994062986286657e+01 3.521272584582084164e+01
1.581201828568752710e+01 1.354056337643869767e+01 3.478125588768414644e+01
1.503799730207747309e+01 1.517865933295038694e+01 3.568900757516559707e+01
1.252804737053166662e+01 1.818697472260655346e+01 3.707573882742575222e+01
1.102782795058697118e+01 1.922513791291409646e+01 3.777313186218623287e+01
1.434104014552331741e+01 1.644693102496885828e+01 3.674407011182706384e+01
1.005682876427719386e+01 1.989001782108962502e+01 3.792648962584105021e+01
1.583350988960257943e+01 1.253576795726846349e+01 3.406809869618879105e+01
1.596129449198127759e+01 1.167978390658452170e+01 3.362142764959254748e+01
1.542170776242708286e+01 1.463518875192150226e+01 3.553880892677536707e+01
1.475808563368298465e+01 1.569701262365692429e+01 3.613053882838990205e+01
9.594480910830302633e+00 2.024270659364340474e+01 3.769434957486991067e+01
1.149299115100303048e+01 1.883597330688856530e+01 3.799191231097975674e+01
1.301042565525063210e+01 1.777357953975560889e+01 3.714904578648922495e+01
1.349303804114087768e+01 1.735999825476693559e+01 3.722108706636343811e+01
1.051917862988747032e+01 1.953733130261552731e+01 3.815863653107545872e+01
1.421451269319221389e+01 7.458853048966184396e+00 2.960308155256544893e+01
1.450809218634798192e+01 7.958335776098345526e+00 3.004577356440282898e+01
1.587547120454570582e+01 1.044444748399348022e+01 3.271806893410784056e+01
1.558236572931415864e+01 9.781481938169802604e+00 3.201458260305244607e+01
1.563751074515609041e+01 9.261594109551181120e+00 3.179652734792228230e+01
1.578592730918377463e+01 1.421649373191343635e+01 3.563989265367324322e+01
1.605452907028940857e+01 1.375317206308062268e+01 3.529491848670799925e+01
1.458927513042530144e+01 1.604759657918814497e+01 3.650621665430330154e+01
1.248427325090860762e+01 1.811019753881980066e+01 3.767969505904141414e+01
1.195815654500970560e+01 1.844681068397647650e+01 3.821071011701448583e+01
1.397534875300873125e+01 1.694669395060983064e+01 3.729308074957204155e+01
1.090561928642570777e+01 1.918314501555635232e+01 3.851055521309939422e+01
9.547358652874736507e+00 2.020270934753114034e+01 3.831276771755683797e+01
1.591672438931808919e+01 1.297928147314284608e+01 3.451884438365652130e+01
1.487012811416124336e+01 8.128956683656600291e+00 3.048489214108760237e+01
1.373193539755303938e+01 7.260571808426655060e+00 2.902475841887297037e+01
1.570084713295335099e+01 8.800478057499169893e+00 3.172264801222305763e+01
1.620038041678840557e+01 1.108308819928279476e+01 3.353093428072518378e+01
1.633700386929464798e+01 1.187943179456781984e+01 3.432044943988978503e+01
8.953619324649967126e+00 2.058696577884403922e+01 3.803005119791852451e+01
1.144484466827242919e+01 1.875148364788120858e+01 3.865687071001988784e+01
1.445820089683297027e+01 1.653295357215340289e+01 3.736514943879489437e+01
1.345782222459063071e+01 1.729866030637182917e+01 3.770615268403508225e+01
1.295344233807420764e+01 1.767375879235580527e+01 3.793456212625077484e+01
1.000974527254983215e+01 1.985000791631859229e+01 3.854478379143824895e+01
1.624303265083384673e+01 1.250391018418590683e+01 3.464534099301650372e+01
1.614891167530135263e+01 1.312856000221952257e+01 3.497017710852250616e+01
1.526418652333656034e+01 8.206435524516457747e+00 3.094243430026151387e+01
1.585158114576520205e+01 9.956180067248858734e+00 3.242441682835993078e+01
1.475791256426787967e+01 7.493286405744021828e+00 3.020900952652475269e+01
1.626317828583410829e+01 1.054166624349707782e+01 3.322333347763144218e+01
1.552392218716261496e+01 1.467989838134605662e+01 3.598483866033387102e+01
1.526201293630749944e+01 1.514303924127059631e+01 3.632944487643559484e+01
1.499285477256561805e+01 1.560645403250332741e+01 3.667400459034128346e+01
9.162257797275703552e+00 2.053216410525903157e+01 3.740008505711744391e+01
1.191451979039045739e+01 1.836993102537277167e+01 3.881503069348445933e+01
1.472535366727694139e+01 1.606958464821562060e+01 3.701931400666279615e+01
1.243177186595711703e+01 1.801799004595329379e+01 3.840505030331790692e+01
1.041373605082823417e+01 1.952520581456610671e+01 3.866206634406537290e+01
1.563975216887439323e+01 8.301880633954276334e+00 3.147149564261025745e+01
1.629167151871685704e+01 9.756700285349618085e+00 3.283069803146924670e+01
1.464569027991700523e+01 6.857579110711306214e+00 2.993312427080289240e+01
1.596452356194304123e+01 9.509095878254717249e+00 3.231345156159063947e+01
1.596796964016338549e+01 8.973972135388907034e+00 3.213506312387015385e+01
1.643098244168778521e+01 1.125443249482757047e+01 3.399545535284516973e+01
1.652483918656855977e+01 1.062995198596694912e+01 3.367203175939011572e+01
1.598536372581783738e+01 1.430360807899637976e+01 3.618676092053009086e+01
1.641501474671260041e+01 1.320032748214832274e+01 3.539435464050647084e+01
8.703086886728508276e+00 2.078135824080187533e+01 3.761757726751037012e+01
8.948135685562743191e+00 2.051468487877878744e+01 3.871678734641447761e+01
1.394034262896539822e+01 1.688515801069365807e+01 3.777853131653076701e+01
1.342261757825155932e+01 1.723732078447885385e+01 3.818945120253629710e+01
1.290539375497986008e+01 1.758916930779129117e+01 3.859939804656907825e+01
1.092252197611339959e+01 1.904093603991456973e+01 3.922433434721475720e+01
9.500251802288051550e+00 2.016272337272689441e+01 3.893099917992709180e+01
1.513853146347687151e+01 7.663994346478337327e+00 3.067368670945267084e+01
1.598369334501358807e+01 8.415907172183175078e+00 3.196511216499367336e+01
1.624955806420275906e+01 1.384025198390592593e+01 3.584118395874623531e+01
1.647634830882325474e+01 1.266103134863276125e+01 3.508591114735735061e+01
8.396478915551384148e+00 2.086635605860756115e+01 3.850276089440915683e+01
1.139635877210316295e+01 1.866721185786257564e+01 3.932207422923485041e+01
1.453009935001794162e+01 1.642077115203408866e+01 3.787783940234707813e+01
1.493554394028873844e+01 1.604641613029650316e+01 3.739071897738237027e+01
1.238825184819232383e+01 1.794097828458567534e+01 3.900952513053959336e+01
1.044826444915784869e+01 1.941499403632721155e+01 3.912651650883270094e+01
9.974348284204195281e+00 1.978878634295511674e+01 3.902877366072259235e+01
1.554581038867799059e+01 7.646959311011343630e+00 3.112353187048296732e+01
1.523635106652310078e+01 6.972950880543657526e+00 3.061874186359741046e+01
1.661884178870908002e+01 1.000432319011397553e+01 3.334793675962194470e+01
1.673665763154782837e+01 1.198661680308757482e+01 3.495668075453131962e+01
1.684675066741218785e+01 1.118942097554448090e+01 3.452930908275364175e+01
1.571010569512610999e+01 1.487696888452403066e+01 3.671199110584483805e+01
1.550852190076311921e+01 1.523486156694544746e+01 3.699149973584487583e+01
8.323538130500372390e+00 2.096878439873371036e+01 3.796604335636364169e+01
8.370297692522017385e+00 2.065632589886929082e+01 3.905964187231433726e+01
8.922231988816983872e+00 2.030450370786311964e+01 3.927373218558224721e+01
1.187084593970509694e+01 1.829297705339546098e+01 3.941995912719901440e+01
1.401974750980607531e+01 1.676154031031665426e+01 3.833893312548285337e+01
1.350945920871458306e+01 1.710233540783967143e+01 3.880018259538888259e+01
1.625889982714268100e+01 9.180657091472321341e+00 3.259032846819631857e+01
1.626703373992816282e+01 8.635676269988252329e+00 3.241477538949357040e+01
1.676177037761797450e+01 1.076309050666190892e+01 3.410013487158103374e+01
1.686680033736617901e+01 1.020095354040599922e+01 3.383764626174691870e+01
1.658604087372834002e+01 9.427920428939454922e+00 3.310743778277467442e+01
1.661308980068649177e+01 1.334769150693031747e+01 3.602522548528492052e+01
1.677561002255485434e+01 1.264716031899718018e+01 3.549367930488963196e+01
1.541261901841377124e+01 1.556022125111026178e+01 3.741626854640973932e+01
1.500727676263056054e+01 1.593435739623752490e+01 3.790147970603650407e+01
1.302134418406597582e+01 1.740907082578379672e+01 3.941422320922004019e+01
1.074051259499822386e+01 1.897009982580159004e+01 3.954965902516082110e+01
9.671325775633393462e+00 1.968992146931250886e+01 3.953811313209069311e+01
1.013548892779229860e+01 1.938758315443816116e+01 3.952593267166351865e+01
1.605141617450208358e+01 7.693191328756850744e+00 3.180766419807433820e+01
1.626206517694274822e+01 8.144203946967399688e+00 3.224023541955182282e+01
1.644683503673256553e+01 1.392731623206183578e+01 3.639148970361210189e+01
1.618066911856056578e+01 1.444571170922098524e+01 3.682715166956312203e+01
7.818743710506717015e+00 2.100790315737815916e+01 3.884571312673330823e+01
9.255601517265835909e+00 1.996956234131515373e+01 3.953404112571423212e+01
8.344118767462365582e+00 2.044630357671434240e+01 3.961652299282868483e+01
1.131224787188634018e+01 1.847595699343100861e+01 3.974072424671026482e+01
1.460207252598830863e+01 1.630849096104315521e+01 3.838715716250954557e+01
1.409916026376442488e+01 1.663792226713862021e+01 3.889921495700920673e+01
1.244579781044462230e+01 1.785124874910831494e+01 3.941709186686753696e+01
1.359630772367634322e+01 1.696734880735563422e+01 3.941136005630583128e+01
1.030430255609670986e+01 1.904941321418489864e+01 3.990775912433407768e+01
1.075424400290141413e+01 1.865874000965760615e+01 4.006115634907050804e+01
1.582701230861475494e+01 7.088318013744860480e+00 3.130436310792917709e+01
1.655327643457130904e+01 8.852220118747318622e+00 3.286720692110935715e+01
1.652050394508359688e+01 8.276456313659714681e+00 3.262706520003433042e+01
1.690694506640099348e+01 9.411489228158776754e+00 3.351092857735176267e+01
1.711445235436925572e+01 1.039734685551912641e+01 3.432676622737886873e+01
1.717323705372188059e+01 1.138849268245786028e+01 3.513067079971126105e+01
1.588980289484872266e+01 1.507404053511376674e+01 3.743953391331713476e+01
1.549879750445623117e+01 1.542562560044900799e+01 3.802668767393672766e+01
7.792417262212442353e+00 2.079794404542895236e+01 3.940259882693710125e+01
8.677481481405818542e+00 2.011130983377573145e+01 3.987693854783229597e+01
1.182671503800342805e+01 1.805040668920467795e+01 3.989419540469170755e+01
1.240196752804600955e+01 1.760850023699958555e+01 3.989124800529551607e+01
9.725952592116955842e+00 1.935506720468011821e+01 4.004320058465491172e+01
1.019606990881744757e+01 1.884157756142208839e+01 4.038169105806186110e+01
1.685953800653044965e+01 8.967458389422544585e+00 3.329737090521405207e+01
1.564847037583557565e+01 6.347573703365454456e+00 3.092964791061649166e+01
1.648767639218716852e+01 7.699788382934102060e+00 3.238659464074225269e+01
1.721791860697975096e+01 9.629695333204509211e+00 3.411114132715213998e+01
1.736207897592192850e+01 1.059372932506327558e+01 3.481585837616377432e+01
1.713626097669280668e+01 1.209380056468947018e+01 3.559295555968702729e+01
1.697649441668319170e+01 1.285512868227732319e+01 3.620945037667099342e+01
8.254606634197138249e+00 2.025823304277164638e+01 4.004953287099864667e+01
9.010843605346389396e+00 1.977631817375028334e+01 4.013735415493632530e+01
1.126464414237806722e+01 1.821313200655270492e+01 4.025433277373814889e+01
1.467400163274309399e+01 1.619629378277757681e+01 3.889665588449653910e+01
1.508629931366594690e+01 1.581102381359712439e+01 3.846152371852289065e+01
1.340831062023971221e+01 1.683536780679327194e+01 3.988623124163810019e+01
1.281113864363022081e+01 1.715594291255011683e+01 4.012617904052576989e+01
1.616556932844678229e+01 7.020721632147199465e+00 3.172878448063941192e+01
1.749689124368588011e+01 1.154040281502382115e+01 3.569376563185460327e+01
1.710205430940018090e+01 1.245448872661741468e+01 3.597774860729922608e+01
1.681235673454107626e+01 1.349520633800812419e+01 3.665750834725497498e+01
1.664823521322563593e+01 1.401445321228063889e+01 3.693957781544128238e+01
1.636734257344745203e+01 1.458775220949724449e+01 3.746310811641530591e+01
7.766267291313424970e+00 2.058803726163279535e+01 3.995915872540319214e+01
8.408322999219050686e+00 1.997634298741306935e+01 4.040012185528556898e+01
1.417123701435673588e+01 1.652566241258071500e+01 3.940850243278205767e+01
1.178260063741594976e+01 1.780792708301189720e+01 4.036828359617600626e+01
1.060598751133098716e+01 1.838186275650852508e+01 4.071470989096295767e+01
9.262135359530581979e+00 1.939958502633272630e+01 4.049135213374158582e+01
9.637823698092432778e+00 1.902443648769724405e+01 4.070227285712557119e+01
1.645482873209064678e+01 7.122776257068776928e+00 3.214600898096788484e+01
1.610812783556082906e+01 6.529843565094250124e+00 3.148514290035778274e+01
1.700222898756975098e+01 8.467631317455630580e+00 3.330704586122366351e+01
1.719455393841657198e+01 8.819668343587016679e+00 3.367354462098482060e+01
1.697523915084351387e+01 7.865598267338976157e+00 3.306525297848869371e+01
1.752897735789045441e+01 9.847276815192174126e+00 3.471119894084439039e+01
1.760995559550683964e+01 1.079032309176394300e+01 3.530547600131768604e+01
1.558501510743538532e+01 1.529103007273020154e+01 3.863795910479860396e+01
1.600469738210932036e+01 1.489448468388361668e+01 3.825418354918791408e+01
7.214179631216006250e+00 2.093976636580072181e+01 3.974547296042958777e+01
7.632047744979078452e+00 2.028357866400479281e+01 4.064906402483256898e+01
1.322031454917753379e+01 1.670338566869835972e+01 4.036111886352177436e+01
1.227480318551455696e+01 1.736066623495408479e+01 4.048434132162972787e+01
7.187643324236294262e+00 2.072996042897798219e+01 4.030225014832949881e+01
1.006461950043836850e+01 1.864137655120842041e+01 4.088206051436058885e+01
8.766312060959313257e+00 1.958325657500190431e+01 4.074010748216034017e+01
1.693865262050792353e+01 7.156858530943991603e+00 3.277452277764602684e+01
1.734729398743377615e+01 1.254443742782812699e+01 3.664109985298819083e+01
1.751794070389603775e+01 1.202481929641659342e+01 3.635894659900303338e+01
1.785763353560966138e+01 1.098677814434949696e+01 3.579474800238667598e+01
1.717788088478647168e+01 1.306309691338841006e+01 3.692278472370130515e+01
1.642454726014623034e+01 1.449805990874808437e+01 3.787054242443251439e+01
1.516533915993320569e+01 1.568768980370777655e+01 3.902185427910961835e+01
1.474585061473879932e+01 1.608423381604719893e+01 3.940564970426449776e+01
1.372923214832423255e+01 1.649683181518746977e+01 4.004236577964251609e+01
1.423763157501164223e+01 1.629049373487307406e+01 3.972394361515650729e+01
1.121704061174797751e+01 1.795030738622142863e+01 4.076796607581346876e+01
1.271210961582041321e+01 1.690965255741204132e+01 4.067943403620682830e+01
9.079860673893227485e+00 1.920720156015061875e+01 4.102269512731550094e+01
8.076693759916379278e+00 1.983695353090710256e+01 4.099607065820089247e+01
1.642204604846744331e+01 6.547007044911878459e+00 3.190595255697980548e+01
1.597361705325477033e+01 5.766934857622612931e+00 3.115424791609853017e+01
1.756377743954988802e+01 9.161798763941467527e+00 3.442722238719383654e+01
1.765552094876913358e+01 1.028598256122251797e+01 3.512866722528224983e+01
1.768797993678257541e+01 1.150549983692637923e+01 3.607707918175274386e+01
1.701372109404340804e+01 1.358207754986315585e+01 3.720467065701409837e+01
1.684542870987158025e+01 1.410153587269334352e+01 3.748683141097164651e+01
1.410994715927203558e+01 1.607395148072845359e+01 4.038980474940472476e+01
1.173847548044913580e+01 1.756538831892250840e+01 4.084250458134884099e+01
1.010831840748900490e+01 1.835618074128650790e+01 4.133010793570143449e+01
9.579258740244311454e+00 1.870091008199405636e+01 4.133450160969085374e+01
1.617580191538282008e+01 1.477886755369219962e+01 3.883258323316110960e+01
8.521607820578152470e+00 1.939006068275284989e+01 4.134328610623220612e+01
1.672745375138864432e+01 6.700911118120624899e+00 3.234827828900818503e+01
1.638926686328677462e+01 5.971321138342354118e+00 3.166594232293396516e+01
1.748211572761059784e+01 8.227938122137505417e+00 3.383624928232308093e+01
1.735436292578321726e+01 7.396236196527176787e+00 3.338690931295185038e+01
1.757596986201181721e+01 8.631791415611225204e+00 3.418447001163762877e+01
1.788628580880854102e+01 1.042345812641243619e+01 3.556202989761930411e+01
1.764423452944624415e+01 1.266737871420585471e+01 3.725354676061127179e+01
1.776912783766411508e+01 1.226553065009154864e+01 3.702463376241762916e+01
1.527933810292325667e+01 1.561072584050915957e+01 3.940743590882497216e+01
1.649108423607776786e+01 1.446936702610342529e+01 3.835737055687162922e+01
1.492119707095388037e+01 1.572438733165848923e+01 3.992607366177281136e+01
1.220338001121504767e+01 1.711613367361986704e+01 4.099808466404275009e+01
1.333311484048781637e+01 1.648256898371093371e+01 4.067260708036209138e+01
7.182740198756747851e+00 2.017780315812369452e+01 4.106985370344285968e+01
1.063696877294301757e+01 1.801171705916653565e+01 4.132571805934379228e+01
9.050278142874127241e+00 1.904558689530245275e+01 4.133889505394881780e+01
9.768389519976537372e+00 1.811106616893460242e+01 4.179479355363847048e+01
9.352815049296475891e+00 1.853737435079552043e+01 4.164429820137172555e+01
1.672266066202476509e+01 6.185484591134455812e+00 3.216468819918473088e+01
1.794350233661860727e+01 9.297204361852124066e+00 3.509532449319510050e+01
1.791490263988894327e+01 9.860353316151133640e+00 3.532860483945711394e+01
1.792588258334405893e+01 1.162001023996668891e+01 3.658458639336757301e+01
1.809577902364201663e+01 1.110100317108388701e+01 3.630276066815287095e+01
1.724053273925235885e+01 1.356988421365369035e+01 3.755471679901389592e+01
1.116569764445126545e+01 1.766720114871087688e+01 4.132132790380747167e+01
1.288724405829144004e+01 1.654949161130805635e+01 4.120086613294103728e+01
7.328852898144186057e+00 1.984495296651907736e+01 4.144157478681277951e+01
1.703503778623063880e+01 1.397290762681283738e+01 3.812927901769104722e+01
1.581314027687850832e+01 1.513696439313014075e+01 3.940922359687551335e+01
7.925053970874230913e+00 1.961757422985948551e+01 4.139244523878381443e+01
8.937040154720140350e+00 1.896389167461591185e+01 4.149373019429872755e+01
8.247437810828264659e+00 1.902527350410172957e+01 4.182084005782198943e+01
7.938838264166012237e+00 1.946242832102266718e+01 4.157294322870546210e+01
7.355287266331016482e+00 1.953489489727847328e+01 4.180290778305428034e+01
7.384038559268555346e+00 1.889331732751582393e+01 4.238270871238327686e+01
1.018447858174159393e+01 1.768423418224626786e+01 4.194547507635062544e+01
1.073074645533277049e+01 1.760887710370636583e+01 4.166319435109488012e+01
8.759327757861205654e+00 1.862948635338308989e+01 4.189074262432772855e+01
9.190473041382070107e+00 1.792900346942226619e+01 4.227744966465721888e+01
9.798890690070672704e+00 1.756318272042060613e+01 4.226713130534741936e+01
1.738962701660016208e+01 6.613926626087748062e+00 3.316245769552669742e+01
1.705602756243173346e+01 6.399630832350403864e+00 3.266339704917647424e+01
1.797210380234546179e+01 8.733752632357308698e+00 3.486199948077921817e+01
1.816202374945977738e+01 1.038993736393526746e+01 3.592203131237258873e+01
1.763155898574440528e+01 1.303833631932154979e+01 3.762260705427976148e+01
1.817055828346286361e+01 1.179749382477636210e+01 3.717148062183658652e+01
1.459751097753977866e+01 1.567896959031427606e+01 4.051474752900571019e+01
1.348397622210123536e+01 1.616269044770290364e+01 4.114280510437886562e+01
1.169433099456149350e+01 1.732274636257684364e+01 4.131693889039260625e+01
1.135487746777181250e+01 1.707705621966601228e+01 4.178188404594581584e+01
1.214503120297931815e+01 1.689893864001015089e+01 4.141442025728125031e+01
1.229096225840806866e+01 1.693600417726759133e+01 4.125888509811010607e+01
1.669231361357407550e+01 1.431966962931034004e+01 3.881913848397066147e+01
6.733434352596971095e+00 2.007203231730133197e+01 4.149064038464684501e+01
6.772465919780784382e+00 1.960726992067899488e+01 4.203258711035932293e+01
7.973471457413226382e+00 1.866073991929070175e+01 4.229809399470866538e+01
6.189109361454486979e+00 1.967971162693267573e+01 4.226247866456342450e+01
6.793960213147693494e+00 1.912614688905381399e+01 4.246741895370870878e+01
8.581624605910564085e+00 1.829508124408323511e+01 4.228777692894396978e+01
9.348015611763434762e+00 1.727738669343193223e+01 4.251546732465160972e+01
1.662952607956060902e+01 5.405276841865804371e+00 3.187626045660815777e+01
1.774140959069480417e+01 8.199036192398633460e+00 3.423244900744759178e+01
1.776975240017682012e+01 7.636048920383038840e+00 3.399904847411544750e+01
8.607707074068910558e+00 1.765481240958709463e+01 4.255728184542141435e+01
1.802303036050405893e+01 1.250624302162740697e+01 3.769057385958802087e+01
1.537852325540940868e+01 1.533888954650543290e+01 3.987564668722288985e+01
1.408015930930506343e+01 1.577625314470844309e+01 4.108479629533112387e+01
1.205662569462180755e+01 1.656901059099076789e+01 4.178898021655429318e+01
1.259566396149910616e+01 1.647520509543177170e+01 4.151188643770706221e+01
1.634693695996462637e+01 1.466324940019538658e+01 3.941100897271755343e+01
5.942714870803659899e+00 2.004555852785223635e+01 4.195331350752729094e+01
6.204027670509415060e+00 1.935891912856362040e+01 4.255210849326209654e+01
7.356227571077373462e+00 1.876651754947157968e+01 4.245928863467136694e+01
1.060013710828281042e+01 1.725784914695510608e+01 4.209599979277485460e+01
1.040747338089676610e+01 1.719726620950272178e+01 4.225680923256198440e+01
7.883072381446606158e+00 1.787035741706287695e+01 4.269263969543186477e+01
8.290460673503833533e+00 1.815797893852528233e+01 4.242763564422881473e+01
1.772382346372524253e+01 6.828606190567736434e+00 3.366241628812602471e+01
1.800070168139390958e+01 8.170133914152541976e+00 3.462864865036434736e+01
1.826824142265965278e+01 9.483645722189823601e+00 3.562866007712582928e+01
1.819837432899829466e+01 8.950179411414476149e+00 3.527542527117206106e+01
8.924560354221824809e+00 1.715227350333596590e+01 4.268676615561822274e+01
8.652998941464723259e+00 1.696065085068708456e+01 4.286336807073187316e+01
8.064609322862850149e+00 1.727155315085515142e+01 4.291048362808488292e+01
1.304688253128298392e+01 1.605093429688801976e+01 4.160947817084827705e+01
1.845963875438933144e+01 1.046770661912760403e+01 3.651067646210791651e+01
1.833379838411592644e+01 1.121520213131286958e+01 3.681036960836458150e+01
1.738233779629307207e+01 1.349419258445209557e+01 3.813258846158684889e+01
1.509687127808071594e+01 1.536386619936441456e+01 4.044747862059203669e+01
1.157991072799586085e+01 1.648932162201563401e+01 4.218907980645499123e+01
1.722495484118444864e+01 1.384427185484013201e+01 3.877182573270653876e+01
1.688101824855369415e+01 1.418935449023768491e+01 3.941279894012780005e+01
7.414829789619969524e+00 1.850892285350433752e+01 4.254938653759153055e+01
6.738114295691829625e+00 1.887244307803485555e+01 4.262071095694188472e+01
5.613700581722666172e+00 1.959184682565507529e+01 4.263685545214865158e+01
5.606453568552982603e+00 1.975206655145556311e+01 4.249209533310256859e+01
9.900983147629698777e+00 1.711757499946311611e+01 4.243146169261336809e+01
1.706749605324061037e+01 5.651068077781413734e+00 3.252408699263801140e+01
1.767608479286825940e+01 6.241576282371455342e+00 3.347582768378138951e+01
1.746336964682271997e+01 5.800579658885158807e+00 3.309461136181504770e+01
1.826179252296240563e+01 8.419085080164007806e+00 3.510530268401764431e+01
9.241416486092990823e+00 1.664973229689836742e+01 4.281625111433251618e+01
9.832512129963767222e+00 1.671030601362795664e+01 4.262643916847885350e+01
1.101570981878928635e+01 1.683155517012620805e+01 4.224649487564631301e+01
8.596239558103482281e+00 1.661593629647675741e+01 4.295324231303468565e+01
7.475683166945548130e+00 1.758274078691009379e+01 4.295764229673337553e+01
7.323753842605361442e+00 1.806450393895939399e+01 4.278428289521306027e+01
1.270830287841314465e+01 1.580486216771048724e+01 4.207425811855071629e+01
1.349804354126819028e+01 1.562673483074909697e+01 4.170705567277008896e+01
1.841411481281541285e+01 1.197485316039979786e+01 3.775846267358592456e+01
1.857178738742645407e+01 1.132945604863906119e+01 3.731835351703976755e+01
1.770371329317721631e+01 1.312427969585900911e+01 3.848838538779143192e+01
1.581077457427021216e+01 1.490909619653375984e+01 3.999458476613607871e+01
1.467644953840136957e+01 1.538975360049123076e+01 4.102677955195668602e+01
1.214432951967451935e+01 1.614695423165803589e+01 4.213164675652282654e+01
6.856437591898485451e+00 1.835717489949524150e+01 4.280056689718927743e+01
6.120922422741764457e+00 1.897821177674403614e+01 4.278189238178659792e+01
6.291837338201546892e+00 1.858436796729149165e+01 4.289247729465910908e+01
5.504209351029591524e+00 1.908389925908403129e+01 4.294294860570861516e+01
5.790168178688302802e+00 1.847799857718482031e+01 4.310538506687520055e+01
1.802927649643123686e+01 7.606827865323322335e+00 3.439545704894359091e+01
1.805786019742534876e+01 7.043183562980599888e+00 3.416214213358716023e+01
1.835904408854973369e+01 7.847051105430467466e+00 3.496161479841293840e+01
1.848964168224706128e+01 8.764492685147619255e+00 3.558321319435464147e+01
1.042409816300046899e+01 1.677092855100768887e+01 4.243647094394594177e+01
9.801609477252670288e+00 1.634127163415622164e+01 4.274991013043020871e+01
7.950326384761675413e+00 1.658210246184063763e+01 4.309039033414310182e+01
6.968631067969095483e+00 1.710085553268664071e+01 4.316899099695707775e+01
1.846603135255528372e+01 9.793821030938874017e+00 3.604857675210029555e+01
1.806231771141326092e+01 1.254858457688587769e+01 3.813625859336220714e+01
1.866657322061766422e+01 1.075692161890311205e+01 3.708562602514128059e+01
7.304415195159460694e+00 1.654826653773334399e+01 4.322753907890174219e+01
6.745868341010886837e+00 1.680929537017670938e+01 4.329927506926937042e+01
1.527251217009630224e+01 1.500341351809462154e+01 4.096878689228739745e+01
1.580841286407312296e+01 1.468122650550040120e+01 4.057995122797684928e+01
1.431282300413341346e+01 1.529615785415642115e+01 4.141570126479678038e+01
1.141259386916979324e+01 1.632342804628897781e+01 4.228936652690362052e+01
1.088720201330396975e+01 1.617811819544217400e+01 4.248646707739806772e+01
1.741510601650257684e+01 1.371559579307200671e+01 3.941458761842519465e+01
1.634444701260455801e+01 1.435898832334586928e+01 4.019105948439027287e+01
1.687961293491176207e+01 1.403732842024825445e+01 3.980286674125073176e+01
6.297512399207437106e+00 1.820528282860754388e+01 4.305198722297862446e+01
6.886648856733045498e+00 1.789398480119337620e+01 4.300481037656907546e+01
5.283358775570052401e+00 1.875042461550503603e+01 4.315872699081921837e+01
1.036181065525402722e+01 1.603280764759676913e+01 4.268356898870695915e+01
1.092212744850948880e+01 1.572428245707269490e+01 4.261721489810269503e+01
1.180952045431731356e+01 1.581526135636531549e+01 4.233224249763974001e+01
1.073511398395544347e+01 1.532785891476032347e+01 4.271338476412670815e+01
1.011230039668672731e+01 1.550450464268903694e+01 4.281178738246299531e+01
9.676864676776062879e+00 1.607710471203832370e+01 4.281401897006197999e+01
7.953230449921893097e+00 1.622485641021788538e+01 4.314393071134439595e+01
7.655456664551662627e+00 1.611263266631905111e+01 4.324457918470490370e+01
6.633164982264113441e+00 1.765291731267638298e+01 4.311050275800072740e+01
6.131617455641438674e+00 1.749183224285589588e+01 4.327654163330554127e+01
5.690005052606450064e+00 1.835037532300774643e+01 4.313099179519269910e+01
5.702841106004301608e+00 1.808746132547716456e+01 4.323005004739814439e+01
5.630070283783357610e+00 1.733074907553901056e+01 4.344258114550971328e+01
6.187808118003371050e+00 1.707009631025403351e+01 4.337094890388051738e+01
8.601536728500958517e+00 1.590170192261024518e+01 4.306038851984806826e+01
9.250212992081392471e+00 1.557836458647733480e+01 4.297679957442827714e+01
8.006372942553101169e+00 1.567714946977358714e+01 4.326162008707384388e+01
8.357030888463446772e+00 1.524198170297031751e+01 4.327865362175393216e+01
9.087512255031970909e+00 1.513844753596229076e+01 4.312225257984783156e+01
7.776819752843282529e+00 1.549077179486158684e+01 4.334986263822785446e+01
8.973666583244492401e+00 1.498700652400322930e+01 4.323689280583267447e+01
1.327230539593344005e+01 1.546275683633157705e+01 4.201686743081785380e+01
1.876977502807273623e+01 9.198201992823719308e+00 3.617518901182480562e+01
1.880938365826609626e+01 1.144369832796289721e+01 3.782632864089149649e+01
1.877317128256894208e+01 1.022032077106989334e+01 3.689966764498697671e+01
6.688149818910445354e+00 1.652748210905458492e+01 4.336327941128827490e+01
7.196743583978485681e+00 1.573950356829897324e+01 4.342105545895290675e+01
1.394920330084386073e+01 1.520256073761400373e+01 4.180462808284321596e+01
1.383605209230131372e+01 1.512081252522544439e+01 4.195950393596665151e+01
1.769557468700207536e+01 1.326145964029172930e+01 3.909710095726858015e+01
1.642938337122823000e+01 1.411872548300218533e+01 4.091089193300710747e+01
1.148250925547168144e+01 1.541572613666873970e+01 4.255085381501951503e+01
1.220670159174846603e+01 1.530679471490848798e+01 4.237514349241132550e+01
6.072165186339868015e+00 1.650670730240868167e+01 4.349896526289144560e+01
6.616663134333717444e+00 1.598823739756743301e+01 4.349224895264339352e+01
5.108538624452652499e+00 1.796971368615937692e+01 4.340800347955102723e+01
5.083182883494267834e+00 1.849530644377350441e+01 4.320990677636602584e+01
4.475946720884006247e+00 1.864033691627221856e+01 4.328887593103943487e+01
5.072344433783196216e+00 1.759139430104273671e+01 4.351421248701947775e+01
4.514614430003294210e+00 1.785204126738946329e+01 4.358584470102898223e+01
5.142183139064979258e+00 1.694133081054107137e+01 4.361840121110963508e+01
1.054809984911087994e+01 1.493143636759042536e+01 4.280955506418729328e+01
9.899290483850178290e+00 1.525483221583760240e+01 4.289315936982163890e+01
