2.052108006669953966e+00 -1.028575281986817025e+01 2.658448756979671401e+01
4.665463401700526092e+00 -7.771032621380698835e+00 2.372453748808190355e+01
4.927887584297121926e+00 -7.304750910412487919e+00 2.338512088603794581e+01
6.040823062198395377e+00 -3.955535643958995262e+00 2.207612932849251663e+01
5.809195553418683211e+00 -5.257797337469684251e+00 2.242738974869291368e+01
5.981111215316950336e+00 -4.498972752267889952e+00 2.219981577632275105e+01
5.489765158212727592e+00 -6.270784741406441043e+00 2.286029791060656180e+01
6.268178127072621564e+00 -2.565963519992119135e+00 2.180656234255148362e+01
5.190465874544931246e+00 -6.838275980010465993e+00 2.304572541611788594e+01
-1.421831928694669012e+00 -9.236296929829670432e+00 3.119786395068024731e+01
-1.053427483950124977e+00 -9.485987656747655095e+00 3.088977455937047623e+01
-5.926660713770932204e-02 -1.033065388894587500e+01 2.986453616330465266e+01
4.948792274838002131e-02 -1.067800617138097152e+01 2.909937957067738168e+01
6.077527884623283860e+00 -8.010244622100938239e-01 2.158255128340116613e+01
5.303346916899197794e+00 3.999902141966625302e-01 2.136332063452284658e+01
1.833437408662188517e+00 -1.049750680540808112e+01 2.702740198833022944e+01
2.936917959819477897e+00 -9.910646570621350904e+00 2.608865816917295533e+01
4.421483193152593749e+00 -8.107913602972264044e+00 2.394963904795303833e+01
6.108453101767237214e+00 -4.913997003854666090e+00 2.239444453708429705e+01
5.870932538061004458e+00 -6.047529232021301659e+00 2.292919661050202151e+01
6.183491113431081487e+00 -5.463728561701642228e+00 2.276196790069280240e+01
6.377369133665828471e+00 -3.359657653619814610e+00 2.209747135697115539e+01
6.506189346659300377e+00 -1.807214268271658097e+00 2.189899568410110930e+01
4.244623833559703630e-01 -1.077172006449358399e+01 2.844669164269305384e+01
-4.988388776443778982e-01 -9.590643883263682667e+00 3.123840283974734433e+01
-9.074119052613573988e-01 -9.350563364751630857e+00 3.146970529583076370e+01
6.182764005308793109e+00 -2.161157421874999318e-01 2.160776339088692666e+01
5.852533192669215012e+00 3.516545213528950997e-01 2.152058287879854959e+01
6.700197348745913217e-01 -1.077860970968502485e+01 2.805117937355956315e+01
2.607206769395997714e+00 -1.016938362272632901e+01 2.659356336673037902e+01
3.761158579460666562e+00 -9.142879568633677678e+00 2.512679783410833068e+01
4.175208827907724185e+00 -8.768009696309404077e+00 2.473163426648770624e+01
3.384787307526793132e+00 -9.483604516998145328e+00 2.548594260106591491e+01
3.107347889589044065e+00 -9.712175510438822101e+00 2.569790111529225740e+01
6.396683121074947742e+00 -4.337577149176618185e+00 2.239343762058940968e+01
6.381890167421266469e+00 -1.196379833440523788e+00 2.178708972109973629e+01
-1.688514803124760988e+00 -8.964083569344317937e+00 3.157008545039579772e+01
1.685944306151163641e+00 -1.063627324457807255e+01 2.767024615525243192e+01
1.091466903092299656e+00 -1.072650972508973588e+01 2.792305378970696594e+01
2.583411086516880228e-01 -1.022675511226452372e+01 3.036154221763332828e+01
4.188624699692552467e-01 -1.045996448306306625e+01 2.991131953778253916e+01
5.795412932273105167e-01 -1.069470163677039665e+01 2.946109426779288043e+01
8.608603796227632943e-01 -1.076499328319133220e+01 2.897155501919445442e+01
1.719343359632616655e-02 -9.884546635003861326e+00 3.102393610762910470e+01
6.360669409014303000e+00 4.635373954038884414e-01 2.179693914461539705e+01
2.374102799812535913e+00 -1.035832443531498548e+01 2.696669698811393800e+01
4.588964571464540398e+00 -8.393102667025326369e+00 2.433624218267377159e+01
5.466701052672662264e+00 -7.221685986113095979e+00 2.359212714371920327e+01
5.784254169469923212e+00 -6.831827214511627666e+00 2.336167409994917676e+01
4.886663879641811370e+00 -8.077777801740930741e+00 2.416188616385424481e+01
6.124731330919825467e+00 -6.436534733192409874e+00 2.330353934026267027e+01
6.447284473221173151e+00 -5.948514557955952853e+00 2.319847832622414785e+01
6.684970219175144557e+00 -3.761157586991589863e+00 2.239244926353004317e+01
6.774458963536170053e+00 -2.575939382887860951e+00 2.210581905907108080e+01
6.824178709357753725e+00 -1.167131199016017140e+00 2.204611767721159055e+01
-2.031225051868017495e+00 -8.707816760616811536e+00 3.179255611485052313e+01
1.761869001111996180e+00 -1.079941361069616512e+01 2.850844743727238750e+01
1.142226942101802756e+00 -1.083529657830732873e+01 2.848201995042135337e+01
2.280431359875185304e+00 -1.054604135413073784e+01 2.741744576854802062e+01
-1.235399651343944916e+00 -9.091445995224688659e+00 3.185419022716672188e+01
6.503267387772796226e+00 -6.914125761973438644e-01 2.182682875432263003e+01
5.522326483523841034e+00 9.195297711691339249e-01 2.143340322248242913e+01
3.127537349082809115e+00 -1.004154634935733093e+01 2.655158006069018484e+01
3.602131516784049303e+00 -9.747529920898722722e+00 2.603584580393843595e+01
5.204188522703534048e+00 -7.688015932027488120e+00 2.393153895827465760e+01
4.731287766253004179e+00 -8.725286359120271840e+00 2.495835467836906929e+01
7.033546529729425068e+00 -3.158150994582821003e+00 2.242397843734836371e+01
6.608281826236118484e+00 -4.931276738583464159e+00 2.268888658304241090e+01
6.992923323642729727e+00 -4.163052599875108228e+00 2.268774743414686768e+01
7.026545347250962692e+00 -2.142371553252633287e+00 2.222703532532670678e+01
7.145706241236446488e+00 -1.643560599331348016e+00 2.226576256599451398e+01
1.109625020369131576e+00 -1.071139800741225478e+01 2.982287847429099870e+01
-4.970465887081146339e-01 -9.388411428246984158e+00 3.184634888693628341e+01
5.604428514467005989e-02 -9.695354544541448405e+00 3.158742677213579242e+01
6.648258519860100080e+00 -3.124230939939783847e-01 2.190534852881717498e+01
2.944363322871201838e+00 -1.029429601093591984e+01 2.712537749887972183e+01
4.354877486789496821e+00 -9.066052170866862880e+00 2.531753949872652854e+01
3.978314310139600796e+00 -9.406962034047452903e+00 2.567687425425875958e+01
5.107808468488463483e+00 -8.384426407304587769e+00 2.459906758082869871e+01
6.769888012984167425e+00 -5.460354196166275820e+00 2.309342439752746046e+01
-1.540051893774828651e+00 -8.827254068195284020e+00 3.215140765882838991e+01
1.399113975784629149e+00 -1.081267303642012578e+01 2.899801983420765694e+01
2.240046627861005391e+00 -1.066211334186695048e+01 2.798259689067792522e+01
5.613097071046168063e-01 -1.011953199167217221e+01 3.100331632024800044e+01
8.955721777971328290e-01 -1.039897681178412192e+01 3.042326886645824757e+01
6.993480364687481021e+00 2.719056092406010317e-01 2.219478338074871715e+01
7.114843389723889189e+00 -4.088689010197264495e-01 2.220336540996929742e+01
2.727537389993182515e+00 -1.059457625950995308e+01 2.780748358355381100e+01
3.607105449188888535e+00 -9.983498287067108734e+00 2.667371283392370884e+01
6.060810031848171242e+00 -7.215057696252193509e+00 2.390814222823365043e+01
5.425638655240632602e+00 -7.994422147059762729e+00 2.436863379067784052e+01
6.685736987341902804e+00 -6.360589975672651164e+00 2.357781731577408735e+01
6.378510992442234517e+00 -6.825259350293483074e+00 2.367782474014541094e+01
7.108297423897246503e+00 -4.948557996637616085e+00 2.298336211389616679e+01
7.300584129002669620e+00 -4.564502944454594591e+00 2.298274723590656521e+01
7.281466729134505655e+00 -3.549077565923906885e+00 2.268090877351028212e+01
7.281046736485866866e+00 -2.585917198383631099e+00 2.240509243701747266e+01
7.363678062768098442e+00 -1.074431259380054682e+00 2.238353533275531149e+01
7.467079108903014628e+00 -2.119531950657334018e+00 2.248522553653549494e+01
-2.022671756804781840e+00 -8.573466976602086120e+00 3.222831999707007355e+01
1.646197634578233204e+00 -1.087343932417637582e+01 2.888239504196886287e+01
1.656125807187522225e+00 -1.079004482224948624e+01 2.951428152060675458e+01
7.521220977113588502e-01 -1.028102010785871379e+01 3.072027148314896294e+01
-4.952551549779103390e-01 -9.186150511014233189e+00 3.245436693228435132e+01
5.846148247569016299e+00 1.471684458572549703e+00 2.167904216215550761e+01
6.538761657281921380e+00 1.143329077259352289e+00 2.198620522548276313e+01
4.997019439913385597e+00 -8.971371566409864329e+00 2.549403220329426745e+01
4.601466634697671587e+00 -9.329193286162606569e+00 2.587102797405554355e+01
5.742995641306604782e+00 -7.605012704368073528e+00 2.413855005910333418e+01
5.411121537368138945e+00 -8.596392153393026092e+00 2.509873927646401626e+01
6.993070575085916118e+00 -5.895837321375106299e+00 2.347779753047744578e+01
2.382094076927578463e+00 -1.076350193281757939e+01 2.853492028423665872e+01
3.199427823944215987e+00 -1.042950448831756916e+01 2.763716317726243332e+01
3.612176472947122630e+00 -1.021963626738381947e+01 2.731200328625377338e+01
1.532733652493387888e+00 -1.057160835105647401e+01 3.048502270568037531e+01
1.245871787275102838e+00 -1.033527957425474142e+01 3.107905376250286622e+01
-1.049066588133718447e+00 -8.946646431626561480e+00 3.251031272068020428e+01
5.874550470720862894e-02 -9.425727789044469063e+00 3.239850499870814104e+01
8.643121464651629671e-01 -1.001225662723586929e+01 3.164531543076152431e+01
4.205914349870433000e+00 -9.687019102194629028e+00 2.624802660505996599e+01
4.047044309062602707e+00 -9.855247541155186752e+00 2.652315312273133685e+01
5.704363719700251245e+00 -8.360932633348779675e+00 2.490799052291551519e+01
6.021897543928787400e+00 -7.971223262878869065e+00 2.467767632752913087e+01
6.918149065180776880e+00 -6.883514870510485828e+00 2.405397128986796673e+01
7.300358630099501589e+00 -5.431244901110886758e+00 2.337781695474161481e+01
7.698378655206030707e+00 -3.781810279741219194e+00 2.299141294533257351e+01
7.653273786786558119e+00 -4.373772188105564673e+00 2.313451110057047444e+01
7.743630706774037087e+00 -3.188560003822812128e+00 2.284805772765972520e+01
7.558710496428796333e+00 -1.538150002295571639e+00 2.252273516614647875e+01
-1.604988967760816676e+00 -8.664788563087924445e+00 3.256580233380248757e+01
1.639886139491029127e+00 -1.072810082719417046e+01 3.018483167492381725e+01
3.174812996394716258e+00 -1.064311494462132046e+01 2.819754704641593790e+01
3.617340521321541047e+00 -1.045565501692474619e+01 2.794994510409950195e+01
2.151021661487058978e+00 -1.091164288253583159e+01 2.928341768963826652e+01
2.687728394550347844e+00 -1.083765539404436140e+01 2.906485133667686682e+01
6.114354085596359623e-01 -9.800160012029557777e+00 3.193701477824912516e+01
7.716583138076575921e+00 3.977483148250501692e-03 2.264336561076611432e+01
7.581948207441966403e+00 -5.053016317054725981e-01 2.250133950103155556e+01
7.049829472533720498e+00 1.217434461027965709e+00 2.233134861392087345e+01
6.339602212977432316e+00 -7.581367425366686952e+00 2.444729573904306719e+01
5.714846794958156728e+00 -8.808541810221610646e+00 2.559882056123500504e+01
6.657321070757659776e+00 -7.191512826209422116e+00 2.421691477335134834e+01
7.448987894241186680e+00 -6.343035001864237188e+00 2.404659882082275857e+01
7.608201475442438522e+00 -4.965829461400389278e+00 2.327768505758338691e+01
7.788896468726304256e+00 -2.595911674170250816e+00 2.270490325241242502e+01
7.875643836215870053e+00 -1.931135259457722242e+00 2.273628622080612516e+01
1.913166633373075465e+00 -1.076741933221884295e+01 3.003061480719016529e+01
3.002461557938539638e+00 -1.072758713621995241e+01 2.856141495299954158e+01
4.224621536353483364e+00 -1.024107358002208557e+01 2.764096743147856472e+01
4.019829798502835949e+00 -1.006862714678648807e+01 2.708583922079831652e+01
-4.647267291509551423e-01 -9.067513334404502245e+00 3.283010675189594707e+01
6.124371667765875493e-01 -9.665164588865060580e+00 3.234277846659985300e+01
7.382840568422404992e+00 6.111909150458888496e-01 2.248720779307354789e+01
5.325019074709110178e+00 -9.230730956171454338e+00 2.608312567666639126e+01
4.810982907202867587e+00 -9.626401935290816780e+00 2.646062000290467253e+01
6.300940511679944400e+00 -8.337459214495172688e+00 2.521682593892610313e+01
6.618649555550997654e+00 -7.947687011522921452e+00 2.498651333150791842e+01
7.502800425284502417e+00 -5.773520565705189789e+00 2.372104538014549391e+01
7.794143350869990883e+00 -5.384305893520463293e+00 2.365852713722818379e+01
8.133260526592957618e+00 -3.634386151668832721e+00 2.323452299301124313e+01
7.962570511267888840e+00 -1.266287197364696970e+00 2.276771391326801819e+01
2.170140328886668080e+00 -1.074480382000895240e+01 3.054683061448195502e+01
4.094554966726298595e+00 -1.046309475094053276e+01 2.818127595171351274e+01
2.656254886679195515e+00 -1.094987280386962958e+01 2.968473229887826292e+01
1.954661906971153051e+00 -1.056643906748319139e+01 3.099226345199915045e+01
1.167109727124163276e+00 -9.905018147058362032e+00 3.228706694560785451e+01
1.453186569093335434e+00 -1.014729177767655166e+01 3.186236233438539855e+01
7.163636054589849200e-01 -9.535056535591797555e+00 3.283566701420506462e+01
1.193405119705375911e-01 -9.188323535386283325e+00 3.315013377649216153e+01
8.049694405792783058e+00 -6.016871267654443356e-01 2.279917439771137921e+01
4.492829954195393327e+00 -9.963126398650560489e+00 2.701117623861275874e+01
6.936373481549033215e+00 -7.557916404091331586e+00 2.475620055456670343e+01
8.178582492731216291e+00 -3.041309555133552944e+00 2.309113956057579031e+01
7.457931898611824373e+00 -6.941779000911529884e+00 2.443004941967825872e+01
8.187336761594099954e+00 -4.769827274396052808e+00 2.360172284445939894e+01
3.622601906611999656e+00 -1.069169180932876806e+01 2.858791544425041309e+01
3.246910051399604757e+00 -1.083568245646404016e+01 2.925980482407094030e+01
2.413054494696089236e+00 -1.084733504753678979e+01 3.011577939002189552e+01
1.739339746443503421e+00 -1.038950580586949712e+01 3.143771149738398663e+01
6.018567681787750701e+00 -9.020568477333139157e+00 2.609859554466299159e+01
6.458290872308134034e+00 -8.667276471193702037e+00 2.581219985234510972e+01
7.980061162319147527e+00 -5.802555312912444307e+00 2.403923035685873089e+01
7.865931100104827323e+00 -6.616792176968982808e+00 2.448132183693400421e+01
8.026316779034507576e+00 -5.190134227747213558e+00 2.367214723226800643e+01
8.377897930275734595e+00 -4.128403651822313947e+00 2.353965014652936816e+01
8.311261680738386559e+00 -2.611296654341382695e+00 2.310764651195761843e+01
3.161291788345088172e+00 -1.098808350879399853e+01 3.008584660935393984e+01
4.686105089030290216e+00 -1.036749958624023193e+01 2.818570635196560659e+01
4.286325489110672571e+00 -1.061738645074562015e+01 2.868162699766507018e+01
1.401873425038937748e+00 -9.786880911476728784e+00 3.289543154406019454e+01
5.781080950608338043e+00 -9.304239924147871932e+00 2.643654441433361768e+01
6.898025107465031169e+00 -8.313986788002054595e+00 2.552580736128873795e+01
7.215421653230295718e+00 -7.924122970739785998e+00 2.529518516390757910e+01
8.166052457812156717e+00 -6.220868113197365545e+00 2.441998966964041173e+01
8.568792623081709081e+00 -3.486961029636921339e+00 2.347763399815099916e+01
8.641588288647614746e+00 -3.032821941439332036e+00 2.344338447431242756e+01
2.432699107446823827e+00 -1.069585251116150992e+01 3.103877622750912124e+01
2.836328746402668077e+00 -1.085132015099413216e+01 3.066022231055435654e+01
4.114301472696653583e+00 -1.075256583115337428e+01 2.901994378557935050e+01
3.759514841423974740e+00 -1.078486541094419238e+01 2.916271288488012559e+01
3.896446185358392267e+00 -1.087804700480706366e+01 2.973753414364884762e+01
4.938744523591263480e+00 -1.007097807087683528e+01 2.749906428974795247e+01
2.232858450637752235e+00 -1.044373520210633721e+01 3.179649158859169233e+01
1.651653566821849717e+00 -9.972188515698501732e+00 3.263991477993517520e+01
1.680552728709759691e+00 -1.006690569119624357e+01 3.234393567533388136e+01
7.035292434555024954e-01 -9.309159467381677544e+00 3.347069555308792133e+01
5.415646534080905461e+00 -9.565850832148939276e+00 2.667302177097150917e+01
5.098916745197407785e+00 -9.814890416707383380e+00 2.703387801063405149e+01
6.617609028599219734e+00 -8.909135915346263701e+00 2.627408541634244088e+01
7.998197543017019129e+00 -7.000079917010385344e+00 2.480626597123642085e+01
8.834890108055228453e+00 -2.626681314537981038e+00 2.351037054623220612e+01
2.694037780670081705e+00 -1.078210010904940219e+01 3.093512612108812476e+01
4.950039491123626512e+00 -1.054311143139425688e+01 2.877532375595579950e+01
3.665974434371136681e+00 -1.102626167757881603e+01 3.048663524286588355e+01
1.106944414735653304e+00 -9.546866867801853118e+00 3.324848088235926724e+01
2.193978205810584559e+00 -1.022876886112543460e+01 3.240081216668687603e+01
3.780676104451865388e-02 -8.960815677976484039e+00 3.372623047578255751e+01
6.322525265749078471e+00 -9.232623742343488260e+00 2.659842710033017710e+01
6.020430704928651622e+00 -9.505314738081546366e+00 2.688540074830002169e+01
7.205549016728238776e+00 -8.675081226606224050e+00 2.625554382323205616e+01
7.606787654925136977e+00 -7.462101274212930235e+00 2.505072416808614477e+01
8.434164681194548763e+00 -5.844265541950737664e+00 2.433738189103167571e+01
8.352258752044157575e+00 -6.639559567941446083e+00 2.480109822683515475e+01
8.444720414091822391e+00 -5.414372858743635497e+00 2.406660340420249966e+01
8.767346076652692943e+00 -4.573772369473262600e+00 2.392570705780229545e+01
8.958897192807469878e+00 -3.932105391729078914e+00 2.386372527598939541e+01
3.503344948778048362e+00 -1.095790911765944031e+01 3.077370710952364519e+01
3.217569027809263904e+00 -1.081936876420341065e+01 3.132318751002978985e+01
2.695184128645698785e+00 -1.064780080262588768e+01 3.153062766752938728e+01
5.384953545617338300e+00 -1.017882974225769210e+01 2.798694636321273777e+01
4.606576161219919641e+00 -1.081348328150919080e+01 2.945228310898872692e+01
4.033472254432746595e+00 -1.097128820353335499e+01 3.031270246730092666e+01
4.565971556780841212e+00 -1.092282645209571967e+01 3.009853843672990337e+01
2.136264930684409702e+00 -1.003936742807327498e+01 3.299295206850032969e+01
1.636643561697442628e+00 -9.668724930813191065e+00 3.350434843318134881e+01
5.943401449932323999e-01 -9.005663153541851429e+00 3.423941528319500094e+01
5.702683961387874589e+00 -9.842071289665234701e+00 2.743617465174384407e+01
7.494797115798895959e+00 -8.290546408041963744e+00 2.583448628703381189e+01
7.842830192686413682e+00 -7.879641814700261371e+00 2.561700196425655562e+01
8.875585176335187398e+00 -5.024086586371543817e+00 2.419982654640003261e+01
8.717245034527088876e+00 -6.145012396399840426e+00 2.470021249919517459e+01
9.006451026051610853e+00 -3.274290130732324222e+00 2.376958593563403355e+01
2.726391780647379193e+00 -1.049796357750949660e+01 3.215537347887863717e+01
5.239383804717236082e+00 -1.036555187240344544e+01 2.842527651965532698e+01
1.287576565411138629e+00 -9.429965876640752143e+00 3.379176848631599483e+01
6.916143679828131496e+00 -9.059831376931500202e+00 2.667683520625325144e+01
8.538569045597780516e+00 -7.058368712824853120e+00 2.518232432858770764e+01
8.190556695707080337e+00 -7.469147197758881696e+00 2.539973708367081784e+01
8.863295597757119282e+00 -5.638541954025321878e+00 2.446089705965250261e+01
2.957659110866601715e+00 -1.060002353462698466e+01 3.202251671240106390e+01
5.267990439296864835e+00 -1.067429398457037060e+01 2.934171373746384148e+01
4.170328777007914489e+00 -1.106440876907460158e+01 3.088711147533200929e+01
1.232878645130831119e+00 -9.278224341838470224e+00 3.417627582921593188e+01
2.706949251281169033e+00 -1.039046729473400532e+01 3.245764758923779425e+01
2.148535645807295502e+00 -9.867090610196402878e+00 3.350735443641634959e+01
6.626681114872285505e+00 -9.444663514213148758e+00 2.709821475920129075e+01
6.510539553661828016e+00 -9.761267533701655452e+00 2.771969422404319161e+01
9.349724240393458174e+00 -4.377420685172346282e+00 2.425019415499072650e+01
9.120373910458422273e+00 -6.572918372314590307e+00 2.521650565915677333e+01
9.352597759081277218e+00 -3.799026746766230644e+00 2.413784185608899691e+01
3.480756890389320457e+00 -1.070430820331157307e+01 3.211307034108497760e+01
3.741640194329815650e+00 -1.085667410967148072e+01 3.171168701048618033e+01
3.955691491209041288e+00 -1.096053927142781070e+01 3.129938299964913284e+01
5.098832241002869026e+00 -1.087436596947714484e+01 2.988437873112313170e+01
5.614072970834334875e+00 -1.046883651789960190e+01 2.886904286483740023e+01
5.831372216957563914e+00 -1.028664741015703932e+01 2.847467086905043132e+01
4.935153731214186656e+00 -1.096848478355219925e+01 3.042258708134779965e+01
1.871168271627985380e+00 -9.550678091306370021e+00 3.411333849111436933e+01
2.664153256558889460e+00 -1.024855963740954934e+01 3.290200474927686258e+01
2.621408854978107605e+00 -1.010661926556415580e+01 3.334652970337958067e+01
7.836354865537836112e+00 -8.525303374133795131e+00 2.638123088010199524e+01
7.546839354137430789e+00 -8.909794965392860533e+00 2.680204942679237945e+01
7.051058287811596159e+00 -9.575178335166897980e+00 2.759673420296255841e+01
7.988145328584621119e+00 -8.298975060219445865e+00 2.615163464994818554e+01
9.467516109007783953e+00 -4.947643337224731042e+00 2.458374822454364761e+01
3.220155918007572282e+00 -1.055221560488938337e+01 3.251451718700931082e+01
5.996005247494088586e+00 -1.000338089574616873e+01 2.795313720758740317e+01
4.771534564945865142e+00 -1.106260774950408710e+01 3.096079581486193533e+01
1.288382295917591236e+00 -9.076701935443471925e+00 3.478622698610953279e+01
2.033164957473974965e+00 -9.394612060331761327e+00 3.471343092115681372e+01
8.379672565121806471e+00 -7.836891331742618760e+00 2.590705218498553464e+01
6.899253233655429085e+00 -9.845950551799289130e+00 2.810124150625421180e+01
7.185641294077833585e+00 -9.390722324133117027e+00 2.732893081493179110e+01
8.771249554724192876e+00 -7.374780151319002108e+00 2.566243205523905146e+01
9.193915189680712530e+00 -5.354098476982239063e+00 2.456943815148983745e+01
9.282991979837783347e+00 -5.863109207382258603e+00 2.485586525100455546e+01
9.755419610597511948e+00 -4.306549926805450568e+00 2.461082013912280786e+01
4.265885815796748304e+00 -1.089402859983013805e+01 3.210035197458350353e+01
5.786413904787781171e+00 -1.068033992256845011e+01 2.961503648990467497e+01
4.456064050230591711e+00 -1.104045239168972081e+01 3.138448563892248089e+01
4.651617767773382539e+00 -1.108475667645356921e+01 3.122929251872813694e+01
6.394574950726926943e+00 -1.007769778054534626e+01 2.834082768810062447e+01
2.521592008891866410e+00 -9.923286390628694775e+00 3.376641831578184849e+01
3.037747733758579205e+00 -1.030259855175361672e+01 3.316639075137401704e+01
7.475669678413099817e+00 -9.705631998828801343e+00 2.809501341122809848e+01
7.744340110501558350e+00 -9.336847647335163813e+00 2.755938701548592107e+01
7.961127213955779602e+00 -9.048304165351456874e+00 2.724333161743305354e+01
8.997756943275575736e+00 -7.163085323364860812e+00 2.558910705976954247e+01
9.722977691303391623e+00 -4.666306527226157463e+00 2.467834326334762096e+01
9.703013217396813772e+00 -6.087606351485908007e+00 2.525069266929584799e+01
9.960814815115979215e+00 -3.403745937524562670e+00 2.462272862733311740e+01
9.898406986075206859e+00 -3.905877539160188761e+00 2.466406022798261333e+01
3.743372629511943828e+00 -1.065652127815092598e+01 3.260523935841744958e+01
5.591894054502780875e+00 -1.093530971613552261e+01 3.031691130754071395e+01
6.278573369308289465e+00 -1.039455401527475331e+01 2.896279366566887603e+01
5.373223989993896943e+00 -1.106080648587464310e+01 3.103449823500487170e+01
2.421799475801166057e+00 -9.739936795330768504e+00 3.418672029627889941e+01
2.346418652624795875e+00 -9.616600428666483680e+00 3.447008809152885078e+01
8.177914661188513179e+00 -8.759761304086524092e+00 2.692727572647918066e+01
8.481721337350695222e+00 -8.307405751729062260e+00 2.646865985509666785e+01
9.585238770303584843e+00 -5.517510564111155702e+00 2.491713227665020369e+01
9.462788501903977689e+00 -6.857002572803481577e+00 2.567982389919970387e+01
4.267034123918305610e+00 -1.076088192871662663e+01 3.269602079079020029e+01
3.505118095032279335e+00 -1.047087975015317873e+01 3.314495654150603343e+01
3.720362431758335919e+00 -1.059794273557112199e+01 3.290286895612817375e+01
6.353532399594903346e+00 -1.056002510468155364e+01 2.951697181843178797e+01
5.132962752800666273e+00 -1.110510514512842661e+01 3.157149864752963353e+01
4.741985568600022738e+00 -1.101648904286740382e+01 3.188212816680145067e+01
1.742092008058235164e+00 -9.129361856768960948e+00 3.512807014660739213e+01
3.105985998186248764e+00 -1.017379140737922860e+01 3.369986020174741270e+01
9.004369190835868508e+00 -7.691409740923282001e+00 2.614287687540653593e+01
7.185767548745142008e+00 -1.001295403390870398e+01 2.860725097313308041e+01
1.009548578051366619e+01 -4.955357022455395111e+00 2.510671878943564295e+01
9.928581403038046815e+00 -6.550920067838380767e+00 2.577054528869917505e+01
1.027293419378801076e+01 -5.810700687450573554e+00 2.560731491969646711e+01
1.046798839758789335e+01 -5.244421748377970260e+00 2.553510975115720427e+01
1.016032647706869874e+01 -4.235659312707489299e+00 2.497156615221154752e+01
1.026287559396510574e+01 -3.784297541891628924e+00 2.497737326261792390e+01
6.428652441640452686e+00 -1.072567560614205995e+01 3.007174367031116091e+01
6.749960812428494883e+00 -1.047102973962945605e+01 2.939532882473703879e+01
2.972777476198387614e+00 -9.929303391608680585e+00 3.426014904245226234e+01
1.343886002193173335e+00 -8.875170999401071015e+00 3.539758724938076995e+01
2.821883124181101543e+00 -9.682552045486421122e+00 3.482724610128963150e+01
2.195222524157272925e+00 -9.238479831321063429e+00 3.531563156923085955e+01
3.790077386121921244e+00 -1.038952179089719330e+01 3.377571935636036216e+01
8.190355311496118063e+00 -9.521246771562470457e+00 2.817175759271642121e+01
8.303483724958635293e+00 -9.282978157813742470e+00 2.778984276681112675e+01
8.520458969024632623e+00 -8.994539366743007136e+00 2.747406581579665996e+01
1.010301852108031717e+01 -6.264446581127541158e+00 2.568558593945836677e+01
1.023056670634930398e+01 -3.242714936695798578e+00 2.499779210348296843e+01
4.790193697116744254e+00 -1.093172803058090103e+01 3.248910024442363920e+01
4.221008213191018044e+00 -1.064370706616264073e+01 3.329163233359837193e+01
6.895885201584519564e+00 -1.032027659501079064e+01 2.911948641264693549e+01
6.085243002724006978e+00 -1.099624311698565648e+01 3.074937449289836167e+01
2.703277798379497998e+00 -9.446656525221978740e+00 3.532754070467549212e+01
8.748173413023359046e+00 -8.655191182998686728e+00 2.712990261986205098e+01
9.237653869803033047e+00 -8.007844265740152068e+00 2.662303308079162534e+01
7.900939740467665118e+00 -9.836128306449017700e+00 2.859345088188161910e+01
9.457659702213591757e+00 -7.267837555249937687e+00 2.599600798715894356e+01
9.527191360471668702e+00 -7.659387692767307243e+00 2.644811955437032935e+01
1.015354615858704612e+01 -7.014316096475272211e+00 2.629052347879854068e+01
1.070284233406086294e+01 -4.848941575723402231e+00 2.564781980554333174e+01
1.059192968750000041e+01 -3.447714853751287833e+00 2.545120959742527944e+01
5.027930264055154197e+00 -1.099253122712385000e+01 3.237978183351042105e+01
4.790449112415117838e+00 -1.086515325447952662e+01 3.278673424794406088e+01
6.503888974696762304e+00 -1.089140491447875370e+01 3.062677265215994282e+01
5.614362935009918232e+00 -1.112545441255686818e+01 3.191372317440591644e+01
1.850652653585756369e+00 -8.978826693114376312e+00 3.565815062057125573e+01
3.590877903491049850e+00 -1.024100628524361234e+01 3.405359982427698640e+01
8.975889656653528448e+00 -8.315842257166570661e+00 2.678574044615141503e+01
7.513969725913548281e+00 -1.024595758420263358e+01 2.927627469896166801e+01
9.918625547861116942e+00 -7.372675563463255699e+00 2.640322296081995290e+01
1.050086157627638705e+01 -6.441225866240936071e+00 2.612032035057132262e+01
1.084086328124999987e+01 -5.533789335654438091e+00 2.596394982609053415e+01
1.056496171874999845e+01 -4.164820104792024580e+00 2.533207106167695954e+01
5.313864740660922514e+00 -1.096937588808531316e+01 3.287741254295961824e+01
7.221985526450967363e+00 -1.054750930430622979e+01 2.982788275323016691e+01
5.975660549507034958e+00 -1.105900476273301436e+01 3.110823287403889736e+01
7.042562570382956189e+00 -1.079189140071216180e+01 3.052909333380283385e+01
6.035562654149454254e+00 -1.110240315556258928e+01 3.168209188458044423e+01
3.330251279376756912e+00 -9.907007322303773122e+00 3.474506807556202403e+01
2.357181265025757089e+00 -9.082433774480692890e+00 3.591666798458808785e+01
1.768324899055231603e+00 -8.837057780668752471e+00 3.598023471278452234e+01
3.524035461666907398e+00 -1.011875574138967693e+01 3.433360979176755734e+01
9.471290652101023610e+00 -8.324293252267642274e+00 2.710322007378448461e+01
8.863295225555861023e+00 -9.229100382532754665e+00 2.802035139466629232e+01
9.167256525485882435e+00 -8.776751717580511425e+00 2.756184062218840580e+01
5.017532001934775110e+00 -1.082945110981498260e+01 3.327887907146061508e+01
4.398261204861044327e+00 -1.049881619645765340e+01 3.404356133907798210e+01
5.632519556200722199e+00 -1.105415395811465018e+01 3.251555882491006599e+01
6.579238722855515142e+00 -1.105720193806255480e+01 3.118202247146156125e+01
1.179336734607581150e+00 -8.591626699894122865e+00 3.604343741179945937e+01
4.075090380379613464e+00 -1.030812601286772434e+01 3.440703938845178556e+01
1.087511618560104054e+01 -4.107356659163331258e+00 2.577218246938464574e+01
8.326635776650435972e+00 -9.966566627277908097e+00 2.909166154453602715e+01
8.826574189549598159e+00 -9.518285327455215494e+00 2.854339077359681198e+01
8.388349646096800782e+00 -9.707451597593667714e+00 2.864006121206226041e+01
9.925477778468238199e+00 -7.900773234725703809e+00 2.695670251137218898e+01
1.037770585937500023e+01 -7.477471865759408587e+00 2.681026594037092536e+01
1.120064872435680670e+01 -4.652494139856885980e+00 2.618921449547720570e+01
1.099318548245440219e+01 -5.954630092267761299e+00 2.630650031280283230e+01
4.721627710137183520e+00 -1.068946692329447146e+01 3.368044462135313211e+01
7.694224924159541068e+00 -1.062400413890460449e+01 3.026052077716425259e+01
6.095824232317251123e+00 -1.114580420535263450e+01 3.225597022534228842e+01
3.881435522392306048e+00 -1.000505008003829133e+01 3.509411620456423719e+01
1.093875361583143402e+01 -3.656603760163622319e+00 2.591234234778016798e+01
1.091102589756568975e+01 -3.150793871524774303e+00 2.593106711899760697e+01
1.088268950713305649e+01 -4.408561609187206187e+00 2.576048134791836475e+01
8.133720021905473274e+00 -1.017150066349694093e+01 2.943336779678452331e+01
1.089953005771974581e+01 -6.618378254611918088e+00 2.655596706920790950e+01
1.133915856901168873e+01 -5.337219696753079390e+00 2.650588091594690354e+01
1.119296685072203523e+01 -5.734441590154171209e+00 2.640571001240315496e+01
5.869986419032754199e+00 -1.102848059111874157e+01 3.297878954070920798e+01
5.616768964981285528e+00 -1.092187201592744650e+01 3.353353101303245865e+01
5.222301906001419525e+00 -1.073522831639049713e+01 3.406937621292871654e+01
4.611749054420701377e+00 -1.043772147176889042e+01 3.451699430463282425e+01
7.212526951017201426e+00 -1.100633489960169697e+01 3.127635507616686183e+01
7.763771306863407773e+00 -1.040063309519949897e+01 2.977317380676149838e+01
7.539194208661440300e+00 -1.081546095228314641e+01 3.080395035383800817e+01
6.457224436067310336e+00 -1.112020987343618827e+01 3.198160465944001274e+01
9.793439855070529276e+00 -8.575163632014023207e+00 2.765770872349175136e+01
9.387870127812115939e+00 -9.178607088755100563e+00 2.826929790054158431e+01
9.234149415741223166e+00 -9.339739769157048954e+00 2.844270704834896790e+01
1.083777920092212987e+01 -7.136168559275416712e+00 2.690055414124876876e+01
9.911443636524550627e+00 -8.367517835688694561e+00 2.746677577988229046e+01
1.118547375680265255e+01 -4.049860514149663082e+00 2.621258975933065472e+01
5.837568104478565445e+00 -1.100000717452451582e+01 3.328733830658153181e+01
7.053637576078430449e+00 -1.110507838986308471e+01 3.155386202660209705e+01
4.548553662111555873e+00 -1.034939477653206552e+01 3.479866191659836261e+01
4.291843791416080300e+00 -1.018760755739099189e+01 3.502358763979881218e+01
8.164019751223914767e+00 -1.070051925336975351e+01 3.069327118067277382e+01
1.120355634751533991e+01 -3.571558581710932767e+00 2.629220884290073812e+01
1.011434001081757117e+01 -8.826409055352366195e+00 2.821303252276202400e+01
8.789380201561568740e+00 -9.807541253031823558e+00 2.906655736983579885e+01
8.229728840600735396e+00 -1.039051182285546560e+01 2.999955105202150207e+01
8.751477007604153258e+00 -1.009711845929301965e+01 2.959030317141908029e+01
1.066089016695997138e+01 -7.817363365335721070e+00 2.739275487330012737e+01
1.114530536017000806e+01 -6.374918248239467289e+00 2.664862868592107503e+01
1.151878665170111127e+01 -4.896574142952594855e+00 2.661819895515522205e+01
6.577352089073971619e+00 -1.116615461208810522e+01 3.259823886426132589e+01
6.819415654793873571e+00 -1.109461583741459378e+01 3.170723351062444451e+01
5.148354918561996563e+00 -1.056728110867786796e+01 3.462693028994563349e+01
1.149605859374999817e+01 -3.992325398936170000e+00 2.665332713747565307e+01
9.603777825181925465e+00 -9.450550090062867170e+00 2.886571787886883200e+01
9.183547871325941969e+00 -9.596678714424895063e+00 2.889758968481491763e+01
9.911733233361799122e+00 -9.128010308789400895e+00 2.851876741316636199e+01
1.079045993868392195e+01 -7.564981532939330400e+00 2.720885899460671098e+01
1.129741679687499989e+01 -6.795188761707573910e+00 2.699076948637647888e+01
1.154488044053784357e+01 -5.934991044969209817e+00 2.684724376873365159e+01
1.166667655961676431e+01 -4.566889783047686002e+00 2.685043269359448814e+01
7.059706811043485075e+00 -1.113202795646939869e+01 3.223241338852995597e+01
5.722560827138384987e+00 -1.078094877638750049e+01 3.445806235349177626e+01
6.426327555948866177e+00 -1.108772694811981552e+01 3.308014007581885352e+01
6.361062373088740785e+00 -1.103062197533492395e+01 3.369709736506055719e+01
5.919849136359280450e+00 -1.087431410084055017e+01 3.419002778595328351e+01
7.843584327571209158e+00 -1.095546751802526764e+01 3.137069553490508156e+01
7.528114770261855604e+00 -1.115295552840629512e+01 3.192570464014087861e+01
1.137326186701214858e+01 -2.794185687752810843e+00 2.656195328619542906e+01
1.035019433328571026e+01 -8.410776801302551675e+00 2.783060217229923339e+01
1.043500205724867591e+01 -9.077472874093631461e+00 2.876795998045511027e+01
9.421143570495935649e+00 -9.762850715022997505e+00 2.934842005732405923e+01
1.183709492187499990e+01 -5.140792845729226457e+00 2.704742302996109871e+01
1.170688997949768329e+01 -3.614026553619869908e+00 2.695370440157598679e+01
8.474108399768310207e+00 -1.090456235681875619e+01 3.146511294003830272e+01
8.869104540746493015e+00 -1.034929633364161816e+01 3.024667648920425123e+01
1.154011919019119325e+01 -3.204086112826960431e+00 2.675782311631240518e+01
9.973090340274655574e+00 -9.561268583156600442e+00 2.928837365622607436e+01
9.404373104957763019e+00 -9.992396207148690479e+00 2.977128115412988407e+01
1.154091488140799981e+01 -7.139212604593646816e+00 2.746175662164014497e+01
1.183875561957011868e+01 -4.100140378651323303e+00 2.709385686371453161e+01
7.058949334485368432e+00 -1.118650571604706734e+01 3.294053000369590478e+01
8.002618517496717487e+00 -1.120082789118765909e+01 3.229751031009720919e+01
8.634463831596921324e+00 -1.077714162480177151e+01 3.112662739078552576e+01
1.078865205716833842e+01 -8.454009939989120426e+00 2.819419024800609819e+01
1.094404725240329945e+01 -8.157226709065854564e+00 2.797520816652371067e+01
1.083129891804694012e+01 -8.787279649331347642e+00 2.866293508541584600e+01
9.183847264799332777e+00 -1.016937982101013205e+01 2.999011830518035993e+01
1.120294463320267120e+01 -7.652436852385763544e+00 2.760719611318599931e+01
1.204290064401252813e+01 -5.738979140337206353e+00 2.738894403098922226e+01
1.197098231263002077e+01 -4.547335975155558430e+00 2.724654025971907956e+01
1.177298218808789088e+01 -6.565443148753558944e+00 2.736038476243115980e+01
1.189673274093624400e+01 -6.135510342084868896e+00 2.728871229201116932e+01
6.983149477383762793e+00 -1.114729230508047841e+01 3.318149124763853308e+01
7.300115589705196584e+00 -1.116944185444732263e+01 3.275761596110159957e+01
8.554524242254485600e+00 -1.104928470553286779e+01 3.200562800220257031e+01
8.986720406762009006e+00 -1.060144968028682833e+01 3.090298785389113334e+01
1.175046668054967292e+01 -2.825970116819769284e+00 2.705788730412665899e+01
1.057334442887340487e+01 -9.430063815536493976e+00 2.945077297464237986e+01
1.172133330049923572e+01 -6.948083723026400094e+00 2.748562462875859325e+01
1.222977314919954850e+01 -5.307484502684258310e+00 2.756254416116187400e+01
1.224824999999999875e+01 -6.335842014647247389e+00 2.772977141300168569e+01
1.204963617629756101e+01 -3.721904579619822684e+00 2.739430479746264169e+01
1.156129152422098727e+01 -2.402195434281900521e+00 2.685092027665358216e+01
1.191753004092826274e+01 -3.235809927829591093e+00 2.725402781419726495e+01
7.770980987443233623e+00 -1.120384170994301165e+01 3.279015446515935395e+01
9.104370482289597888e+00 -1.085367845723380320e+01 3.155949742710633643e+01
1.085428526797785764e+01 -9.144584826400503630e+00 2.916094932601813738e+01
1.034240319534929142e+01 -9.671988113339260451e+00 2.971103295330198080e+01
9.616801952133569031e+00 -1.024173871310444639e+01 3.039047499932495811e+01
1.005789574215621762e+01 -9.887574451258762664e+00 2.995244064903926784e+01
1.122734977563125724e+01 -8.497268150659609276e+00 2.855797983385783922e+01
1.178459363979851560e+01 -7.483493051546809660e+00 2.793311890164712352e+01
1.218162034545074235e+01 -4.208012054840880367e+00 2.753460834862494266e+01
1.218054054324774071e+01 -4.901530042008039878e+00 2.750368983828807856e+01
7.540623004740571567e+00 -1.120685733233543857e+01 3.328284079447605137e+01
8.477175255082844529e+00 -1.124869780826860222e+01 3.266929587386999856e+01
9.517811327072262628e+00 -1.045770310535486303e+01 3.084651733348213654e+01
1.162800570478661655e+01 -8.162034316904785314e+00 2.848089511994674794e+01
1.161575148580132222e+01 -7.739963024339471254e+00 2.800584840421286259e+01
1.262242342595530609e+01 -5.474168209146280439e+00 2.807763079291685671e+01
1.189361635315574439e+01 -2.396164737818186286e+00 2.729132476850416111e+01
9.302904665758383373e+00 -1.098843430532441978e+01 3.211619947871005820e+01
8.936381090807744343e+00 -1.113411235111746223e+01 3.246701282754166584e+01
1.152234431808697224e+01 -8.780138813929553976e+00 2.915198260936917407e+01
1.071170664062500144e+01 -9.782707817416957496e+00 3.013368816868522870e+01
1.127389940394790457e+01 -9.211751457134788268e+00 2.955425056840387654e+01
1.214508241161448687e+01 -7.100921501950812953e+00 2.798028517553584749e+01
1.252391165881061141e+01 -4.662319254333857188e+00 2.795987258503708972e+01
1.237452731314161447e+01 -3.380487406285809460e+00 2.784161229654592873e+01
1.231236993486192155e+01 -3.847202404345960947e+00 2.772933038097479042e+01
1.212797026454619775e+01 -2.857795341514272280e+00 2.755420325098702605e+01
1.165911316040987167e+01 -1.934063956966597830e+00 2.702830608654119615e+01
8.951011117149331398e+00 -1.129656831296765063e+01 3.304108293023078602e+01
1.169235702743377381e+01 -8.552321607397111336e+00 2.898801465073607631e+01
1.038030316446242551e+01 -1.004833186971695014e+01 3.046186539738430454e+01
1.004890053241093995e+01 -1.031395591923393518e+01 3.079004459105346214e+01
1.252445467370641019e+01 -4.315878504268799709e+00 2.797533059323589555e+01
1.202798320312499847e+01 -7.827369599493661845e+00 2.840394919795160078e+01
1.263430689737231205e+01 -6.159491577157471198e+00 2.818852629753519778e+01
1.240862231572488206e+01 -6.794759074923032216e+00 2.810241681227750732e+01
9.638688101516674323e+00 -1.089877094299970750e+01 3.198464269710705210e+01
9.856751125094916688e+00 -1.054343362084603797e+01 3.122843552874768136e+01
1.229315654970914373e+01 -8.050056684570789045e+00 2.887292905578405922e+01
1.181729509488442353e+01 -9.062969141907379012e+00 2.974590427074980070e+01
1.215724170648409874e+01 -8.607364334017395535e+00 2.941793893068408394e+01
1.262248213587660217e+01 -6.510651283212354201e+00 2.822825420553751385e+01
1.251654749346684881e+01 -2.845255175418961002e+00 2.801613852120259551e+01
1.262061876257095072e+01 -3.902208824353484928e+00 2.812851448210640015e+01
1.269533784000267929e+01 -3.319277410635486980e+00 2.822354455098798454e+01
1.201573376663811565e+01 -1.922132445925442079e+00 2.745029043581564210e+01
1.239574519979057143e+01 -2.318696098222678526e+00 2.788736485595823922e+01
9.501250049896965422e+00 -1.112306351104796676e+01 3.267237398041224594e+01
9.664600905268143194e+00 -1.077291069997374606e+01 3.166682561271459662e+01
1.141170409057434831e+01 -9.564454828758748306e+00 3.023689109691222399e+01
1.092289431727874494e+01 -1.003203144449927464e+01 3.075210877217192973e+01
1.048101171699484802e+01 -1.038617765373965085e+01 3.118963227795750015e+01
1.169318733967649848e+01 -9.278867095928520214e+00 2.994724716416057220e+01
1.256905156250000033e+01 -7.253840985576922584e+00 2.847520316266244933e+01
1.304650229932640215e+01 -4.884661203631919690e+00 2.864539199057265506e+01
1.301438130492028655e+01 -5.640560577417424781e+00 2.859181111814405440e+01
1.119257611082970705e+01 -9.841883064705781337e+00 3.056427164071389058e+01
1.243878288278138200e+01 -7.863012497215127183e+00 2.883078266421915714e+01
1.255806059700644184e+01 -8.272517778005283873e+00 2.934143369249546396e+01
1.302026441676427027e+01 -5.983186782992141239e+00 2.864717520480618873e+01
1.286652685809991326e+01 -4.423546760769664132e+00 2.841523563502084571e+01
1.299682216694319692e+01 -6.685513094027427883e+00 2.872688177627789230e+01
1.290452083935056216e+01 -2.832741295468414133e+00 2.847735925506982468e+01
1.303570101549499505e+01 -3.424600835406431454e+00 2.862693789735761740e+01
1.227170394321542979e+01 -1.479014215258368736e+00 2.776655550861652699e+01
1.022529402355123018e+01 -1.069207612258850304e+01 3.177424226181447864e+01
1.017342832264846031e+01 -1.094390126469315128e+01 3.241012853323277199e+01
1.113408604171003446e+01 -1.028136086211291556e+01 3.137054238595812450e+01
1.262237132102159265e+01 -8.662436163508314024e+00 2.984808831906621052e+01
1.284958256243776908e+01 -7.898656217454415263e+00 2.925761701552034211e+01
1.293681137825292282e+01 -7.492689515956644009e+00 2.902104415279411853e+01
1.211242890625000079e+01 -9.345976565010236214e+00 3.034020149494470786e+01
1.296145214536724133e+01 -7.181028286451769382e+00 2.889182231356718944e+01
1.322634877371889139e+01 -5.345776262094227071e+00 2.887558187322974490e+01
1.292195704124020139e+01 -2.366257674602779026e+00 2.851110304960300468e+01
1.316688605691550329e+01 -4.016471919384718703e+00 2.877655377616824950e+01
1.266308269307022449e+01 -1.780494045455456975e+00 2.821998372727014726e+01
1.091311424066737068e+01 -1.045839830757539879e+01 3.158921432958225850e+01
1.167404118919738210e+01 -9.901132762548941812e+00 3.099538918587135328e+01
1.259976175939963738e+01 -9.032071040271258511e+00 3.030948080928344979e+01
1.282301249375676555e+01 -8.495020366568521553e+00 2.981002543785180237e+01
1.342513968479225817e+01 -4.921354522410003263e+00 2.910199743903730507e+01
1.324514761117775308e+01 -4.460237189728272433e+00 2.887180731652652810e+01
1.340619531249999952e+01 -5.806894411883047447e+00 2.910580468963759415e+01
1.261130909237187581e+01 -1.218932995696576427e+00 2.817605929519002927e+01
1.078542995230730028e+01 -1.061132360353242809e+01 3.188155641963224696e+01
1.335353364046836155e+01 -7.108277719573939279e+00 2.930810427206955637e+01
1.330435344053977431e+01 -7.731396909138011253e+00 2.956657083393439223e+01
1.337109110369688025e+01 -6.860342233867648964e+00 2.922541515149735147e+01
1.357598151528505248e+01 -6.420804529467931232e+00 2.941507264272780020e+01
1.329233676517760010e+01 -2.820237555844907096e+00 2.893839644147221435e+01
1.346728035941938906e+01 -3.609362023020494803e+00 2.913790704871062687e+01
1.314787240718889905e+01 -1.765286603510307861e+00 2.879626163770340597e+01
1.293020022325375606e+01 -1.242751125958407643e+00 2.855233232294203205e+01
1.102678685731489949e+01 -1.075983352331313014e+01 3.241228112294919583e+01
1.215481754696892658e+01 -9.960298837652134196e+00 3.142589075675981292e+01
1.134521757812500020e+01 -1.053062018056705540e+01 3.198880091812118565e+01
1.236349293532434146e+01 -9.529075694913624162e+00 3.082681714352772673e+01
1.308802024544934106e+01 -8.717571513944415429e+00 3.027871905552250453e+01
1.326073389957438131e+01 -7.934332415465731536e+00 2.968481867354450188e+01
1.257264634280204874e+01 -9.369305702292011873e+00 3.074403326154461880e+01
1.374464985965177100e+01 -5.507001179980140826e+00 2.950386358889824834e+01
1.349658708607476676e+01 -4.079850382245905571e+00 2.917419024457341337e+01
1.362380525935104636e+01 -4.496933254915245648e+00 2.932842702253358169e+01
1.346249781567246906e+01 -2.285163934233302108e+00 2.915546590470269805e+01
1.337965751242864521e+01 -8.344055588477626628e+00 3.019533358877075102e+01
1.370885347928603615e+01 -7.502641062437828801e+00 2.991825507797814510e+01
1.377207326911958774e+01 -5.879924388065473018e+00 2.956046860751542837e+01
1.373289229567114056e+01 -4.965443399453530304e+00 2.947355029232017287e+01
1.363266139943956645e+01 -1.750094045832113920e+00 2.937254539828435540e+01
1.376765164979475564e+01 -3.202292780312427034e+00 2.949922819031582932e+01
1.279635999813303826e+01 -7.657372451896582444e-01 2.840879204322240525e+01
1.261450170568791940e+01 -9.712134193596094534e+00 3.131332472539762790e+01
1.341987288160892255e+01 -8.903860445350899155e+00 3.079929394417090904e+01
1.367172196620054869e+01 -7.969992270224872222e+00 3.011184927707076753e+01
1.374597257568593456e+01 -7.035459739244508626e+00 2.972476559002933172e+01
1.388504435679586280e+01 -3.867957453521723821e+00 2.964210810281719333e+01
1.368015339727075208e+01 -2.807736794276876946e+00 2.939943822557238917e+01
1.385033833811724691e+01 -2.272659745108369211e+00 2.961652751835390873e+01
1.341498655440587129e+01 -1.227554612558311664e+00 2.912859553569516535e+01
1.319730531055246203e+01 -7.049483984375001233e-01 2.888467029808422026e+01
1.351780043032994705e+01 -8.706387017617277735e+00 3.066664442306295157e+01
1.303326287632171088e+01 -9.392655941813371712e+00 3.114821524591280522e+01
1.413801918651545186e+01 -5.952968719279718712e+00 3.001522138698578246e+01
1.408300060601356840e+01 -5.207104881622655057e+00 2.990192989281743507e+01
1.400244447731916786e+01 -4.533628054300650412e+00 2.978502824399720694e+01
1.406313055303016313e+01 -8.142942032577254352e+00 3.063860082792377071e+01
1.410493336793781616e+01 -7.157947477826303029e+00 3.015869585526874275e+01
1.413946620367250695e+01 -7.889453567263890577e+00 3.055799150151360166e+01
1.411856571648120529e+01 -6.819879471124870030e+00 3.013864055978375944e+01
1.406801638297047852e+01 -2.795239258976164098e+00 2.986053894339742243e+01
1.429859454583332301e+01 -3.399063161588897763e+00 3.013974822761163352e+01
1.385677353184267346e+01 -1.182274388372296148e+00 2.962690294705016925e+01
1.408533814991168320e+01 -1.731016971001078764e+00 2.988306460347693516e+01
1.394776077560331728e+01 -8.695199090478881843e+00 3.105473358240045201e+01
1.375196391235309434e+01 -9.090284465445977347e+00 3.132024802606077429e+01
1.452916838126363253e+01 -4.002869992353638828e+00 3.041898976688193201e+01
1.432478455356018365e+01 -2.305967373459450354e+00 3.015145630015877032e+01
1.446432950586659949e+01 -7.280583267817907434e+00 3.059315552235161917e+01
