-9.139491662518983706e-01 2.324295843844098641e+01 4.216568946917412575e+01
-9.489199311998193664e+00 2.500040123182939311e+01 3.792499916805635962e+01
-1.016266307640342426e+01 2.467703537912116118e+01 3.730533543948450870e+01
-1.066421120853211235e+01 2.312520557986015035e+01 3.464034844696639226e+01
-1.209817059908242065e+01 2.156871897493952162e+01 3.285786229838836903e+01
-1.152538469326967707e+01 2.170958043128133141e+01 3.285350997110757731e+01
-1.060560019140666377e+01 2.258639896941545544e+01 3.379110002362977383e+01
-2.474220333495980029e+00 2.394878319793473764e+01 4.219707945877814126e+01
-3.517199999999999882e+00 2.476320099999999869e+01 4.171120100000000264e+01
-2.121659097536946703e+00 2.405009771164239396e+01 4.172319875133183587e+01
3.195265712967520599e+00 2.122930706783178678e+01 4.257324589106224266e+01
3.548677794933742913e+00 2.077273119608613072e+01 4.259330602991902737e+01
1.972667199435514496e+00 2.180076211532594144e+01 4.263145172083630285e+01
1.308629769343141014e+00 2.232877501425522837e+01 4.228642718925591026e+01
6.232416440259260781e-01 2.253036406104304490e+01 4.238553581383607849e+01
-1.687732978239424586e-01 2.297141705277417856e+01 4.214682494336986451e+01
-6.168467767599361551e-02 2.273181679076066786e+01 4.248457849162193156e+01
-1.010941319677600525e+01 2.450559243667965248e+01 3.673638452127725884e+01
-1.058940013527568524e+01 2.419940058292845464e+01 3.634830288451095726e+01
-1.027428423350608533e+01 2.391720761476631552e+01 3.570330942132640928e+01
-1.017492660398403359e+01 2.328574550004840660e+01 3.463651458775336067e+01
-9.959600108750718661e+00 2.363540097476483481e+01 3.505920001674257946e+01
-1.096473386859814347e+01 2.179885196642123901e+01 3.278384372429050586e+01
-1.017349626627884440e+01 2.229769698517745979e+01 3.328497942279629740e+01
-8.634800889529092416e+00 2.528829963280114868e+01 3.813370044159427152e+01
-9.559837189825573844e+00 2.490576751566154812e+01 3.752437136842537058e+01
-9.630498749493645150e+00 2.481110062532654226e+01 3.712360145004299028e+01
-2.819264798910629644e+00 2.440656529782122774e+01 4.171720104587772937e+01
-2.734047414183932823e+00 2.457226319294302286e+01 4.123519826799648058e+01
-1.423800004877341818e+00 2.369350065937802441e+01 4.172919858132001991e+01
3.736120438227752416e+00 2.092511562636329359e+01 4.252535361766905453e+01
1.994764666231366501e+00 2.212696619559150335e+01 4.218721065906313328e+01
6.293056566040733379e-01 2.284911813248258738e+01 4.184057084413095140e+01
-7.385139394217308251e-01 2.341166250910173829e+01 4.176637237584175466e+01
-5.443194910548743159e-02 2.313031968961081830e+01 4.180348063412657211e+01
5.616585217682565911e-01 2.314590677931624185e+01 4.127881254059886373e+01
-9.951395182441302723e-02 2.332825973277511622e+01 4.142879425263040361e+01
-1.039010780413419432e+01 2.293632430100251085e+01 3.421411184764307478e+01
-9.058607393663638874e+00 2.509276013876474920e+01 3.776353352329183366e+01
-9.129187752397331934e+00 2.499814238020315571e+01 3.736290358188136196e+01
-9.060716920384841444e+00 2.492080100993960556e+01 3.699521660170579906e+01
-9.601830597815089519e+00 2.406354338850955088e+01 3.556921971429966334e+01
-1.114420117606056593e+01 2.140530093878957629e+01 3.228050076789786971e+01
-1.035307590704126035e+01 2.190393037305805990e+01 3.278136396539532882e+01
-1.171713357591634086e+01 2.126445841285584848e+01 3.228493292651030799e+01
-9.437355590092820989e+00 2.465121324520821844e+01 3.660112938755348466e+01
-9.916386204630557089e+00 2.434550068266142020e+01 3.621350710921112181e+01
-3.389699896868355822e+00 2.501199912447368234e+01 4.098799830131370214e+01
-2.079038692897057672e+00 2.413295921563018709e+01 4.148215478115030663e+01
3.296734346206119159e+00 2.132698234192934450e+01 4.246149517507257798e+01
-7.612381329936817043e-01 2.351076506588114512e+01 4.157890068484287838e+01
1.313009122927885963e+00 2.256793088966423966e+01 4.187765873750582557e+01
-1.560916857659814916e+00 2.395182079604004599e+01 4.132381956636800169e+01
-9.795134739330492835e+00 2.303808182550316275e+01 3.417348699474837304e+01
-1.001055808124198165e+01 2.268851849812012134e+01 3.375096008232609535e+01
-9.579708273829657728e+00 2.338764466025522637e+01 3.459601219373459458e+01
-9.578557507700281803e+00 2.239966285103055199e+01 3.324466774415343195e+01
-9.415835667665097830e+00 2.279058330325135984e+01 3.371084191283862452e+01
-9.200167165088590338e+00 2.314011515005133646e+01 3.413324944566693375e+01
-7.937800000000000189e+00 2.541169899999999870e+01 3.787009799999999871e+01
-8.628099999999999881e+00 2.518510099999999952e+01 3.760210000000000008e+01
-8.174443066098085353e+00 2.525941687930441759e+01 3.751041854130154718e+01
-8.559024348806200777e+00 2.510792820300779482e+01 3.723447958427612292e+01
-9.136582113270776517e+00 2.378288954629227092e+01 3.496437389562491660e+01
-1.053226314637048056e+01 2.151026824407289340e+01 3.227779843516916713e+01
-9.741417375042198401e+00 2.200901156839555739e+01 3.277888794344947598e+01
-9.244299686301406638e+00 2.449140080776784600e+01 3.607890074567102801e+01
-1.697862123636396436e+00 2.420981737048549576e+01 4.091894833486992411e+01
-1.025841409679037808e+00 2.390644653435940370e+01 4.100013665097602455e+01
2.680614821316384955e+00 2.192524187345744480e+01 4.208803431274016305e+01
3.009712448615355473e+00 2.162887988815378293e+01 4.230499974786006590e+01
3.940089001574333949e+00 2.111996078972277147e+01 4.230171178061767989e+01
-3.416525053274102053e-01 2.363116053832558450e+01 4.101632791546473555e+01
1.179573705162892061e+00 2.279693141978774662e+01 4.150912834756865522e+01
1.997711159888598598e+00 2.228633309373231342e+01 4.191480047787286622e+01
1.649002546915145029e+00 2.264259622277885953e+01 4.145423655838291666e+01
-8.779027343962559016e+00 2.421077619212007193e+01 3.547408930151159012e+01
-8.983618406842813542e+00 2.250162899659180127e+01 3.320435633287933541e+01
-8.820800000000000196e+00 2.289270000000000138e+01 3.367069999999999652e+01
-8.567277263892876249e+00 2.341175167101711452e+01 3.427043986070287218e+01
-8.314000000000000057e+00 2.393029999999999902e+01 3.486959800000000342e+01
-8.164566413781749077e+00 2.489864684853874621e+01 3.635714048459556125e+01
-8.867412314290730180e+00 2.476082781718939430e+01 3.647242481527140967e+01
-8.489900000000000446e+00 2.503070100000000053e+01 3.686659999999999826e+01
-7.898907246045394182e+00 2.513567635673611989e+01 3.678443065204198348e+01
-8.105501219098973920e+00 2.518224808048595520e+01 3.714292883859382499e+01
-7.721599911315961684e+00 2.533359902960554777e+01 3.741890005843200839e+01
-7.514912294779166224e+00 2.528710323275570460e+01 3.706062397956487331e+01
-7.256113494749236281e+00 2.539836318318132413e+01 3.739871366675278352e+01
-7.186599842265088967e+00 2.551219898050730706e+01 3.777139984369802761e+01
-8.541233206681837942e+00 2.462918117259914652e+01 3.596338944995883224e+01
-7.839500000000000135e+00 2.476670100000000119e+01 3.584809899999999772e+01
-1.128920964500668944e+01 2.097210325668113740e+01 3.171994827715883503e+01
-9.920657592463028251e+00 2.161517965883426129e+01 3.227509933241137219e+01
-2.611675731062640615e+00 2.473969858059216875e+01 4.075087368925911591e+01
3.365500637947985485e+00 2.172380070738465818e+01 4.198899793649597001e+01
2.296306464489551669e+00 2.243299219281536239e+01 4.137188150359035177e+01
4.258809461305057553e-02 2.366681649989281766e+01 4.064881025090066657e+01
1.222385243251327358e+00 2.296367676535793834e+01 4.112893194388474427e+01
2.681835604941578577e+00 2.200497231082758987e+01 4.195191199372848700e+01
6.686284539320325182e-01 2.339971775794674613e+01 4.069373153284558953e+01
-9.146288402377139803e+00 2.211091404452450604e+01 3.273843721910081683e+01
-8.200830821593752873e+00 2.297013111932053064e+01 3.362098244558797688e+01
-8.339713587809821860e+00 2.257478720277930151e+01 3.318471236786443512e+01
-7.948715046954411001e+00 2.330115124873037047e+01 3.398183884167886504e+01
-7.863131676509232726e+00 2.366179297776460899e+01 3.442019689884854472e+01
-7.719815044465812903e+00 2.265227210656489731e+01 3.313507446249723642e+01
-7.743112540670111343e+00 2.400883073973363580e+01 3.480827510738653530e+01
-8.076672524310238188e+00 2.434863706637385405e+01 3.535900826826113530e+01
-7.510157648597966862e+00 2.427835967718517551e+01 3.510029675045721831e+01
-8.502428016380619624e+00 2.218396747545966363e+01 3.271866845316861827e+01
-8.021521293254695095e+00 2.186617492992034784e+01 3.223286424974885023e+01
-8.665143948481727421e+00 2.179315070531386311e+01 3.225262854132098767e+01
-8.169471707021191520e+00 2.143555755141354879e+01 3.176150404738633171e+01
-9.308999712802414450e+00 2.172010032386786094e+01 3.227240035965925813e+01
-8.813095753468090265e+00 2.136261554718912947e+01 3.178136311615673648e+01
-7.573871368584445207e+00 2.500363284335206515e+01 3.627516785345144967e+01
-7.049243502997147637e+00 2.535186032691823854e+01 3.704027946406065297e+01
-7.308199702327091707e+00 2.524060120754097625e+01 3.670230175822170082e+01
-6.790099653308166339e+00 2.546320017854347029e+01 3.737850273903312370e+01
-1.067386343364552914e+01 2.106812075359572134e+01 3.176184236435572217e+01
-2.942882224315076289e+00 2.498258975836009910e+01 4.032417631902224997e+01
-3.497599904584261843e+00 2.524029879811480015e+01 4.022909967109363549e+01
-1.209582368973661115e+00 2.420105162348808037e+01 4.055896253363223991e+01
-5.837913019183238461e-01 2.393405989131963452e+01 4.060386464147272534e+01
-6.420500145072590925e+00 2.558499880794326486e+01 3.783119913986011795e+01
3.994219517624136628e+00 2.143778287087489076e+01 4.192384250186617578e+01
3.092722938327573612e+00 2.201520266771911949e+01 4.160233926384049141e+01
-7.858788144596388747e+00 2.225698113185743665e+01 3.269888776404880559e+01
-7.412332760441471713e+00 2.339332798187137286e+01 3.397086581863863586e+01
-6.961599427427877629e+00 2.312490103986467460e+01 3.352159896712390008e+01
-7.580840520287512874e+00 2.304756088226305977e+01 3.357125823343147886e+01
-7.100289361493194562e+00 2.272989176896159336e+01 3.308568108117582796e+01
-7.372543573892384572e+00 2.375523434640741272e+01 3.439898785976466655e+01
-6.781800000000000495e+00 2.364535049999999927e+01 3.410364899999999722e+01
-7.172414570589586091e+00 2.408733354212246880e+01 3.474697020922283741e+01
-7.427129555722718379e+00 2.456646215721674054e+01 3.546075213277325133e+01
-7.525846924019287343e+00 2.150850025125565068e+01 3.174164565985124042e+01
-9.450502332626834701e+00 2.127843807422426536e+01 3.175702300833399150e+01
-7.079924378834702381e+00 2.487084715739409546e+01 3.577615230915320410e+01
-1.006218228060855679e+01 2.117327816573652655e+01 3.175943101284734738e+01
-1.834800026161875763e+00 2.446779924573720777e+01 4.051410063102620995e+01
-2.953530343432174909e+00 2.516069671076986225e+01 3.985008520545752475e+01
-3.117849934219281582e+00 2.525310003347682297e+01 3.949049920660362289e+01
-6.300598346230131597e+00 2.550872690215256355e+01 3.743027523310760785e+01
-6.415717228360065860e+00 2.543158456551624269e+01 3.701832566386487855e+01
3.964392825585652425e+00 2.153824891689993137e+01 4.175555167318093908e+01
1.884034993836827709e+00 2.278119213945255339e+01 4.097884204485254145e+01
-1.611035652391277218e-01 2.389657489093600873e+01 4.028286704320059641e+01
1.293822867362979467e+00 2.313297993695263344e+01 4.073859211427308225e+01
2.819837984347917104e+00 2.230671959439024832e+01 4.121552759142271327e+01
2.546800000000000175e+00 2.259840000000000160e+01 4.082849900000000076e+01
3.979514893919953167e-01 2.367599415535269003e+01 4.027886386256301421e+01
-7.239019131598970702e+00 2.233475721018081117e+01 3.264962407644699027e+01
-7.377900000000000347e+00 2.193919899999999856e+01 3.221309999999999718e+01
-6.711948848372211174e+00 2.197910703947832189e+01 3.218022720858069619e+01
-6.573379308917348673e+00 2.237443222056061387e+01 3.261652119951676809e+01
-6.857303051650338155e+00 2.154523539006868660e+01 3.172743698877681950e+01
-6.434810076727305095e+00 2.276975423917993169e+01 3.305281160572544508e+01
-6.325500004286143785e+00 2.316918872906034110e+01 3.348507523662497931e+01
-5.907700435676987993e+00 2.241439193374125338e+01 3.258373969639610834e+01
-5.798440265195718979e+00 2.281383422112594417e+01 3.301601880836598468e+01
-6.116880028543730141e+00 2.349624741708101539e+01 3.383758859865815793e+01
-6.085330130509625235e+00 2.386297482689960603e+01 3.426091045573851801e+01
-6.601999588132082764e+00 2.416580002771198465e+01 3.468569898323226397e+01
-5.689355861966084227e+00 2.321347935534188167e+01 3.344854874095676678e+01
-6.191430878749734745e+00 2.158524765870465245e+01 3.169468595800584154e+01
-7.014329104258765213e+00 2.436601765542476628e+01 3.507300555582452972e+01
-5.670100113045047685e+00 2.562280099430526548e+01 3.804069896843972742e+01
-5.271961146763548101e+00 2.559480429977530491e+01 3.789122195690896433e+01
-5.810599999999999987e+00 2.555430000000000135e+01 3.748210100000000011e+01
-4.962699999999999889e+00 2.561490099999999970e+01 3.839410000000000167e+01
-5.342276517001501190e+00 2.556054798848196086e+01 3.761186631968177352e+01
-4.873700000000000365e+00 2.556679899999999961e+01 3.774169899999999700e+01
-4.465697127088755103e+00 2.556389970558148050e+01 3.827724964787132222e+01
-4.332399999999999807e+00 2.555100099999999941e+01 3.888750100000000032e+01
-5.926219380522130820e+00 2.547710387778784380e+01 3.707005495259026873e+01
-5.286001154164258864e+00 2.549913960658181011e+01 3.713803667079490367e+01
-6.814044356166342631e+00 2.510774521180497842e+01 3.620304323290780957e+01
-2.388512209643221418e+00 2.472504207856457725e+01 4.041919403262670585e+01
-3.826200000000000045e+00 2.542510000000000048e+01 3.950989899999999722e+01
-2.409499999999999975e+00 2.508109999999999928e+01 3.947109999999999985e+01
-1.176865868853796293e+00 2.431142197413621631e+01 4.025554250803683942e+01
-2.122151541533937369e+00 2.477445158707979544e+01 3.999259686049818185e+01
-1.472496469482413861e+00 2.457240102600598775e+01 3.986409808883746564e+01
-5.178363483889529828e-01 2.415478368828870259e+01 3.999655530107521173e+01
-6.674437500369843512e+00 2.532036540823100879e+01 3.668038506699328849e+01
-3.719384956085652227e+00 2.546461299402138323e+01 3.881166088279771742e+01
3.645396336948556471e+00 2.178593892111392449e+01 4.152519031144145600e+01
3.450874622635769384e+00 2.202255475243526206e+01 4.118080131916355668e+01
1.014874162592919626e+00 2.342922447197548763e+01 4.028270161945499694e+01
3.178456557937712645e+00 2.231390775688824135e+01 4.079385356826486486e+01
-6.045939823659073120e+00 2.201901792216688847e+01 3.214735084490234129e+01
-5.569018096823740827e+00 2.356035938480122027e+01 3.383641611200904009e+01
-5.271244597274824528e+00 2.245837045670453946e+01 3.254682170021769849e+01
-5.380399722333160106e+00 2.205890100528096198e+01 3.211449799494347701e+01
-5.585345755931339973e+00 2.392325607507086715e+01 3.427241722021535253e+01
-4.946857928627424350e+00 2.377077187795045532e+01 3.401267348545367497e+01
-5.052800000000000402e+00 2.325779899999999856e+01 3.341199900000000156e+01
-6.461205456799891778e+00 2.457024069704482727e+01 3.519474949285906007e+01
-4.817643439551900997e+00 2.550539231341243251e+01 3.726784504361340566e+01
-4.421071329148870355e+00 2.553984133662002520e+01 3.795110902996026425e+01
-4.187284677694060875e+00 2.548518628852565371e+01 3.742989611505677061e+01
-3.968700000000000117e+00 2.551289900000000088e+01 3.816040000000000276e+01
-3.734900719511559775e+00 2.545825016818044162e+01 3.763930060367063390e+01
-6.041699431340085802e+00 2.540000026533012445e+01 3.665850240224006740e+01
-5.401649801713666932e+00 2.542200014720828705e+01 3.672630228756101189e+01
-6.320299999999999585e+00 2.497500000000000142e+01 3.570420099999999763e+01
-2.757794187867725899e+00 2.522962669945412628e+01 3.910350990419009065e+01
-1.768127741932843167e+00 2.483337820973135734e+01 3.947265933110937652e+01
-3.466257344165019294e+00 2.540165423525554900e+01 3.912291215270293065e+01
-1.908243026396749364e+00 2.499174128055021882e+01 3.909937033922527405e+01
1.919847559459714859e+00 2.286588823104729329e+01 4.078351140718047674e+01
4.271328943752367380e+00 2.163719786605056683e+01 4.117352577754365939e+01
3.135365432273302666e+00 2.242183263186658237e+01 4.056367739378118387e+01
7.669501215381450132e-01 2.365688359039093314e+01 3.996515935631452265e+01
-6.014906729385575801e+00 2.420530179001124793e+01 3.466179758358146756e+01
-5.162069867708146020e+00 2.285791131857259018e+01 3.297922270329080163e+01
-4.386855670821134368e+00 2.327143399624749520e+01 3.341856807163345877e+01
-4.840799808323499320e+00 2.428430000212939177e+01 3.461399801162269085e+01
-4.245216186190903684e+00 2.395559163014321769e+01 3.421968936480499934e+01
-5.427918242631862178e+00 2.424479652977976940e+01 3.463790043306549649e+01
-4.221191175729773093e+00 2.358980567649139815e+01 3.378995502984473376e+01
-4.761599999999999611e+00 2.544399999999999906e+01 3.679410200000000231e+01
-4.131350701670271519e+00 2.542380052248851641e+01 3.695614981958863154e+01
-6.180999820595187266e+00 2.518750072229524406e+01 3.618135272351650400e+01
-5.532949999999999591e+00 2.501045000000000229e+01 3.572105050000000404e+01
-5.827274751142272891e+00 2.474483268713347073e+01 3.534090420690743883e+01
-3.537392898364838612e+00 2.544554108234660461e+01 3.844813909437110055e+01
1.415585438835124110e-01 2.399805823501696622e+01 3.973742534795923120e+01
-2.372747515636325133e+00 2.518983636980011198e+01 3.860904756508526958e+01
1.672745506502983481e+00 2.322030578620962871e+01 4.015342234492323570e+01
7.994101238960934497e-01 2.384170008812942854e+01 3.947890023874288090e+01
1.235699978476065830e+00 2.353127168677897174e+01 3.981586989782552166e+01
2.109754523154951045e+00 2.290936587319597706e+01 4.049094656557191030e+01
2.614236582896972028e+00 2.272012661284385260e+01 4.037651745855070118e+01
-4.569734272718576129e+00 2.247164373397513160e+01 3.253397149480211681e+01
-4.460282592498225895e+00 2.287105194632002281e+01 3.296621670718348440e+01
-4.679187620358097988e+00 2.207223740529375533e+01 3.210172840610151468e+01
-5.334158028542956842e+00 2.451462267003353901e+01 3.497754000932181384e+01
-4.230973167904719112e+00 2.429107474125296307e+01 3.465097607292170068e+01
-4.793184306381866655e+00 2.466522554894506669e+01 3.517613427404209148e+01
-3.721178291797029747e+00 2.328506131829372805e+01 3.342513191746757428e+01
-3.650449495304766145e+00 2.362733423819709699e+01 3.382592170909443752e+01
-3.501100061479699654e+00 2.540360047912522745e+01 3.711819623876385776e+01
-3.387633718291323870e+00 2.542399972505426931e+01 3.798240027364592919e+01
-5.393650114810012219e+00 2.522295003136657954e+01 3.619820058154788711e+01
-4.753600170427972671e+00 2.524495001001640659e+01 3.626600102407247306e+01
-1.126582963976064056e+00 2.458558988147125746e+01 3.947421882720239239e+01
-1.341338045049203842e+00 2.476319093112858383e+01 3.913505996844067170e+01
-3.106200065780718056e+00 2.537820096652317403e+01 3.873580229339638237e+01
3.809025441386263644e+00 2.202990594771778987e+01 4.075926647028930461e+01
1.584321843922059658e-01 2.408926939417568391e+01 3.947734275500729240e+01
-4.838152856532589308e-01 2.433732940034230197e+01 3.947578062068856752e+01
3.079382566546199573e+00 2.263139024385597153e+01 4.001632581754142137e+01
2.404171734554382045e+00 2.294097051599132087e+01 4.000226547559336865e+01
-7.511223158288082846e-01 2.456834171844571202e+01 3.901802615323270373e+01
-3.794711745246652779e+00 2.288480549815616882e+01 3.297292490582297830e+01
-3.868619517440553324e+00 2.248486429030827338e+01 3.252107909653454954e+01
-3.978243332321955705e+00 2.208556871173527369e+01 3.208896369434862805e+01
-4.745599884796389389e+00 2.504590064835490182e+01 3.573790174610345360e+01
-3.636153792135015550e+00 2.396258892501020199e+01 3.425691765513249010e+01
-4.112789126814311302e+00 2.452735882496133613e+01 3.500359077241892436e+01
-2.665492333900590260e+00 2.531214739272723691e+01 3.818065045442713767e+01
-4.233599015807000043e+00 2.530346184442947788e+01 3.651719018958554841e+01
-3.339075329704863204e+00 2.521298903611919329e+01 3.654086763426610673e+01
-2.863300954528747333e+00 2.532490111778208330e+01 3.737229861971353273e+01
-2.806566719276622823e+00 2.533510034138230793e+01 3.780440001611617618e+01
-2.850067002199981658e+00 2.522210044917682126e+01 3.687143069053676214e+01
-3.961553441408930620e+00 2.503405479402019296e+01 3.585040751526909020e+01
-1.406753492784387660e+00 2.490234110279520863e+01 3.872746821311270793e+01
-1.638661620114755468e+00 2.500130933164756541e+01 3.848218098007908594e+01
-1.565519325799163308e+00 2.502963256534841108e+01 3.799076488509449945e+01
4.439909737706077664e+00 2.174576180169093931e+01 4.072466273441387585e+01
5.070493818820127174e+00 2.146175286967046958e+01 4.069007546521505958e+01
1.468997544193758165e+00 2.353814233711720405e+01 3.948261386235422776e+01
2.313561881077009774e-01 2.416537885837872324e+01 3.910446406977921896e+01
1.296244815359855362e+00 2.368265991489573707e+01 3.914757520614217867e+01
9.179878539021338879e-01 2.391607620977146809e+01 3.880326860648840892e+01
3.723347330719835480e+00 2.224544000200101124e+01 4.029911929460918429e+01
3.748979644321149607e+00 2.237896433526863049e+01 3.986815537306564039e+01
2.139280355453415439e+00 2.323426995081387858e+01 3.948632817751652624e+01
2.809630568815768115e+00 2.293036605563370500e+01 3.949004767131783922e+01
-3.277299999999999880e+00 2.209890000000000043e+01 3.207619900000000257e+01
-3.413132597516724154e+00 2.165238790035685312e+01 3.161252941419811791e+01
-4.114448965325398611e+00 2.163913478282023206e+01 3.162539043405972450e+01
-3.203261617196649702e+00 2.249849948149822865e+01 3.252765616949151450e+01
-3.041161043209280823e+00 2.363413630447673697e+01 3.386290988790760537e+01
-3.054999729091425476e+00 2.329869998775486906e+01 3.343170201648585760e+01
-4.168232891243102145e+00 2.479879867878716126e+01 3.540019807717430922e+01
-3.621857147617170369e+00 2.429784158589360032e+01 3.468791104434396289e+01
-3.590867116948246895e+00 2.455170050110024960e+01 3.506250080743541986e+01
-3.129139115179378372e+00 2.289855555379119068e+01 3.297962915680164997e+01
-3.027330681478608287e+00 2.396936427712452655e+01 3.429384996244275641e+01
-2.225500042777762921e+00 2.524620062837148282e+01 3.762639809729584073e+01
-2.633690353139785056e+00 2.496780900398864489e+01 3.610136222294984520e+01
-3.013500000000000068e+00 2.430460000000000065e+01 3.472480000000000189e+01
-2.405638629291053654e+00 2.286746852261150309e+01 3.298513648907541551e+01
-2.376090724041960200e+00 2.326801314079518335e+01 3.347301630829490193e+01
-1.726432969996864797e+00 2.283679175347616663e+01 3.302649712146004646e+01
-9.050400000000000666e-01 2.481290100000000010e+01 3.835540000000000305e+01
4.287786360232212601e+00 2.194062372178541054e+01 4.040108529320747976e+01
4.985547775499820311e+00 2.167701003042100183e+01 4.022974943729284547e+01
1.793286939194668861e+00 2.352355333144186389e+01 3.881611189427899689e+01
3.479987074904742350e+00 2.262645978370376909e+01 3.949376479756511316e+01
4.312397972100191268e+00 2.206872661033469996e+01 4.003408074556280383e+01
4.149784452770949983e+00 2.232280673620869749e+01 3.949747958520883628e+01
2.549996502006042221e+00 2.314740108775792038e+01 3.898733685940344884e+01
3.404037115770741639e+00 2.276683252382276024e+01 3.895871021225162423e+01
-3.368472021494292035e-01 2.448914294698273864e+01 3.872992854385750405e+01
3.170171963264177828e-01 2.420978103640293710e+01 3.866591906443213134e+01
-2.822104719392932282e+00 2.173546416650703605e+01 3.170791320993615869e+01
-2.741291098044021268e+00 2.118219581992304157e+01 3.113739896660125694e+01
-2.366604976154297990e+00 2.137178436215378241e+01 3.133938014511327452e+01
-2.022904152071774320e+00 2.164352761599726804e+01 3.165172304731130737e+01
-2.554240039431867615e+00 2.206761726255192357e+01 3.208146270594221505e+01
-3.549055315307758640e+00 2.120557955523479521e+01 3.114855219951314069e+01
-2.362236396034789188e+00 2.360337482653143226e+01 3.390413046349123505e+01
-1.601738908797852856e+00 2.502362886964116484e+01 3.748174840270155528e+01
-3.705466966160918751e+00 2.516288892684547562e+01 3.624021005446264354e+01
-1.886750741945633081e+00 2.505265092392309612e+01 3.700215086726178981e+01
-2.199032991514101809e+00 2.504060031712259615e+01 3.662466559942917854e+01
-3.176899946398109797e+00 2.502220048802566765e+01 3.596300276383984595e+01
-2.506744479507924339e+00 2.473094037136081624e+01 3.563712618656023068e+01
-1.696707051070653227e+00 2.323730483873361408e+01 3.351435948551994670e+01
-3.095169326599733761e+00 2.466326369318253242e+01 3.534366524401058740e+01
-2.479939220611221629e+00 2.246754244298571734e+01 3.253329910054507224e+01
4.900601258268052263e+00 2.189226698612884903e+01 3.976942453475739825e+01
4.819434893020990707e+00 2.201922078720485487e+01 3.950119211965479593e+01
2.290362277315970196e+00 2.336443560966734267e+01 3.848462898263356635e+01
2.898210943663618533e+00 2.305832093402097271e+01 3.864215255037620977e+01
3.328088774065736999e+00 2.290720459581362434e+01 3.842365530720775268e+01
2.787500000000000089e+00 2.320529900000000012e+01 3.815309899999999743e+01
2.049440793698229957e+00 2.352662373167171950e+01 3.819353609567101415e+01
-1.669482291533725404e-01 2.449156181152903500e+01 3.831496260369988249e+01
5.717746579889020353e-01 2.416994785722774353e+01 3.827449063080540270e+01
1.311066375742167889e+00 2.384808592005609285e+01 3.823398926764461692e+01
-1.333409619342835750e-01 2.121938724285814715e+01 3.134712184908318733e+01
4.540100499394568168e-01 2.111904809014519913e+01 3.132631076987362206e+01
3.537512054424050145e-01 2.082632823752511797e+01 3.097444317009773940e+01
9.123426925096689288e-01 2.077959068574170587e+01 3.101050070921006352e+01
-4.931667809361885979e-01 2.096236508657563036e+01 3.103688573167632114e+01
-1.223515818935997590e+00 2.155170595614316298e+01 3.159566723507368380e+01
7.504678300557432458e-02 2.050390127134103579e+01 3.060220033761254399e+01
-1.911558256182172899e+00 2.100846706645413775e+01 3.097121445800276263e+01
-1.340166770774442906e+00 2.109827345696043821e+01 3.109918281419254171e+01
-1.456699952192758385e+00 2.064529999558681439e+01 3.060320099996876664e+01
-1.756185389853499812e+00 2.243617805685896727e+01 3.253851006172826033e+01
-1.077075429856562350e+00 2.240541028466999762e+01 3.257974964851364064e+01
-1.047229546478513740e+00 2.280611717454604914e+01 3.306786026423402802e+01
-1.830795387770886018e+00 2.203631788168405592e+01 3.208672921234483510e+01
-6.203145758446999558e-01 2.161235041077270225e+01 3.171970969055963963e+01
-1.106899999999999995e+00 2.200499900000000153e+01 3.209199900000000127e+01
-6.907726393086550676e-01 2.057459565366256626e+01 3.060270063354917980e+01
-3.620542153472077196e-01 2.194242977951261864e+01 3.213979541831832165e+01
2.334927347590052271e-01 2.149587627577645677e+01 3.172316407073011391e+01
-2.348383276858356350e+00 2.393873614584361675e+01 3.433524400590532366e+01
-5.130890115579025412e-01 2.466042561140381650e+01 3.791956539398011472e+01
-2.090830357378193227e+00 2.491345301816464186e+01 3.623963438607925980e+01
-1.963925366593455957e+00 2.467666042346481703e+01 3.577554699325990129e+01
-9.776977717135666435e-01 2.480095720402534809e+01 3.733703563651493340e+01
-1.548000022515922058e+00 2.485910012414639070e+01 3.637789987704965711e+01
-9.419546714249233954e-01 2.469127075597177168e+01 3.660092845129980077e+01
-2.398100459876496338e+00 2.425266754296062288e+01 3.481180210251237384e+01
-1.682566421143476099e+00 2.357249075645085412e+01 3.394528279882680266e+01
5.525324151327811961e+00 2.140441410475094841e+01 4.027760418701766554e+01
1.529261844673239334e+00 2.378035400075592420e+01 3.760019807963131910e+01
9.130453069580934944e-01 2.403983265924193802e+01 3.783468784749449298e+01
3.868236176611406840e+00 2.260935425289667933e+01 3.869398708620433069e+01
5.488500000000000156e+00 2.171590000000000131e+01 3.950490200000000129e+01
2.527966499274558188e-01 2.433297732806097358e+01 3.774094718774776425e+01
-1.210242938043024630e-01 2.450790602664698525e+01 3.748360559407611703e+01
-3.535812009518670695e-01 2.457825838819757180e+01 3.719230244928820639e+01
-3.357411118745112777e-01 2.452339492454144576e+01 3.682401981292272097e+01
2.712600000000000566e-01 2.435530100000000076e+01 3.704740100000000069e+01
9.003225387830746662e-01 2.406779933969509599e+01 3.732382661560398418e+01
9.837050971457244053e-01 2.112573913839013784e+01 3.141901661679920110e+01
8.409299999999999553e-01 2.043320100000000039e+01 3.060170000000000101e+01
6.721899335728886982e-01 2.004946696553096430e+01 3.019502396855543580e+01
1.184672486814070780e+00 2.004376288953688956e+01 3.027128253867965668e+01
1.528798705369325939e+00 1.965389003571226567e+01 2.994049622080938278e+01
-1.017400000000000082e+00 2.320660000000000167e+01 3.355569799999999958e+01
-5.113350148392976635e-01 2.245872017777336893e+01 3.273763826423716239e+01
-4.816663159505832903e-01 2.285942429727566605e+01 3.322571630010823185e+01
5.440525199167756121e-02 2.251202899842942529e+01 3.289552556228492364e+01
3.414451081683316236e-01 2.264841131720532985e+01 3.318640257132295801e+01
-3.176645736795593589e-01 2.311970026752775809e+01 3.365643837301699648e+01
-1.067369833431977888e+00 2.352068657144502950e+01 3.403242954549970278e+01
-1.732633355010992027e+00 2.388661010203260560e+01 3.442203899326531769e+01
-1.117384400776482822e+00 2.383505431895665438e+01 3.450958786983355964e+01
-4.616755401307397477e-01 2.348404424207858554e+01 3.418026837725841460e+01
3.816154387243404500e-01 2.303285414760491534e+01 3.375710875205032124e+01
-2.359090254527037800e+00 2.446687952245675746e+01 3.520710668217711969e+01
-1.837020022134465691e+00 2.443986967756380579e+01 3.531146386457168518e+01
-9.639888222069474821e-01 2.459037285333417699e+01 3.615139911994581468e+01
-1.421100232953566689e+00 2.462233376797194495e+01 3.591386751850265568e+01
-1.294200231336823492e+00 2.438556709828879931e+01 3.544983517925741268e+01
-1.167300054018935773e+00 2.414880038797219797e+01 3.498580286538741291e+01
-1.782699564205678433e+00 2.420073285029207000e+01 3.489880069819461994e+01
2.158727927734804375e+00 2.349266790783435610e+01 3.787680102255767167e+01
4.408316728115114103e+00 2.231154009069310717e+01 3.896428926861021580e+01
3.928898386141765453e+00 2.266461757986696313e+01 3.819604670843231276e+01
4.637348193449655653e+00 2.232903901143954783e+01 3.822261603082095149e+01
4.948346599005517987e+00 2.201375410414209099e+01 3.923456472198277112e+01
2.863533960203726192e+00 2.317709048641364333e+01 3.751205819692481214e+01
2.150131223329858177e+00 2.350361060801498425e+01 3.714987388022436932e+01
2.939669544258011413e+00 2.314884429904025609e+01 3.687015510618763159e+01
3.480055748114676550e+00 2.291921236081975266e+01 3.792917697231081320e+01
4.173559571830734782e+00 2.263273408854781366e+01 3.770494728972833798e+01
9.578535030040641329e-01 2.404641948078270985e+01 3.684248841060755808e+01
-6.550727475458417715e-02 2.428801367207168127e+01 3.626114275052712799e+01
-3.800004288728641155e-01 2.432165567933732220e+01 3.592490688726550729e+01
4.439924226763056758e-01 2.416468703315818445e+01 3.652193798505675204e+01
6.166671117353805798e-01 2.397413691269712643e+01 3.599665116085732564e+01
-9.149468934383344632e-01 2.438941183519327183e+01 3.571751635581016160e+01
-5.154467623379309638e-01 2.402713325544728207e+01 3.514757979158832768e+01
-6.057983801073679730e-01 2.384840649828382553e+01 3.470408917242266256e+01
1.582533317167142517e+00 2.103777661554237000e+01 3.145655653246012307e+01
1.054995987945737124e+00 2.147153693737428881e+01 3.182711882389942915e+01
1.910930606072864801e+00 2.063290190016141068e+01 3.107309536828460139e+01
1.640497554790586010e+00 2.031599103191355837e+01 3.065209528015666507e+01
1.874911029372576587e+00 1.998216674011091598e+01 3.035589601743050636e+01
2.439099997499946770e+00 2.019892189800827609e+01 3.070242906309466591e+01
2.298279062745011814e+00 1.966832325236693535e+01 3.012111923089079824e+01
1.872867464701345241e+00 1.926408227948885710e+01 2.960976513478096450e+01
8.187201553208067750e-03 2.218625151801721174e+01 3.249505587437342058e+01
-4.345065281286553116e-02 2.354756034397276565e+01 3.442195184151324128e+01
1.096094369605142171e+00 2.256993960834450164e+01 3.331716766284585418e+01
1.111190643861685867e+00 2.219383276442263053e+01 3.277646710713304401e+01
5.907888186630156913e-01 2.216443182959991631e+01 3.256514311071388335e+01
3.820751094992049790e-01 2.187991912445246712e+01 3.218754390919628605e+01
1.496637782579801179e+00 2.379983963384831469e+01 3.711411696320448073e+01
5.003048819901813715e+00 2.207029956025007422e+01 3.874557762740925426e+01
5.506199122549046088e+00 2.180199256142546105e+01 3.894295008274456649e+01
4.866381175513547319e+00 2.234653737306245347e+01 3.748094190114188962e+01
3.649717253793642868e+00 2.285253427214241739e+01 3.721801585644237775e+01
4.322317591360237188e+00 2.257351494845398676e+01 3.722708398416470033e+01
3.651677800842106247e+00 2.285552408242379130e+01 3.648544988267332201e+01
1.643716199477703643e+00 2.373786642426329152e+01 3.663779263137425346e+01
2.039946572933448721e-01 2.405293644846085499e+01 3.569841443733785979e+01
1.151834299240916293e+00 2.383216319565723040e+01 3.625157101619022626e+01
7.893298290036410148e-01 2.378360003191603411e+01 3.547140095756189737e+01
1.346034051599876102e+00 2.361782422659603853e+01 3.566065467354771812e+01
1.363926587454979966e-01 2.390546806546025138e+01 3.530935194912838426e+01
2.147527632895993577e-01 2.360905315140146143e+01 3.472216443361126892e+01
8.865404557735168112e-01 2.350443598536667977e+01 3.493360381644411206e+01
1.678526082115439522e+00 2.257473256201676293e+01 3.353619335787509215e+01
1.080999819525933603e+00 2.294599951827496298e+01 3.385780099843361768e+01
1.833214095564279944e+00 2.279398407207955302e+01 3.403529541433771755e+01
2.431358832426163463e+00 2.242254338142260650e+01 3.371374384562999893e+01
1.639601204716336635e+00 2.229097528727863775e+01 3.310993721218601138e+01
2.276290208970624285e+00 2.220331821748141010e+01 3.321445859285861957e+01
9.837933178358457820e-01 2.322515245395403483e+01 3.439557690877479956e+01
1.523822609902832026e+00 2.318100644193535587e+01 3.466342328801717798e+01
1.426749517900062658e+00 2.346014946978624138e+01 3.520126752405832349e+01
2.063851974503926545e+00 2.313685940308129219e+01 3.493126749739082726e+01
2.041513739443465258e+00 2.294037798877941015e+01 3.449171025191095907e+01
1.983295452270723125e+00 2.329445389297898217e+01 3.539058806801936896e+01
5.188108478350355046e-01 2.324676158462120057e+01 3.413986049541765055e+01
1.653830458731104791e+00 2.138360743434822808e+01 3.186469760409242014e+01
2.181363253189707585e+00 2.094981252937082417e+01 3.149409509299823995e+01
2.709404726972575617e+00 2.051560017054422147e+01 3.112313617338165272e+01
2.898788106493683792e+00 1.928344005411832285e+01 2.985070221885487740e+01
2.729801141675701981e+00 1.888408627859281452e+01 2.939962003079219244e+01
2.548051527128350369e+00 2.120436300053469836e+01 3.193819936668274906e+01
2.799265161363337473e+00 2.080580705273349196e+01 3.151945923215253487e+01
3.963985826166538828e+00 1.845853533493279741e+01 2.931153611664521819e+01
4.310431265874403728e+00 1.876688716385060829e+01 2.971977965186364301e+01
4.668257503410934817e+00 1.832861951191135930e+01 2.937555404392120906e+01
5.317789846372122042e+00 1.855551588171931954e+01 2.983805255652825394e+01
5.171805414093815223e+00 1.822313092632748166e+01 2.943485534024880579e+01
5.901709436694431155e+00 1.811498003740184970e+01 2.962652903568599072e+01
5.860713955188021629e+00 1.760281090113558378e+01 2.908164283427341346e+01
1.126300000000000079e+00 2.181739999999999924e+01 3.223529800000000023e+01
5.541602327533905914e+00 2.197421207210458505e+01 3.781882734747814112e+01
4.287126524052108145e+00 2.259062702505886122e+01 3.674242973157315362e+01
4.923405652856992276e+00 2.232538381516861747e+01 3.699974242592713125e+01
2.329530103032664723e+00 2.342933593682564819e+01 3.643311400975596825e+01
1.902741585412431657e+00 2.345204812058861776e+01 3.584991248725332724e+01
2.701640943911284065e+00 2.281322182460397130e+01 3.466097836960753398e+01
2.593752387473275078e+00 2.302357610882184957e+01 3.527355462258331187e+01
2.458987966328810337e+00 2.328640792839068041e+01 3.603900761753375548e+01
2.586429450356694915e+00 2.264176679970652017e+01 3.421302708976467244e+01
2.840944633703954114e+00 2.208918490867115025e+01 3.334765548682176473e+01
2.092177332490193997e+00 2.195088118001536870e+01 3.278082353061769538e+01
3.372517561506768402e+00 2.223218800066848644e+01 3.393553413512847783e+01
3.405599627464784174e+00 2.197504984352313073e+01 3.348084948411781170e+01
3.438706178556108384e+00 2.171772747628599731e+01 3.302583958209284276e+01
3.339400345214942778e+00 2.248959911672280398e+01 3.439070186433435339e+01
3.231466951124923437e+00 2.270006210807546765e+01 3.500361029176048788e+01
3.958400836930128452e+00 2.231884126104276334e+01 3.458141793920992058e+01
3.594380700248453575e+00 1.964391121529493489e+01 3.040861500525537053e+01
3.236700141331638747e+00 2.008200097030964315e+01 3.075270101655623733e+01
4.076576785753019294e+00 1.990556335921978359e+01 3.085108824888403944e+01
3.295485123236846281e+00 2.042668535721817591e+01 3.120735379460361969e+01
3.067758773703129549e+00 1.968275531477075901e+01 3.030174090320159763e+01
3.952470717511845422e+00 1.920532009629135217e+01 3.006413525079110016e+01
4.708090709970003118e+00 1.904653631468648811e+01 3.015260283431823396e+01
4.434197091037493266e+00 1.946727855676397212e+01 3.050677425941425369e+01
3.520116872795234997e+00 1.882548644166806184e+01 2.955969974411686252e+01
3.354296973064764931e+00 2.077152642479702038e+01 3.166221329659598638e+01
2.216937346642389617e+00 1.887427325142168399e+01 2.927903296966096391e+01
1.529748980360343680e+00 1.895523681550027106e+01 2.924932365963415748e+01
3.382521296461419524e+00 1.828668625121201785e+01 2.897620259559952771e+01
4.204035359085150247e+00 1.808872191242793548e+01 2.900389670676726794e+01
5.025800000000000267e+00 1.789069900000000146e+01 2.903160099999999844e+01
2.560800140277770698e+00 1.848469933150756361e+01 2.894850037444783908e+01
1.762236293670522258e+00 1.862301096385255406e+01 2.895773798712436076e+01
3.635230320157273987e+00 1.781907147588367835e+01 2.860125106064574041e+01
4.199208728574653549e+00 1.762298825011210113e+01 2.856352460052166009e+01
1.908064183831813976e+00 2.169844484963534725e+01 3.234718939613408395e+01
3.413076908274381704e+00 2.111618036221282679e+01 3.211682596623348473e+01
2.689961665607633723e+00 2.157946809431093627e+01 3.245909795088729766e+01
3.471799981935985269e+00 2.146050114040514600e+01 3.257099924827132753e+01
2.873764775688421924e+00 2.183208369157659590e+01 3.289287953779465568e+01
3.841516683361102302e+00 2.078614863160007431e+01 3.186599060444611098e+01
5.463709004208818776e+00 1.888775378266140592e+01 3.024107116840123055e+01
5.025247242878185361e+00 1.928805804405906343e+01 3.051746304927581477e+01
5.892064805971802599e+00 1.854881762060876582e+01 3.006965241689372448e+01
6.448313616625453548e+00 1.772095640450129750e+01 2.944744516347268970e+01
6.821296178703562418e+00 1.803722727638245260e+01 2.992830968245232626e+01
6.466339738279267557e+00 1.854212063496545682e+01 3.030125358046769435e+01
5.559300000000000352e+00 2.206030099999999905e+01 3.725690099999999916e+01
5.523897594159608460e+00 2.188808879697970511e+01 3.838097788886451411e+01
4.350782869630730687e+00 2.252732024395177390e+01 3.621669731781953772e+01
3.715386310819400961e+00 2.279218071410081592e+01 3.595952571210195714e+01
3.015800000000000036e+00 2.312059999999999960e+01 3.622829800000000233e+01
4.986938166383884763e+00 2.226211449850549329e+01 3.647374921560047767e+01
3.123653664309880451e+00 2.291029162422782761e+01 3.561583927265935756e+01
3.822953295599780255e+00 2.258203794686549060e+01 3.534728808545364842e+01
4.001525667771271166e+00 2.209892772751495471e+01 3.406686098989975875e+01
4.034524070352939695e+00 2.184171547432002924e+01 3.361198942791200039e+01
4.213684457048988641e+00 2.033125907883616179e+01 3.143714987155962959e+01
4.915922577790971637e+00 1.972923627270257896e+01 3.094941217425347801e+01
5.298939555222395015e+00 1.993438986302837179e+01 3.135248008146793453e+01
4.842065828859473342e+00 2.031599186591643047e+01 3.165716907869837016e+01
5.397900568571608382e+00 2.018667652381121158e+01 3.175694499471363841e+01
5.813765953635524397e+00 1.989646858620061209e+01 3.155986618302596014e+01
5.609658334059644424e+00 1.922005808147024553e+01 3.064417066765741637e+01
6.111240906954206409e+00 1.904721685636056350e+01 3.067434743723236679e+01
6.407832721869956671e+00 1.934133391107890176e+01 3.113938578095326548e+01
6.828007870955202563e+00 1.881492536278620875e+01 3.077520813962508939e+01
7.183035638840637560e+00 1.830993077684815518e+01 3.040218954855933475e+01
3.928417978464071147e+00 2.107911263277063796e+01 3.226648059011449732e+01
4.100857136482015441e+00 2.132712781111550981e+01 3.270214688465470232e+01
4.785802489009876481e+00 1.754224203603723709e+01 2.864044322170569501e+01
5.263432709810136778e+00 1.736196067463506409e+01 2.863476719264212633e+01
6.696635937469761934e+00 1.731457463338719549e+01 2.913174447877412376e+01
5.755799999999999805e+00 1.955279900000000026e+01 3.104779999999999873e+01
6.142592379214054432e+00 2.157411123158317423e+01 3.863006812689098268e+01
5.623023138347683414e+00 2.199695235863795517e+01 3.673098698387867245e+01
6.160052132316918616e+00 2.166032980095726401e+01 3.806799271232043225e+01
4.414440769326549940e+00 2.246401213017302112e+01 3.569096142089106394e+01
5.050702985410579160e+00 2.219875090654291938e+01 3.594788841964824400e+01
5.686746992715484339e+00 2.193360309856900869e+01 3.620506845472709045e+01
4.576608695765839840e+00 2.214830227323798084e+01 3.477189055830586994e+01
4.620132048116982304e+00 2.192832901577980920e+01 3.425758268356779723e+01
4.495524747342128258e+00 2.230615801879792670e+01 3.523142893077219640e+01
4.385527071986155434e+00 2.069731406362428672e+01 3.196163465572581330e+01
5.163075515774072421e+00 2.054682861206351419e+01 3.214392597605540658e+01
4.577051505345255400e+00 2.094470779093088453e+01 3.240609069179578938e+01
5.871658728882166223e+00 2.023970431105591672e+01 3.207128591454159050e+01
5.165503628917482715e+00 2.086279530820008432e+01 3.258896250901894831e+01
7.059446187340999046e+00 1.913000517407700940e+01 3.123091320074057009e+01
6.612197067133771533e+00 1.951644768447185996e+01 3.150368834909720661e+01
7.544773920270110068e+00 1.858263544217256680e+01 3.087607009799744873e+01
7.176355742471362653e+00 1.753218723419177039e+01 2.955525743530640881e+01
7.342621120873655371e+00 1.786808121317061548e+01 3.000145823310456095e+01
8.030101647049654900e+00 1.803526478627861707e+01 3.052122610606681974e+01
7.531799999999999606e+00 1.702659999999999840e+01 2.918180100000000010e+01
7.697918747475815948e+00 1.736285579821100100e+01 2.962832221504306673e+01
5.929636686532064438e+00 2.058344506687237185e+01 3.258345813998444385e+01
6.359146084532670606e+00 2.023679728897646157e+01 3.235551752029562778e+01
6.594417251610936503e+00 1.983845251022263412e+01 3.194084312737420106e+01
5.358453500799035929e+00 2.106049116192335902e+01 3.296433453322048734e+01
4.382151578008988579e+00 2.151775520511530360e+01 3.322263875705721858e+01
4.729439927190876247e+00 2.119385514085242406e+01 3.283319577919209564e+01
6.177510484460859708e+00 2.174654868574767619e+01 3.750591910130219020e+01
5.114466780756497855e+00 2.213538757675999591e+01 3.542202474172399462e+01
5.750472046379923263e+00 2.187025325843352164e+01 3.567914914688329731e+01
5.195476588326255474e+00 2.197758104989960515e+01 3.496256613468729313e+01
4.663447727942960697e+00 2.170837964279966670e+01 3.374312619845777306e+01
5.238740246541460976e+00 2.175772740975301645e+01 3.444829999161081702e+01
7.236080687157253166e+00 1.936250711105974176e+01 3.165860204361761987e+01
6.937306553172705392e+00 2.003938413614268299e+01 3.242295510194484365e+01
7.412715412311121632e+00 1.959500697180560636e+01 3.208628813324845908e+01
4.545380739799821157e+00 1.719316911251095803e+01 2.824859400257564701e+01
7.268329598127172275e+00 1.667007060366252347e+01 2.875440170708463938e+01
6.462714556603844862e+00 2.048299734299530783e+01 3.275904302244605759e+01
5.987599940025123857e+00 2.092709934022207108e+01 3.309550180326701252e+01
7.131049515596008526e+00 2.026572642529938051e+01 3.291767994802891906e+01
6.656348174337765045e+00 2.070953606238089151e+01 3.325399237179593115e+01
5.325458693123100495e+00 2.131777731565549416e+01 3.341934462811020978e+01
5.282158827312649407e+00 2.153776555477201526e+01 3.393391543029937907e+01
6.140968652209767065e+00 2.180392784016710550e+01 3.700693987675285967e+01
6.156646178041244255e+00 2.176513693240257652e+01 3.654947818856158648e+01
5.814200241956003268e+00 2.180689990620300023e+01 3.515319807764058879e+01
7.710796182697476908e+00 1.891876091846654973e+01 3.132240233251741657e+01
7.887420146719366087e+00 1.915128830605706156e+01 3.175012026493665473e+01
7.672999180221518500e+00 1.979984128136920773e+01 3.259699939121589551e+01
7.947304232659950785e+00 1.942113231447828170e+01 3.221304907670788253e+01
8.541771409612568533e+00 1.951728066148571727e+01 3.280301234725413195e+01
7.933280536891985868e+00 2.000467559461337430e+01 3.310770893352631816e+01
8.481892884451220027e+00 1.924725732192090888e+01 3.233980944197842433e+01
9.157266019523424561e+00 1.900520748383719294e+01 3.256608253475073411e+01
8.422038828290213885e+00 1.897734399650193282e+01 3.187679532120002790e+01
8.914030559427022382e+00 1.889971155231910060e+01 3.219167445323016352e+01
8.362200141347869931e+00 1.870750035647620990e+01 3.141390066632186517e+01
8.196159104415936980e+00 1.837140096125207123e+01 3.096758727081504148e+01
8.988772514308976724e+00 1.865595061337264582e+01 3.188685077215057717e+01
5.900869561502675609e+00 2.136715393956392006e+01 3.412471070648574312e+01
5.944230482856128539e+00 2.114715007365210653e+01 3.361016143612572904e+01
7.324792134634236618e+00 2.049207022632921138e+01 3.341240688434171346e+01
7.992998437661845479e+00 2.027468264152659572e+01 3.357076745489771241e+01
8.601605623681333412e+00 1.978710417934203392e+01 3.326587247476826548e+01
6.804599124271293320e+00 2.090836015957991023e+01 3.391886113422233962e+01
6.759225755123686952e+00 2.149014967801103282e+01 3.725600522385423119e+01
6.722564750989142190e+00 2.154758674728358514e+01 3.675701118581978477e+01
6.600009857380863210e+00 2.154868427039411571e+01 3.606152052991927803e+01
6.795883023626723585e+00 2.143271412598187808e+01 3.775500247900451001e+01
5.857538085106650527e+00 2.158701020406622462e+01 3.463891514123587001e+01
9.051856726578025203e+00 1.962587774202339475e+01 3.341693629389888542e+01
9.519661301014430421e+00 1.856238410103710379e+01 3.221173090154838548e+01
7.517851565147475768e+00 2.058142449251640116e+01 3.384601756018680163e+01
6.384841958592607725e+00 2.128026717156074099e+01 3.441927439617991524e+01
6.477452110564528631e+00 2.154978276859622355e+01 3.536602710660156390e+01
6.383641728627052814e+00 2.145697102798423472e+01 3.486840713793245783e+01
