1.150448729508861234e+01 1.058603062294042196e+01 4.933399213559934537e+01
1.049100894127454708e+01 1.047235678729858499e+01 4.985371759375690459e+01
1.203791262442337917e+01 1.002907766199474082e+01 4.912669584912733711e+01
1.302201307783725248e+01 9.842298731917065169e+00 4.866260892235130342e+01
9.997929748758988211e+00 1.022258339103544955e+01 5.012241175666387250e+01
1.064207557848848928e+01 9.915991865099380576e+00 4.984041687668288745e+01
1.107137828368262689e+01 1.023495438461663198e+01 4.959540781084887584e+01
1.356745282974553390e+01 9.679835774856833552e+00 4.837912441629768523e+01
1.252375252691868113e+01 9.447836350224580571e+00 4.896475120317923313e+01
1.189300366557150568e+01 9.212387881761250341e+00 4.931098565052369764e+01
1.128617799999999960e+01 9.609420999999999324e+00 4.955844100000000196e+01
1.250025653440453866e+01 8.815075253520422649e+00 4.906335609329979519e+01
1.325310105217744017e+01 9.235297459594024261e+00 4.863098090502511184e+01
1.160966395233958437e+01 8.999793816133442093e+00 4.947635110150991267e+01
1.069018494698790533e+01 9.021326107516054904e+00 4.991294856557179571e+01
1.310822912731132384e+01 8.417291725135637392e+00 4.881543304227314906e+01
1.018018467257998871e+01 9.596652390561807522e+00 5.010051084577711578e+01
9.600177538349770501e+00 9.830799572401533126e+00 5.035892715086377081e+01
1.398607726955876451e+01 9.197934501151078024e+00 4.822027684483880705e+01
1.491282775928420889e+01 8.837120729979076827e+00 4.774376689224168047e+01
1.438195419063201363e+01 8.723192022973572435e+00 4.806879801454879697e+01
1.193315037556476454e+01 8.390165845255484811e+00 4.939426107159955137e+01
1.123718959815833252e+01 8.485607677845701247e+00 4.971532440127427321e+01
1.261604335560744339e+01 8.170730065332953984e+00 4.908732215493137119e+01
1.348443887803429497e+01 8.627641767178456433e+00 4.859931838456119380e+01
9.244172997377670953e+00 9.437906042001516838e+00 5.056482205054962975e+01
1.532664160201995607e+01 8.772770781535658813e+00 4.751208142209137009e+01
1.133719697312940866e+01 7.801709345643538462e+00 4.974879264258027689e+01
1.071571818856972769e+01 8.117222933667697760e+00 5.000814241240318125e+01
9.846949366571518425e+00 9.132083607353450816e+00 5.031329938898257836e+01
1.225663698731272966e+01 7.780537648532866335e+00 4.931217097732214683e+01
1.385107755226121462e+01 8.609262944669772821e+00 4.839383096962367148e+01
8.888169135074255323e+00 9.045009776978762517e+00 5.077071690604176979e+01
9.491225954079080651e+00 8.738862716203982473e+00 5.051909545148654246e+01
1.508677801781856331e+01 8.128319965716421791e+00 4.775844214826638989e+01
1.009387857802191135e+01 8.432919706548684502e+00 5.026764275878525012e+01
9.882531434613547106e+00 7.948946770653841476e+00 5.041654179918762679e+01
1.029552742447525304e+01 7.503006779115976244e+00 5.026845027938408350e+01
9.462482528025127237e+00 8.322318201435090046e+00 5.057351114029273020e+01
8.830894138178912556e+00 8.211682690660241590e+00 5.087947272770599483e+01
1.085146479146615661e+01 7.573847893460209590e+00 5.000020331398874873e+01
1.371587800000000001e+01 8.019719999999999516e+00 4.856764199999999931e+01
1.314819173143784425e+01 7.595255411965887049e+00 4.889877536840630512e+01
1.394028649830080724e+01 7.430227296708661555e+00 4.853691836423308104e+01
1.440155281099074180e+01 8.074038309248233958e+00 4.816290930100393552e+01
1.318341085488695619e+01 6.864433593548512569e+00 4.897838946046314135e+01
1.258027700000000060e+01 7.170620000000000438e+00 4.923004199999999742e+01
1.195867498699320386e+01 7.486196148887801272e+00 4.948944319437703143e+01
1.133239831511143869e+01 7.094914615660421475e+00 4.982360700650512086e+01
1.070852465025106071e+01 7.057065907969885643e+00 5.012035826960910612e+01
1.485404455140368896e+01 7.503087029147582854e+00 4.799747591302112681e+01
1.462130997055467851e+01 6.877853962748043060e+00 4.823651035205141113e+01
1.195627228581106571e+01 7.132762881654952203e+00 4.952685564882244762e+01
1.242095408775725041e+01 6.549723614992530862e+00 4.937341807344616740e+01
1.378603215076204691e+01 6.558507392357706856e+00 4.872695078187265949e+01
1.416453992111273763e+01 6.841138671949389405e+00 4.850621651012913560e+01
1.175866087332575560e+01 6.662303732648795496e+00 4.967155109706202865e+01
1.086087100850622811e+01 6.454935392964706864e+00 5.011550171063004910e+01
1.552771145132831521e+01 7.109353171379220626e+00 4.764474349038521694e+01
1.316863850241986533e+01 6.436734658615909765e+00 4.903224155440508270e+01
1.297067330972866195e+01 6.036634443513719361e+00 4.916969587031218225e+01
1.438857699999999973e+01 6.252620000000000289e+00 4.847554399999999930e+01
1.367961102740869350e+01 6.144625198466190596e+00 4.882262683076707788e+01
1.226157802268035013e+01 5.928619961013705364e+00 4.951684199797725228e+01
1.559202709212093119e+01 7.833021322853996438e+00 4.749389323716642508e+01
1.495814322055481504e+01 6.680985829755565319e+00 4.806014447824510682e+01
1.156104967068025502e+01 6.191843219686926858e+00 4.981624659772955965e+01
-1.092645797735806568e+01 -2.624898853634713536e+00 1.878241553589740676e+01
-1.157165126268114008e+01 -2.214768996139585333e+00 1.920216010317365374e+01
-1.127110000000000056e+01 -2.019200000000000106e+00 1.864679900000000146e+01
-1.108911641923555536e+01 -2.854816013470734326e+00 1.919845497482006635e+01
-1.137728501055241992e+01 -2.918342992556510751e+00 1.961554172736111212e+01
-1.076917234721400085e+01 -2.622142260556534321e+00 1.858936519769331852e+01
-1.187229999999999919e+01 -2.410400000000000098e+00 1.975769999999999982e+01
-1.058201631409386678e+01 -3.230245598427282872e+00 1.891795324648387222e+01
-1.087697922895936564e+01 -1.920132778385520211e+00 1.836779963283990824e+01
-1.088206085823600944e+01 -3.426500507181192923e+00 1.947332329116949978e+01
-1.017817781228824892e+01 -2.473469268748660355e+00 1.817094961047282098e+01
-1.161685692280052429e+01 -2.976006006650077751e+00 1.995575161056796176e+01
-1.026748624098092577e+01 -3.224796402559828135e+00 1.853195986817815921e+01
-1.136160477265792146e+01 -3.541186054313077758e+00 2.015365213578298409e+01
-1.222403041592074402e+01 -2.628930910284919875e+00 2.043545119191978188e+01
-1.023739778616513085e+01 -3.835903143510569269e+00 1.905356052117239685e+01
-9.873329916883649915e+00 -3.125893129853931640e+00 1.825300596656781948e+01
-1.200019691819380441e+01 -3.456184864574892934e+00 2.092504441178548547e+01
-1.080909320166847642e+01 -3.931333270918438316e+00 1.983687692185019102e+01
-1.038739407901607059e+01 -3.934086298896066758e+00 1.933126511366675615e+01
-9.534244703653783404e+00 -2.964436906057954069e+00 1.810173614811291998e+01
-1.000887862978184373e+01 -2.392459614653862587e+00 1.809531460675377090e+01
-1.142566079230077136e+01 -4.064260224291093238e+00 2.073764105926374413e+01
-9.765025907308297448e+00 -3.828379569152522421e+00 1.847446553036609629e+01
-1.257549970270256523e+01 -2.847299815288325320e+00 2.111269942713591519e+01
-1.110607787601292351e+01 -4.106975401761686406e+00 2.035176660894634892e+01
-9.892700076534829634e+00 -4.441699865492147126e+00 1.918919896988356655e+01
-9.577985328829047518e+00 -4.436146593910120117e+00 1.880288681994893807e+01
-9.059731616203819726e+00 -3.536268575802933078e+00 1.810815605458984123e+01
-9.568428007128629176e+00 -3.778432580495235893e+00 1.833507685773179219e+01
-9.337790094618592107e+00 -2.353356559643358104e+00 1.804370242020103987e+01
-1.179220385499318269e+01 -4.145754156857718087e+00 2.128014234363210022e+01
-1.037159861681222139e+01 -4.557412198747734955e+00 1.986966848112106732e+01
-8.917011454213854549e+00 -2.979883040771830416e+00 1.805794614066714843e+01
-1.295632699109556540e+01 -2.118195960002456246e+00 2.096484873687205308e+01
-1.236705487922145963e+01 -3.537503541616909608e+00 2.146779081811311585e+01
-9.263700000000000045e+00 -4.430600000000000094e+00 1.841710099999999883e+01
-1.085039987332276112e+01 -4.673100162179298245e+00 2.054999899118803697e+01
-1.121726466725189830e+01 -4.754369811298325033e+00 2.109270992920195908e+01
-1.289740915206090044e+01 -3.003390883725438609e+00 2.167527455062522890e+01
-9.400411607389882462e+00 -5.170148138885600986e+00 1.921936904099086618e+01
-8.290885546934617878e+00 -3.190481127132991368e+00 1.802747926474181384e+01
-8.585405681092836971e+00 -4.107874709862328721e+00 1.811457342899642597e+01
-8.381025437905622155e+00 -2.446421342135600252e+00 1.798077223606288300e+01
-1.313681678460650559e+01 -2.340947587513781514e+00 2.146636627707785294e+01
-1.158412710112777866e+01 -4.835639127847322527e+00 2.163541755452190429e+01
-1.268907901175566622e+01 -3.693684336077246222e+00 2.203059732195633558e+01
-1.033458873772607234e+01 -5.333470469796390390e+00 2.051411797077229693e+01
-9.696293697476715323e+00 -5.179082141046934318e+00 1.960701698460105646e+01
-8.981048903746541967e+00 -5.162885404732622696e+00 1.870471958007082591e+01
-8.200665227999175855e+00 -3.935203831995023993e+00 1.807422791769836579e+01
-8.687455247269395997e+00 -4.555362260259109952e+00 1.826915454415305007e+01
-1.215874879026274513e+01 -4.227246605681999725e+00 2.182264468761354337e+01
-9.966218343888783693e+00 -5.352874807119715861e+00 2.008696114872130778e+01
-7.517349535739602295e+00 -4.071917449509123266e+00 1.811099738273746240e+01
-1.068527229949891044e+01 -5.358594054516938598e+00 2.102120390482621559e+01
-1.105221105029353978e+01 -5.439413318686286303e+00 2.156356173197106330e+01
-1.248082694784331181e+01 -4.383307219553628009e+00 2.238541253105243456e+01
-1.321975361626818923e+01 -3.159693671961169237e+00 2.223861052619551515e+01
-8.908315584737049875e+00 -5.898312493421520308e+00 1.924952808182494479e+01
-8.870884218119135411e+00 -5.042191342112303687e+00 1.851532344974665634e+01
-9.499959418361102692e+00 -5.916193879495414976e+00 2.002468175275920359e+01
-8.110400000000000276e+00 -4.680299999999999905e+00 1.812099999999999866e+01
-7.243300181083396794e+00 -3.582200083034815741e+00 1.809434999713165837e+01
-1.195049999999999990e+01 -4.916800000000000281e+00 2.217740099999999970e+01
-1.301110308177868014e+01 -3.849865556353217144e+00 2.259340413123235436e+01
-9.818790253435212279e+00 -5.993824748635669053e+00 2.047823800159441276e+01
-7.652566565386756281e+00 -2.955766821688116774e+00 1.804093301321893250e+01
-1.141914966927454955e+01 -5.520231707085145878e+00 2.210591852527937462e+01
-1.354190000000000005e+01 -3.315900000000000070e+00 2.280160000000000053e+01
-1.016954761045988676e+01 -6.018621977172558424e+00 2.098509304472040427e+01
-8.859777802014713544e+00 -6.640099334760693139e+00 1.986102042201477147e+01
-8.698541465909464421e+00 -5.894798622826042056e+00 1.899219197698410966e+01
-8.478278194967503012e+00 -5.653456102074276401e+00 1.861349344992995114e+01
-7.971152380079582933e+00 -5.412586281508769304e+00 1.835071284362932431e+01
-6.834033729733477003e+00 -4.208633307562787529e+00 1.814776698175616687e+01
-7.411692956118238307e+00 -4.940851788954333301e+00 1.816555962564783400e+01
-1.235525127937174261e+01 -4.959937965301462803e+00 2.283345688991706268e+01
-1.052030445000762171e+01 -6.043419902846569158e+00 2.149194808711216353e+01
-1.288623717959135462e+01 -4.426401573665541989e+00 2.304241078585690872e+01
-7.695942648177840795e+00 -5.377990517233321555e+00 1.830472757126457495e+01
-6.846384846491536003e+00 -3.105956385876423642e+00 1.804613683728381091e+01
-1.181627731663437686e+01 -5.519235921689946700e+00 2.276960627416092109e+01
-1.088740113552512945e+01 -6.124115636210303748e+00 2.203438248036983538e+01
-1.341672377089408386e+01 -3.892931072103857915e+00 2.325068689446888470e+01
-8.415999953397424349e+00 -6.626800084643294397e+00 1.927969902224524290e+01
-9.303599963525595484e+00 -6.653400050192820103e+00 2.044240000400559154e+01
-6.235941833311203553e+00 -3.805368890161984208e+00 1.810412865060949983e+01
-6.424767163449931928e+00 -4.835065906278337877e+00 1.820118393516043653e+01
-1.394141253855321771e+01 -3.468623906964767301e+00 2.365923425161943783e+01
-9.653944807486920965e+00 -6.678384053613830140e+00 2.094887880688254000e+01
-8.085706351201865871e+00 -6.264667987474291877e+00 1.871165515663680523e+01
-7.832006614642184061e+00 -6.144331369310290114e+00 1.858025558201660843e+01
-6.713274134612135846e+00 -5.201296755278766781e+00 1.821010106039012300e+01
-6.890383711119950405e+00 -5.619020264904539985e+00 1.833890836065058494e+01
-1.276063441479893257e+01 -5.003143256313942189e+00 2.349053692819273920e+01
-1.222114863047799993e+01 -5.562990945634936679e+00 2.342665011103007799e+01
-1.128465745290101374e+01 -6.123211442627283674e+00 2.269840991250111983e+01
-1.329164875998875139e+01 -4.469495553648019204e+00 2.369941065475735442e+01
-1.375354201890918660e+01 -4.333981043049064397e+00 2.433246564259932043e+01
-1.000431970813090210e+01 -6.703370503099569611e+00 2.145540137256110569e+01
-8.261582188029503726e+00 -7.255716039425418096e+00 1.971712794816271241e+01
-8.853699491121032494e+00 -7.272512849152348302e+00 2.049180767187836238e+01
-8.054212767522185956e+00 -6.751664620058715371e+00 1.904467787163876480e+01
-7.281656407903802197e+00 -6.075394743531917108e+00 1.848837982232896238e+01
-6.015500000000000291e+00 -5.461500000000000021e+00 1.825460100000000097e+01
-6.268260179171532442e+00 -2.786200083989277765e+00 1.801041960967505418e+01
-1.168191273304268663e+01 -6.122307532678821218e+00 2.336243599230199663e+01
-1.035529993341480548e+01 -6.728400080153328133e+00 2.196279900606221247e+01
-1.434079999999999977e+01 -3.621300000000000185e+00 2.451660000000000039e+01
-8.098827806872789026e+00 -7.202873073115197755e+00 1.943109760374526829e+01
-9.159222255603262752e+00 -7.274028851898420633e+00 2.099405564265467561e+01
-5.610233287225335985e+00 -4.810466787889382090e+00 1.819016735910718552e+01
-5.533979999999999677e+00 -3.147299999999999986e+00 1.803585980000000077e+01
-1.075326745492467850e+01 -6.727164440167581638e+00 2.262756794428135976e+01
-9.509474036479820924e+00 -7.299492777618045380e+00 2.150098626776433974e+01
-7.692800000000000082e+00 -6.876400000000000290e+00 1.880989999999999895e+01
-5.204966453316206554e+00 -4.159432990600331337e+00 1.812573363274590932e+01
-6.711612961114463261e+00 -6.191947093472174757e+00 1.849692598391664333e+01
-6.161556706109776904e+00 -6.131093301069478585e+00 1.845497812919623826e+01
-5.795948819267382035e+00 -2.491997315233705379e+00 1.804245650699320791e+01
-6.316957221415579582e+00 -1.935257107533977283e+00 1.803335188123889665e+01
-1.316649999999999920e+01 -5.046400000000000219e+00 2.414839900000000128e+01
-1.262601904327607905e+01 -5.606746123976646956e+00 2.408369281621362390e+01
-1.115048340518315761e+01 -6.725932950216668260e+00 2.329108408309446077e+01
-1.208683873826002753e+01 -6.165744882368541901e+00 2.401914377852408933e+01
-1.421187033929900423e+01 -4.122409616445932734e+00 2.546693717695591985e+01
-7.781837610274675576e+00 -7.778616030386588776e+00 1.958240967096551088e+01
-8.107416431502647569e+00 -7.883603802985190256e+00 2.015384114025114215e+01
-8.709115442241277094e+00 -7.893700056226047757e+00 2.104383453265868553e+01
-6.867463221511838967e+00 -6.772640673884470885e+00 1.867199029565017554e+01
-5.138620017336752888e+00 -2.778667962672064728e+00 1.806631980025677819e+01
-9.859727167678689952e+00 -7.324956225627996531e+00 2.200791815320045330e+01
-1.017261313359182218e+01 -7.289934743387775029e+00 2.264756015541835765e+01
-1.347219607488535154e+01 -4.905157832715037358e+00 2.490470107471103134e+01
-7.578957752616857668e+00 -7.615099694811560127e+00 1.927171905028570720e+01
-8.403575597823680354e+00 -7.891934361081839988e+00 2.054124142918953666e+01
-9.014655286658875610e+00 -7.895465751370255525e+00 2.154642763612783440e+01
-4.814862307213902959e+00 -5.259054637958857192e+00 1.835634100155004589e+01
-5.372544673837158946e+00 -5.756467840585163032e+00 1.837746215305985586e+01
-4.799699999999999633e+00 -3.508399999999999963e+00 1.806129999999999924e+01
-5.681184335197439594e+00 -6.152960813671294105e+00 1.850067433263440364e+01
-5.477539938084962756e+00 -2.048936026014154255e+00 1.807133960283083951e+01
-1.154769895949924674e+01 -6.724700318981549962e+00 2.395459781913431385e+01
-1.057030146189505260e+01 -7.288395296614538665e+00 2.331132477946851367e+01
-7.073167061969503067e+00 -7.172941834540376149e+00 1.883269887221919703e+01
-7.353292874621964792e+00 -7.597798494890025012e+00 1.915247231926001703e+01
-6.307556977274971999e+00 -6.800432133651284516e+00 1.865527918311279265e+01
-5.038091237749205753e+00 -6.448007405293314065e+00 1.862356704278067809e+01
-4.729331860146532840e+00 -6.051554417384183537e+00 1.850037264910503509e+01
-1.291678260834088121e+01 -5.488844229476202763e+00 2.491800571204775494e+01
-1.237726404083533360e+01 -6.048073896689543538e+00 2.485289607139182166e+01
-1.377760099463489674e+01 -4.764050805991840498e+00 2.566028459528098793e+01
-9.365032034254934246e+00 -7.920456534124477699e+00 2.205295863163085457e+01
-7.465099999999999625e+00 -8.353899999999999437e+00 1.973360100000000017e+01
-7.953199999999999825e+00 -8.511699999999999378e+00 2.059069999999999823e+01
-4.257179914285767808e+00 -4.761641078111082059e+00 1.833521979246734546e+01
-4.528439927438206780e+00 -4.135021256721818084e+00 1.819826002125379105e+01
-4.290360299514130560e+00 -5.787719388153308664e+00 1.850539366341241987e+01
-5.346849953615401496e+00 -6.844460339018198169e+00 1.874676144177044534e+01
-4.544735472953362887e+00 -2.341400521094497922e+00 1.811746290101937262e+01
-4.259879014984296219e+00 -3.110963391651478727e+00 1.810778648705585070e+01
-1.096798876562228742e+01 -7.286855331578203199e+00 2.397508677187993698e+01
-1.183774640171904480e+01 -6.607301727258158230e+00 2.478778273432439150e+01
-9.677573464239113576e+00 -7.885671625237017146e+00 2.269228375133377185e+01
-1.322271890276567241e+01 -5.347164077751031641e+00 2.567351456329480186e+01
-7.708915560444637549e+00 -8.432724207002998185e+00 2.016173882635021286e+01
-7.013610472256140760e+00 -8.319569640743534222e+00 1.949522164834285576e+01
-8.412127271777061210e+00 -8.513851768911395723e+00 2.134497006515054451e+01
-6.453500000000000014e+00 -7.469500000000000028e+00 1.885549899999999823e+01
-4.029474948619930608e+00 -3.910475026821567113e+00 1.818665000836183054e+01
-3.985919927438207111e+00 -5.388261256721817993e+00 1.847217962125379387e+01
-9.990115085219091640e+00 -7.850886965148036190e+00 2.333160978989513623e+01
-1.408309999999999995e+01 -4.622899999999999565e+00 2.641610000000000014e+01
-1.448571308306877903e+01 -3.989732130573531599e+00 2.635707017960212539e+01
-7.822501989711850179e+00 -9.029823064005281452e+00 2.122071143285872097e+01
-8.870299445368786451e+00 -8.515999997399504196e+00 2.209799908843568872e+01
-6.526962775861232302e+00 -7.993438917315208059e+00 1.918298165555200185e+01
-4.086300774928512070e+00 -6.346556990624142358e+00 1.862324823794727635e+01
-4.601182584762995020e+00 -7.007462880966842000e+00 1.882861321067662530e+01
-3.720017627239640134e+00 -2.713497620538320110e+00 1.815427648889885859e+01
-1.266752019954714470e+01 -5.930482329503591110e+00 2.568621020751485062e+01
-1.122264170315006382e+01 -7.010810381102272615e+00 2.464338692710141032e+01
-1.038777901049310159e+01 -7.849493520360926624e+00 2.399559116263007041e+01
-1.352865573035859370e+01 -5.205482732575158700e+00 2.642902071597979230e+01
-7.309653800154327641e+00 -8.869321611835554009e+00 2.015572157012753962e+01
-6.673899999999999721e+00 -9.041399999999999437e+00 1.983799899999999994e+01
-7.475705591930703164e+00 -9.206482875349102812e+00 2.079563393723067222e+01
-5.565958134122774403e+00 -7.848169432185343020e+00 1.904710996381718502e+01
-3.714659999999999407e+00 -6.014879999999998894e+00 1.860913920000000132e+01
-3.489633828028317453e+00 -3.513023775814706262e+00 1.823313824046427101e+01
-1.056746419725450181e+01 -7.642584266020246986e+00 2.474944307520514641e+01
-1.212776515183516324e+01 -6.489914897757895318e+00 2.562088813058796077e+01
-9.182392946282710966e+00 -8.481433905756752267e+00 2.273673804214438476e+01
-1.439717218236090623e+01 -4.307794034357370627e+00 2.721484923780156251e+01
-1.297310931646057242e+01 -5.789223544055392523e+00 2.644196711622343088e+01
-6.600422914501187677e+00 -8.517362014471865805e+00 1.951045438685911648e+01
-8.128399995427830760e+00 -9.030932337514695263e+00 2.172294091838983121e+01
-3.237473149205364109e+00 -5.051442758219299556e+00 1.845476470861128249e+01
-3.259250034017167508e+00 -4.312550186039429079e+00 1.831200003346293670e+01
-5.012448729908983935e+00 -7.536098326906286005e+00 1.899289781786290376e+01
-3.443400193402846199e+00 -6.641500248240249427e+00 1.874609907713596613e+01
-3.950850632310356048e+00 -1.904134199849321085e+00 1.816860598054178766e+01
-1.151267175927888786e+01 -6.893420115749974819e+00 2.547654034443660009e+01
-9.494911267884756256e+00 -8.446821341875976330e+00 2.337634865013398411e+01
-1.380104412945848402e+01 -4.993571540575177714e+00 2.729895514238303633e+01
-7.692011227184424982e+00 -9.547122472696692341e+00 2.184972023814514941e+01
-8.434297201589194160e+00 -9.032042120380337380e+00 2.222516992546252723e+01
-6.195597906880012218e+00 -8.020057269932239663e+00 1.917081724477043281e+01
-3.369947357193035842e+00 -5.578506241941850519e+00 1.854729875875457168e+01
-3.855514909562408832e+00 -7.170465886267741062e+00 1.891046514742147266e+01
-2.995693744115881518e+00 -2.955601850160539001e+00 1.826387314805252871e+01
-3.179871472180368919e+00 -2.315821026464754073e+00 1.820079094233340555e+01
-1.241810000000000080e+01 -6.372399999999999842e+00 2.645490099999999956e+01
-1.089757863471834654e+01 -7.296924796250753076e+00 2.533218882379597758e+01
-9.807499993989681641e+00 -8.412200004473213255e+00 2.401610000142116164e+01
-9.917489932039224243e+00 -8.276431596252429301e+00 2.468964078869312573e+01
-1.324630674709968048e+01 -5.576491965469847045e+00 2.731223279805331927e+01
-7.154135667159549961e+00 -9.384981515449162259e+00 2.057803724437259518e+01
-6.836188466733629454e+00 -9.470885861434462427e+00 2.041897834881614671e+01
-7.279894980172409547e+00 -9.982983905698203486e+00 2.173995534703590238e+01
-8.636845420770375981e+00 -8.838118314435449818e+00 2.268790835052828925e+01
-4.678500243414083215e+00 -8.226800473916865641e+00 1.923870128798068535e+01
-5.937629466136130851e+00 -8.570760144709392847e+00 1.948621894730355919e+01
-4.267079237238864842e+00 -7.698725634761617087e+00 1.907461195888483019e+01
-2.868552645941439216e+00 -6.133250408518790664e+00 1.868496805375914249e+01
-2.765358425682705956e+00 -3.755147068429930624e+00 1.834272971189705004e+01
-3.410809913561949180e+00 -1.506449301680962360e+00 1.821511441183237423e+01
-1.411524729759212526e+01 -4.678291611578462295e+00 2.809725821299092985e+01
-6.415774687346563532e+00 -9.615278292217499967e+00 2.034522306739967945e+01
-6.998599959594592690e+00 -9.900700031729783746e+00 2.100040101323942210e+01
-7.998059713871224830e+00 -9.548362013215669464e+00 2.235240830328775985e+01
-2.489025034017167570e+00 -4.714625186039429039e+00 1.843735003346293411e+01
-2.293644835183749287e+00 -5.624947364425478824e+00 1.862383067837635764e+01
-3.264981947209990132e+00 -7.247926250376139024e+00 1.905925645499241128e+01
-2.845370130337273817e+00 -6.904067722226553627e+00 1.894927652378579808e+01
-3.676913883682606077e+00 -7.776225340369570915e+00 1.922335092320945549e+01
-2.271369126563908214e+00 -3.197707218985168076e+00 1.837346997276071292e+01
-4.181684959410210567e+00 -1.094770713266645101e+00 1.818293545053303006e+01
-1.169432588055063604e+01 -6.871476381808544254e+00 2.653992503680170856e+01
-1.044841141840504584e+01 -7.728294047145616297e+00 2.544569846910516731e+01
-1.121113252128503568e+01 -7.144790860625136020e+00 2.596810137554307829e+01
-8.949152966870940418e+00 -8.803526511025770773e+00 2.332707862905205332e+01
-1.002750537263041863e+01 -8.140631649606007159e+00 2.536333908340946408e+01
-1.471115740495946511e+01 -3.992775739461581264e+00 2.801337932596750591e+01
-1.269156918954324098e+01 -6.159412310497813792e+00 2.732550755351785199e+01
-6.047766600436918161e+00 -9.357116091641522360e+00 1.997771242339950959e+01
-8.200727195327036867e+00 -9.354296769473457118e+00 2.281510873133474604e+01
-4.926278122799495840e+00 -8.709213445767947093e+00 1.953184472439076913e+01
-4.029902562598767446e+00 -8.506039606411395226e+00 1.949144137027591839e+01
-2.141986641719355156e+00 -6.380290708925049792e+00 1.890755475505912386e+01
-2.455571728004041443e+00 -2.557998255694287959e+00 1.831038888621692351e+01
-3.523379353470089015e+00 -1.011924618965291955e+00 1.826386337236481694e+01
-2.639800000000000146e+00 -1.918199999999999905e+00 1.824729900000000171e+01
-1.057250168877569152e+01 -7.583051596638689773e+00 2.602101911697758041e+01
-9.183587106676954548e+00 -8.876550688158777902e+00 2.416362636068320668e+01
-9.404597495045253552e+00 -8.649442846176544464e+00 2.474829492491900140e+01
-1.351917131523418902e+01 -5.364002447970583454e+00 2.818123612562797575e+01
-1.198995025544756032e+01 -6.605018339403509131e+00 2.717927181005076775e+01
-1.296466448747839273e+01 -5.946716124179222795e+00 2.819492737144562966e+01
-5.679345355519279437e+00 -9.122136735555283593e+00 1.980200654455994425e+01
-6.709826324125643282e+00 -1.030091731951242373e+01 2.167036226005371446e+01
-7.561300000000000132e+00 -1.006530000000000058e+01 2.247979899999999986e+01
-8.403394029463768788e+00 -9.160232234174536359e+00 2.327780869080767445e+01
-2.087179314402449748e+00 -3.837371838093122101e+00 1.843654668388507289e+01
-4.463233473116765104e+00 -8.828385017307542881e+00 1.963499663177802290e+01
-3.086748491594501154e+00 -7.853726427429350565e+00 1.937209053041483386e+01
-3.992131670321561909e+00 -5.884324502676179236e-01 1.826560094870183804e+01
-2.840711179355432492e+00 -1.294063893991116654e+00 1.830250259103161881e+01
-9.614428247338391742e+00 -8.421305652342610415e+00 2.565346264854928293e+01
-6.157371491428217603e+00 -1.018977579510120179e+01 2.085299478414022190e+01
-5.421300460782661368e+00 -9.672999767659005599e+00 2.011749989718248699e+01
-6.449044993103210111e+00 -1.033225761045414615e+01 2.118047072443153311e+01
-7.686083357274567263e+00 -9.978637492266356546e+00 2.313860718403125460e+01
-1.434695472703008345e+00 -3.505062548700558001e+00 1.852280962837312828e+01
-1.718799791968108392e+00 -5.116700119267498792e+00 1.856270007147195145e+01
-3.438710571834714180e+00 -8.277207108840544336e+00 1.949945771697173669e+01
-1.552214338254314319e+00 -5.759862036081559111e+00 1.881146667258489558e+01
-2.725652952254627337e+00 -7.446730257789368146e+00 1.922432285592860879e+01
-2.247630565938643965e+00 -7.166508637680262694e+00 1.915235565286443631e+01
-2.014457242446258789e+00 -2.333276433031283403e+00 1.836870400646963120e+01
-1.097074106558068074e+01 -7.370422229252700852e+00 2.662492683540700966e+01
-1.126621052570399684e+01 -7.104062142028064741e+00 2.726438700702773588e+01
-1.013745228635552920e+01 -8.004916158375237956e+00 2.603661906225580935e+01
-8.675564271342707912e+00 -9.119333250630603516e+00 2.379608150271278788e+01
-1.226317013976441039e+01 -6.392210364728448724e+00 2.804938878760520282e+01
-5.173887078228743164e+00 -9.191297566686065679e+00 1.982478833031817800e+01
-6.420993654320126254e+00 -1.070121653146568974e+01 2.234046077521616169e+01
-8.045197011837183609e+00 -9.582755179480201946e+00 2.336599285874360632e+01
-1.389141816550391928e+00 -2.748334724448351807e+00 1.849010370672908721e+01
-1.902989850379073200e+00 -4.477035248167791082e+00 1.849962327578782961e+01
-3.379667880712948325e+00 -8.785985616250890473e+00 1.974482050524958154e+01
-2.908609721467092513e+00 -8.459201085044151469e+00 1.968475669846578668e+01
-1.932173265121567729e+00 -1.604639172058953456e+00 1.839212793491676834e+01
-8.703020478105278457e+00 -9.171613304959445045e+00 2.491400409634242408e+01
-9.002026382052894959e+00 -8.886490569544555740e+00 2.547988748725479979e+01
-8.559787115133946855e+00 -9.340817348531279762e+00 2.431112602535018752e+01
-1.156167817919418894e+01 -6.837703193325967987e+00 2.790384854538991632e+01
-5.660008618598926233e+00 -1.021827668490919905e+01 2.073873219347988694e+01
-4.727206829912897312e+00 -9.851335229756044143e+00 2.027193086239815045e+01
-5.083877161720980808e+00 -1.016399681202366878e+01 2.061886655744790531e+01
-6.846494840300326956e+00 -1.058359839364326760e+01 2.274532463149322581e+01
-5.976681113931654465e+00 -1.087663933007524797e+01 2.191056698157921900e+01
-7.227994472128443704e+00 -1.031090275885757279e+01 2.307463740926521467e+01
-1.351592372341402726e+00 -4.196235399262671528e+00 1.857252328027113109e+01
-4.248167054650021868e+00 -9.429410810536257515e+00 2.003092387329823154e+01
-3.876788322425857913e+00 -9.043733542835909134e+00 1.984072251689184441e+01
-1.385442102231533301e+00 -6.403744112795729748e+00 1.906051185838828133e+01
-1.756889295706048459e+00 -6.853190657366551974e+00 1.914081606589742179e+01
-2.336062698687299211e+00 -7.896047061934174494e+00 1.948975470107374264e+01
-1.024740020500503945e+01 -7.869199746376279947e+00 2.670990118454779250e+01
-9.306536727684731503e+00 -8.604629051638065462e+00 2.618806802800851585e+01
-5.899000000000000021e+00 -1.076420000000000066e+01 2.136070099999999883e+01
-7.811038241320700237e+00 -9.891855862989503478e+00 2.379832170391738444e+01
-8.169805303490761617e+00 -9.482535713766225172e+00 2.386805681875937779e+01
-7.638325886566321721e-01 -3.163388923678917664e+00 1.861150220484925555e+01
-1.236099020748842925e+00 -1.988351991811444064e+00 1.852800965499665509e+01
-1.167402543080222177e+00 -4.835900021938667415e+00 1.863559999430438197e+01
-9.988719691782618204e-01 -5.529444236053390860e+00 1.881004021376428526e+01
-1.649360647122333878e+00 -7.429181980988459166e+00 1.935561480168698623e+01
-1.039984595742274998e+01 -7.680600384776313128e+00 2.759075199841011283e+01
-1.098168739061023480e+01 -7.248112253425632368e+00 2.785917449156318781e+01
-9.564168925553483191e+00 -8.366143886675001085e+00 2.678741276559204820e+01
-4.033400090231433310e+00 -1.002959997681639237e+01 2.042629997992401059e+01
-4.221337987716991869e+00 -1.058756350621770714e+01 2.102371143966265166e+01
-6.054352649730351033e+00 -1.098906585529357116e+01 2.246036910393079822e+01
-6.132099828575028333e+00 -1.110159981536325091e+01 2.301069902276853441e+01
-7.351587163116532153e+00 -1.022458626172240237e+01 2.364697012133788689e+01
-7.450576969157807206e-01 -3.887339400743590190e+00 1.865271202598243860e+01
-3.381996936926499941e+00 -9.547745022466518350e+00 2.021216433668495682e+01
-1.218703139804145019e+00 -7.047497717105273729e+00 1.930950735304370625e+01
-2.170190460564420665e+00 -8.607094900709986618e+00 1.985131550933469313e+01
-2.730200303265922557e+00 -9.065600224331145540e+00 1.999790009969239080e+01
-8.066688150573204652e+00 -9.582635507499825067e+00 2.570090715259344449e+01
-8.599700976674167663e+00 -9.123393587479075251e+00 2.621103377262727108e+01
-8.001438815865519416e+00 -9.693741334608159121e+00 2.508018109394240724e+01
-4.746598913203005310e+00 -1.065478341938463913e+01 2.112001847719142944e+01
-5.154060689681602803e+00 -1.095492273282221873e+01 2.149096647224573076e+01
-5.484600134024747220e+00 -1.112478183599424852e+01 2.200023793462871780e+01
-6.894970191381980307e+00 -1.055629827106199770e+01 2.366897338823090280e+01
-7.936099999999999710e+00 -9.804999999999999716e+00 2.445859899999999953e+01
-4.834464580860085015e-01 -2.461404848693194758e+00 1.867438306541420800e+01
-6.160049999999985815e-01 -4.555100000000001259e+00 1.870850000000000080e+01
-7.484759295657703593e-01 -6.495028210665500623e+00 1.918355832100982994e+01
-1.610920749133238239e+00 -8.149195381500206281e+00 1.970492459930413176e+01
-1.055229883752706144e+01 -7.491991820676903835e+00 2.847164813574633513e+01
-9.785900223020169264e+00 -8.108940793482288356e+00 2.743647541515286647e+01
-8.880571792441720902e+00 -8.863353671982688198e+00 2.686497045082396795e+01
-3.121428936110361096e+00 -9.971522054220145037e+00 2.066539761871629111e+01
-6.164228001336033103e+00 -1.108353627351557869e+01 2.362649088078608628e+01
-7.130927098641998363e+00 -1.038772161852059384e+01 2.413042105239474111e+01
-1.385244449587097471e-01 -3.578442359688091656e+00 1.873290049018119419e+01
-2.788063692135412941e-01 -5.942267834515667424e+00 1.905742778721056752e+01
-1.051900221443496264e+00 -7.691500181305789496e+00 1.955859905796362597e+01
-1.524847681938918731e+00 -8.761556888126595055e+00 2.016631830593533081e+01
-9.938199931825208111e+00 -7.920414612350690220e+00 2.831758378054382064e+01
-9.191593044475565577e+00 -8.546935514248156451e+00 2.746363412075136523e+01
-8.131915365430092635e+00 -9.471566076500359088e+00 2.632143535177279148e+01
-3.555926319045243034e+00 -1.029279267243021856e+01 2.080811184847543771e+01
-4.409300010638452783e+00 -1.114559999727629247e+01 2.162120099813968110e+01
-5.070138262783077998e+00 -1.148541925084513515e+01 2.263987442758287472e+01
-5.394300024433672291e+00 -1.147352437280394888e+01 2.314467275794550716e+01
-7.366883967212588757e+00 -1.021914498557758755e+01 2.459186762866526621e+01
-1.439735285935261899e-01 -2.997465816013280993e+00 1.873733361546992526e+01
-6.460750000000037296e-02 -4.274300000000000210e+00 1.878139999999999787e+01
-7.930820016733619582e-02 -5.061436094581184264e+00 1.893167017662247176e+01
-2.686932420924135645e+00 -9.650250898628993212e+00 2.052268264343769033e+01
-2.202432424874124273e+00 -9.240306781971538541e+00 2.028980366350138809e+01
-5.536527099819080755e-01 -7.246249833773689808e+00 1.947415686106672794e+01
-7.223914197562237405e+00 -1.015517295279696164e+01 2.556319753420059371e+01
-7.499882539438747386e+00 -9.900905712358962774e+00 2.621844382638499127e+01
-8.197200000000000486e+00 -9.360400000000000276e+00 2.694249900000000153e+01
-7.579687213944048096e+00 -9.980243664239615953e+00 2.501139494132679175e+01
-4.491728021690407857e+00 -1.137929532475270911e+01 2.217455794548224901e+01
-5.699266381418184757e+00 -1.130386385242072933e+01 2.357486973334358638e+01
3.683262570770196032e-01 -2.661695982818342188e+00 1.884321967492259731e+01
-3.504882025622661601e+00 -1.098255544247568949e+01 2.159670149347466861e+01
-2.643667206462728902e+00 -1.023485937276594271e+01 2.104742745299321527e+01
-5.537463907674317065e-02 -6.800970100397370821e+00 1.938970836430110367e+01
-4.821952383651624263e-01 -7.823708109116252807e+00 1.981724496751775533e+01
-9.439940847950823999e-01 -8.209797509182793718e+00 1.996028319582360666e+01
-8.701025267940959651e+00 -8.850014133638532954e+00 2.789694296227911607e+01
-6.867850217352312825e+00 -1.033024481000325068e+01 2.611545417288436610e+01
-6.561489538206501493e+00 -1.080203009337885867e+01 2.426412709621473240e+01
-6.797641132469770753e+00 -1.063330949666861436e+01 2.472514673304820221e+01
-6.874727605454967971e+00 -1.045619296528406927e+01 2.538277741912940755e+01
3.090939999999990917e-01 -1.995794000000000512e+00 1.883767939999999896e+01
4.275580009469720499e-01 -3.327598010646113380e+00 1.884875980008857255e+01
4.867899999999998339e-01 -3.993500000000000050e+00 1.885429999999999851e+01
4.573893691307007181e-01 -5.567772857552627741e+00 1.915484071203646366e+01
-3.078471443158945497e+00 -1.055597729482859393e+01 2.118991079016895895e+01
-1.675245396577621282e+00 -9.414821875757830583e+00 2.058138666199018019e+01
-1.807681438558733422e+00 -9.941167205199862522e+00 2.100886409235680929e+01
4.426700000000000079e-01 -6.355900000000000105e+00 1.930529999999999902e+01
-8.248417617251975642e+00 -9.227269190100525265e+00 2.761055320352789266e+01
-7.516409600951551973e+00 -9.800587767202523892e+00 2.703503847378689429e+01
-6.196360261393116353e+00 -1.106547021534020203e+01 2.424238857831764093e+01
-4.656200000000000117e+00 -1.184559999999999924e+01 2.327870000000000061e+01
-4.573973665062713856e+00 -1.161247646527720612e+01 2.272669707418579321e+01
-5.266413781008784767e+00 -1.150613654423970367e+01 2.413906514847097284e+01
4.720933791754033937e-01 -4.780428763282560389e+00 1.900453064351525256e+01
1.087841344387254550e+00 -3.178863900144592414e+00 1.904302351201105026e+01
1.146747524843351629e+00 -3.844840003939137940e+00 1.904846792261772137e+01
1.113652378793746900e-01 -7.400531510712852423e+00 1.977604997309784807e+01
-4.287248602954019105e-01 -8.291542065313308285e+00 2.016716495934986852e+01
-8.361271186156071789e-01 -8.727907937028724916e+00 2.036182240230224849e+01
-1.206995670965365974e+00 -9.122236072484875891e+00 2.052316435737618860e+01
-7.088499332797001173e+00 -1.012612388792828710e+01 2.664687075262663640e+01
-7.767640947003195961e+00 -9.526978015424536039e+00 2.752656316658227809e+01
-3.976031542643306604e+00 -1.135084428483172658e+01 2.205875007361553131e+01
-4.570715763414267663e+00 -1.186745394868383841e+01 2.394172427543350423e+01
-6.228499368814601311e+00 -1.104740029811249791e+01 2.485840014167073520e+01
1.013724865103121875e+00 -2.346075854301250097e+00 1.903608324676291019e+01
9.913911713257161917e-01 -4.527388501659945774e+00 1.914552324722925647e+01
-2.600400033197147298e+00 -1.081950048711818901e+01 2.157220176378941900e+01
-1.940118804735328162e+00 -1.046751270319309945e+01 2.143634132329040654e+01
-1.147512571145722138e+00 -9.589516664444552418e+00 2.087327067533936642e+01
7.044744554666382275e-01 -6.977170438331683933e+00 1.973460593527705242e+01
8.844264498688603204e-02 -7.956133065712107211e+00 2.007631474028281460e+01
-6.210309774129296301e+00 -1.095569927342653394e+01 2.544848268167621441e+01
1.807357888409697466e+00 -3.696032251256872847e+00 1.924282776434921871e+01
9.615882605692118723e-01 -5.218514685459201274e+00 1.927124896962643064e+01
1.130810895368191460e+00 -6.280489797826908749e+00 1.954353765427859102e+01
-1.280606824959802381e+00 -1.011593646189899509e+01 2.130064079595398852e+01
-7.282976195783699147e-01 -9.245838401371623050e+00 2.076322213580695220e+01
-6.835707146755828134e+00 -1.024071812873592613e+01 2.712756855615280926e+01
-6.192119590282286978e+00 -1.086399758893765544e+01 2.603857053058359128e+01
-6.511442833869134361e+00 -1.050548578029148494e+01 2.666824194459322328e+01
-6.922308112626462062e+00 -1.002898642002072549e+01 2.785222409401399446e+01
-3.543037286935652563e+00 -1.155595867716747094e+01 2.249602223651789501e+01
-5.619155297206765098e+00 -1.133519701146743763e+01 2.499516854967282242e+01
-3.996944418434175361e+00 -1.188556764273940303e+01 2.330883381361778461e+01
-4.833260925909359074e+00 -1.170854955924135332e+01 2.470365182889442579e+01
-4.072883144319404458e+00 -1.197525926698182630e+01 2.386056678572153800e+01
-5.795151264781268630e+00 -1.118096915698677485e+01 2.539639037199981075e+01
1.618510043271383037e+00 -2.832663477454782530e+00 1.920311950096827758e+01
1.651905127242391469e+00 -4.378733986272581369e+00 1.933988372185663707e+01
-2.626453110158963433e+00 -1.120179019516225694e+01 2.217162268559080118e+01
1.313611440657411089e+00 -5.671106140268693530e+00 1.949026331112852262e+01
1.496412347646341123e+00 -5.061721256532273117e+00 1.943698886871556297e+01
9.664961540980196997e-01 -7.598954860737985761e+00 2.016426730211478002e+01
-8.654741717045233429e-02 -8.632741051279069211e+00 2.050970346938146704e+01
-3.712478993315393438e+00 -1.174805420314427451e+01 2.296061781487119191e+01
-4.485217845759545519e+00 -1.188931172766240607e+01 2.460484451819701235e+01
-5.361532060623137141e+00 -1.131462090153199185e+01 2.593472134520267502e+01
-2.015188655707520482e+00 -1.095086290062552692e+01 2.198962118344037364e+01
-1.241816155567672553e+00 -1.059344773859578126e+01 2.189704532150860672e+01
-6.204199999999999715e-01 -9.763999999999999346e+00 2.116480100000000064e+01
1.392279176091376858e+00 -6.901979250447807246e+00 1.997282212796919154e+01
6.581094437806375153e-01 -8.088332572201681003e+00 2.033494358742544250e+01
-4.686924222864208289e-03 -9.250045444991208399e+00 2.097467811044222330e+01
-6.173899215870733315e+00 -1.077214894941360868e+01 2.662960776006495678e+01
-6.155700604674270160e+00 -1.068039956179977423e+01 2.721999914113156649e+01
-2.652486240406467743e+00 -1.158379448998002026e+01 2.277059626286041549e+01
-3.110769525318743511e+00 -1.176072943499580781e+01 2.293256192776809854e+01
-5.009819419983670308e+00 -1.162298976134726303e+01 2.513193569623681256e+01
1.659124407793250322e+00 -2.030455862905920839e+00 1.922894708750920145e+01
2.312419776898589685e+00 -4.230080294274642938e+00 1.953424461510808996e+01
2.107110929053675807e+00 -3.129026143513069513e+00 1.933975974798082120e+01
1.818405863438985026e+00 -6.205139358324784915e+00 1.978158627310308049e+01
2.001456862279098470e+00 -5.596078768807464243e+00 1.972846797233129124e+01
6.121335927262010479e-01 -8.735182596729348603e+00 2.078421901573382158e+01
-6.129734302538373036e+00 -1.055856095806467110e+01 2.787905334220632980e+01
-3.337668041116117035e+00 -1.192553729173796739e+01 2.333897031785157594e+01
-4.399600000000000399e+00 -1.191119999999999912e+01 2.526889999999999858e+01
-3.413330244959442261e+00 -1.201529183977668502e+01 2.389098903782684147e+01
2.149179101122252522e+00 -2.486462372591717873e+00 1.936321560606088354e+01
2.468420991066808678e+00 -3.547122865642954537e+00 1.943732088478881082e+01
-1.811139506281038480e+00 -1.133776866732664423e+01 2.267827891321416800e+01
-1.430051079599047981e+00 -1.108220924244248096e+01 2.240698874943031882e+01
-5.303583636550293079e-01 -1.015926204151733536e+01 2.168403225009669910e+01
2.156947554269248446e+00 -4.912925386051846921e+00 1.963132548553401335e+01
1.228499755476451183e+00 -8.220700204104662845e+00 2.059390107550272120e+01
7.748932858094198517e-01 -9.303852141999247038e+00 2.137936976046198723e+01
-5.550888545410070485e+00 -1.111021615299081233e+01 2.655135191870869704e+01
-2.678499959810750841e+00 -1.196550004890877084e+01 2.336910127546258664e+01
-3.488991875173975465e+00 -1.210504628757223244e+01 2.444300698903421676e+01
-3.707100259145486909e+00 -1.206227266198270875e+01 2.538132107158285322e+01
-4.812011850176085126e+00 -1.160186321237612539e+01 2.588636427412901142e+01
-1.873033342301178905e+00 -1.175875999394870774e+01 2.332656691668639226e+01
-8.883829367300242197e-01 -1.085658716223842113e+01 2.237212684731166590e+01
-4.403761687151583892e-01 -1.055417543100884892e+01 2.220280549763255706e+01
3.608656001221488552e-02 -9.841042911040137398e+00 2.153467144613910378e+01
1.654224199151798746e+00 -7.523857377776110411e+00 2.040250139697781862e+01
-5.457824106978483414e+00 -1.102522419654468777e+01 2.732985560602026709e+01
-5.659738358295856031e+00 -1.080639865908731423e+01 2.781098818729023492e+01
-3.598046305728658467e+00 -1.208365942778170776e+01 2.491216501419947704e+01
-3.886042855896382875e+00 -1.200753199171367847e+01 2.579920622364915772e+01
2.520024164236101871e+00 -1.773497360734578532e+00 1.940059310348648580e+01
2.973262415172748696e+00 -4.081339735166297444e+00 1.972869914396165925e+01
2.817481196180805281e+00 -4.764128586904685214e+00 1.982566135954980524e+01
2.639048059574548688e+00 -2.942296051950601399e+00 1.949743323570755749e+01
2.080084876570093666e+00 -6.826791421308588959e+00 2.021104046594717119e+01
-8.457291682176202308e-01 -1.121337254635785996e+01 2.282377460488286047e+01
1.262553724332295957e-01 -1.023614808099178575e+01 2.205375671808070592e+01
2.505899852422068363e+00 -6.129800241561530250e+00 2.001960006634895350e+01
2.661718764207070986e+00 -5.446842973144729427e+00 1.992261362383023737e+01
1.864107004815316104e+00 -8.225349181692211076e+00 2.089614298654023372e+01
1.423073989923108851e+00 -8.683657080110034343e+00 2.110671372704229753e+01
-4.927878042502720213e+00 -1.144828361640282388e+01 2.647309405278386052e+01
-2.559980027199457275e+00 -1.209845984426876697e+01 2.411507010074852886e+01
2.754778949666302434e+00 -2.399705903583515987e+00 1.948966635833936678e+01
3.129100000000000215e+00 -3.398299999999999876e+00 1.963170099999999962e+01
-1.067489661066746143e+00 -1.155200021818247258e+01 2.328402876600953775e+01
-2.100338211240089681e+00 -1.202885772189496016e+01 2.382971865116460108e+01
-3.503566077741782081e-01 -1.094925280413764312e+01 2.272179416108443206e+01
6.928877877278023512e-01 -9.918120402172904804e+00 2.190470790566108406e+01
2.058684823971956845e+00 -8.688242112334993550e+00 2.140889898043355899e+01
1.617594276380653007e+00 -9.146486381581107494e+00 2.161938491501948789e+01
-5.077067974445544252e+00 -1.128489932446113464e+01 2.697256028020594698e+01
-6.103725991742462220e+00 -1.043652128549034508e+01 2.853919248004294573e+01
-5.088134730636037162e+00 -1.110160140304612852e+01 2.784595160156654359e+01
-4.286564143082861378e+00 -1.184597931087612821e+01 2.602944159020105985e+01
-2.905900411335709865e+00 -1.223465549252813744e+01 2.502464941392511477e+01
-3.015095410276221966e+00 -1.221323736053208364e+01 2.549366180192654596e+01
-3.372325369088706726e+00 -1.210389405039088473e+01 2.632967829805264515e+01
3.528558543672103642e+00 -3.900497248843134201e+00 1.993573796856677305e+01
3.213049498657972958e+00 -2.770987021238692005e+00 1.961187855714437944e+01
3.296987464661512934e+00 -2.143762380044901050e+00 1.959205900855075910e+01
2.167696902186351249e-01 -1.063117104271567470e+01 2.257288715093800846e+01
1.216314577168611910e+00 -9.572669569536447653e+00 2.182686795099503385e+01
3.544893515818353880e+00 -5.238963358550852156e+00 2.027146100582904609e+01
3.359876947208360942e+00 -4.487766003813483451e+00 2.000342846960892018e+01
2.485859096957853787e+00 -7.288045251582254913e+00 2.066185286319775116e+01
2.361262429967498910e+00 -7.793485846193538791e+00 2.088750984690197399e+01
-5.162839559780122656e+00 -1.093263511769021434e+01 2.840309531841318957e+01
-4.759250277345981495e+00 -1.137039304769831283e+01 2.743982301042707306e+01
-2.441520180146819374e+00 -1.223135211762835617e+01 2.486066007763976060e+01
3.380924829200164350e+00 -1.516537913781632607e+00 1.957223925971273459e+01
2.822519572525726161e+00 -6.657666109415174560e+00 2.046586494034838211e+01
-1.071108380117319792e+00 -1.185000372630951126e+01 2.397325954582093033e+01
3.161507197362964039e+00 -6.074901369617681901e+00 2.030294696291630174e+01
2.499777346837842806e+00 -8.229999468537847918e+00 2.119841545215988532e+01
-4.494507183010098217e+00 -1.158185915416423839e+01 2.701111460936364139e+01
-4.173662879292220573e+00 -1.178083656443522997e+01 2.678907548157550522e+01
3.863265947763494079e+00 -3.348547967422992322e+00 1.988910214725202152e+01
3.735905899562599775e+00 -2.566594682292668850e+00 1.978180600166357550e+01
-2.602298779311787991e-01 -1.134480036378062451e+01 2.324140090998328390e+01
-2.018084803455015397e+00 -1.214654262472905266e+01 2.448542250414534394e+01
7.833610488537132710e-01 -1.031320013960094961e+01 2.242389021841556129e+01
1.349953807797188432e+00 -9.995228967441104118e+00 2.227489354703743984e+01
1.812097632313586004e+00 -9.609275399629703784e+00 2.213201148146993091e+01
3.928280075700205209e+00 -4.403024663509791381e+00 2.023997499026314628e+01
-4.563277850891891418e+00 -1.127348574056070341e+01 2.830531711698502306e+01
-2.323100000000000165e+00 -1.236420000000000030e+01 2.560600099999999912e+01
-2.756710405123929952e+00 -1.224445872734697716e+01 2.625131303042110176e+01
-1.522147153828314892e+00 -1.209221845058381994e+01 2.429035853102433506e+01
3.987035498880983742e+00 -1.865508286655168879e+00 1.981564961706840933e+01
3.138740874525980828e+00 -7.184868787052466566e+00 2.091156884777644009e+01
-1.418337464156973204e-01 -1.157921238145249276e+01 2.384933211043075829e+01
3.066342580494643144e-01 -1.102660104001096464e+01 2.309224008028886388e+01
