2.099680970788055845e+01 7.220958173386590850e+00 3.552773400351909316e+01
2.147070799493877402e+01 5.413650781213921626e+00 3.539652787645835730e+01
2.133059519777991397e+01 6.172746528466424465e+00 3.555975655139459946e+01
1.990658212167907948e+01 9.128802122134297647e+00 3.467042407161354589e+01
2.060220320572852160e+01 8.393849865458790305e+00 3.539122592761844288e+01
1.603556805505152383e+01 -5.200231624859859014e-01 2.789014146646010417e+01
1.673603570405771634e+01 -1.051414746702356462e+00 2.867387762889383040e+01
1.742335829351737786e+01 -1.601546089331663092e+00 2.947094452510857465e+01
1.873206151487638849e+01 -1.302524262908758779e+00 3.096427688128016342e+01
1.793911841666796647e+01 -1.688225863503007185e+00 3.004984719036955099e+01
1.964752907469745580e+01 -1.369857442341805065e+00 3.210316176192881699e+01
2.115606882221485918e+01 1.209183228371957686e+00 3.404904006546995276e+01
2.135977666585725743e+01 1.598775194730321481e+00 3.440691140484381805e+01
2.156887393695738808e+01 3.779326599007568621e+00 3.493307605878160871e+01
2.144139762204518718e+01 2.344315466068865650e+00 3.460271025569725367e+01
2.161091941927131899e+01 4.654374708000434069e+00 3.523329751181351810e+01
2.156624991837959016e+01 5.825182604693127431e+00 3.579397173724178316e+01
2.034903348043162197e+01 9.018343165927277028e+00 3.540010525694719945e+01
2.001140761730025375e+01 9.475823368156145676e+00 3.512697153773789438e+01
1.842100306579064650e+01 -1.960925823732857287e+00 3.065916651222569556e+01
2.032502462698435153e+01 -7.812823550133752848e-01 3.291501166699131176e+01
2.009223445176913003e+01 -1.401820403479673960e+00 3.267121468079461977e+01
2.096431790670987994e+01 -2.352831736803816798e-01 3.368405057045612949e+01
2.166706071310079196e+01 2.552972185754313728e+00 3.497937251444715656e+01
2.134755597672509708e+01 6.701258014090573312e+00 3.587917853300156423e+01
2.089926234935575522e+01 7.922257683147739371e+00 3.573009392591150402e+01
2.182434836068591011e+01 4.892344618399654621e+00 3.574812570848270354e+01
2.161633976726081130e+01 6.179666849481045610e+00 3.607826781628124024e+01
2.172361163040450904e+01 4.107002914690674800e+00 3.534357868235993294e+01
2.080132843146509458e+01 8.624845366464406027e+00 3.593280249150468109e+01
2.109031157624177766e+01 7.973482592538503333e+00 3.610160441853186342e+01
2.116179352266891556e+01 7.362055894182228499e+00 3.590071681055144381e+01
1.765926002378571269e+01 -2.239311192048978327e+00 2.977097399398658695e+01
1.894392283016316014e+01 -1.955207408486537402e+00 3.128848246722072801e+01
1.805478379621824914e+01 -2.252517185856393933e+00 3.024883173261643776e+01
1.941478958271542510e+01 -1.990885207581802652e+00 3.185946618676553399e+01
2.073162696164608931e+01 -8.559057383396359020e-01 3.344039137929372885e+01
2.137678006939176001e+01 7.675362494549002879e-01 3.436052375285826344e+01
2.125750465783318432e+01 -8.149508279079077655e-02 3.416311643487503602e+01
2.173291316145142460e+01 1.772951872448188082e+00 3.501461879354693707e+01
2.166961189285066425e+01 9.213694986902437600e-01 3.483901191503026240e+01
2.174054402111697470e+01 3.141925313139422027e+00 3.514845261707236546e+01
2.182722441848643413e+01 5.688963845877444747e+00 3.618950583906607932e+01
2.197314888298945945e+01 3.956008452374237372e+00 3.584252820215812818e+01
2.013849930682556533e+01 9.911930824852174027e+00 3.569248445192744867e+01
1.985925925124577773e+01 -2.022862052333114669e+00 3.242722326697831647e+01
2.183630353692242210e+01 3.559630865967652102e+00 3.545397465163316753e+01
2.191221647242068826e+01 2.504515561529434997e+00 3.536408971815992430e+01
2.203756151225675808e+01 5.130052035592965964e+00 3.626238998371252364e+01
2.205863488578033227e+01 4.501683778929321811e+00 3.615676491512747504e+01
2.137946105548910225e+01 7.321372923258506304e+00 3.627058624552521593e+01
2.115412896149188171e+01 8.195800383906721720e+00 3.641043503535121317e+01
2.046975035063577053e+01 9.268872638303649936e+00 3.581254350530156216e+01
1.872704310906666691e+01 -2.702122496844028277e+00 3.110617940051545816e+01
1.782831811793082366e+01 -2.760988322148225649e+00 3.002977321273291267e+01
1.827749685213173336e+01 -2.731565463196877985e+00 3.056775764965248499e+01
2.048153515229082089e+01 -1.661372728611588245e+00 3.319040594198478544e+01
2.018591987451695147e+01 -2.009165193545511929e+00 3.284298359359674180e+01
1.962653941900917332e+01 -2.643222457439210693e+00 3.218349785065431945e+01
1.917657958137046847e+01 -2.672684049996435718e+00 3.164458653225637264e+01
2.113823402388792161e+01 -9.305307648292586720e-01 3.396577348481287117e+01
2.162362481740382947e+01 1.111952339501003778e-01 3.476134977251088287e+01
2.196255365353276190e+01 1.075252450524104564e+00 3.531767077912826380e+01
2.200263350173213794e+01 2.899188854946045169e+00 3.565249403531730366e+01
2.059655189652936613e+01 9.202619689289535998e+00 3.610619736071990360e+01
2.093555665900026597e+01 8.761486487935915335e+00 3.633716466965515934e+01
2.195913760112295776e+01 6.019274003423790376e+00 3.660794851029954344e+01
2.166788068183528182e+01 6.670562763880919732e+00 3.643921387017638125e+01
2.225241231430310762e+01 3.989416337650091293e+00 3.644944834428000036e+01
1.999856068619769189e+01 -2.578258563407517912e+00 3.265275096373117947e+01
1.930289495106198672e+01 -3.092993327297211437e+00 3.182742862603963374e+01
2.092282343866035887e+01 -1.619791294108776425e+00 3.375006962209963035e+01
2.150448743182832700e+01 -7.413427639209174691e-01 3.456421807477175889e+01
2.208408828262850676e+01 1.866365928551622089e+00 3.558031645956616984e+01
2.206574600284046284e+01 3.266952563490277850e+00 3.587594625457050057e+01
2.039179622929915681e+01 9.779363890387546832e+00 3.627923865674987525e+01
2.073642808010220051e+01 9.281753896163692730e+00 3.646420014548135669e+01
2.225486056732353646e+01 1.919355526360059683e+00 3.595929840722389059e+01
2.225403752329978246e+01 2.610383608418357149e+00 3.612264262133973602e+01
2.225322150481335726e+01 3.300287607514906796e+00 3.628603242541883134e+01
2.225082004756423260e+01 5.367784599836555870e+00 3.677671547317521572e+01
2.225161157975429305e+01 4.678368758317133391e+00 3.661297214646322828e+01
2.162494177680470386e+01 7.192540975523423086e+00 3.672877544300190777e+01
2.141360425646955434e+01 7.873817973704181128e+00 3.675699657463741232e+01
2.194326432719089226e+01 6.636487683199751686e+00 3.703494961420930309e+01
1.846643000440911919e+01 -3.362220954979168397e+00 3.084139115107487328e+01
2.037063771378842247e+01 -2.513287686290545331e+00 3.312207177631817956e+01
1.976287230185680954e+01 -3.231341806646647274e+00 3.240301403488087573e+01
2.186563935800699809e+01 5.393295922477566728e-01 3.515772935642198149e+01
2.225568748063401259e+01 1.229228815743126813e+00 3.579663352963974887e+01
1.897889822189953790e+01 -3.543256220913488352e+00 3.147097154771237371e+01
2.119211810493460746e+01 8.424384679276119670e+00 3.666582132922039250e+01
2.106969695553546984e+01 8.898106658350911857e+00 3.674151700356124906e+01
1.999601271450693218e+01 1.045591050511053766e+01 3.601249150101349272e+01
2.249939756096333099e+01 2.610967278784168233e+00 3.668182468434643084e+01
1.803798741717393384e+01 -3.461497885833438204e+00 3.033348910199842408e+01
2.074247782894628145e+01 -2.448357984116769082e+00 3.359109070820363740e+01
2.013493671222773429e+01 -3.166433698117077977e+00 3.287232436285086123e+01
2.131189715452919131e+01 -1.624762821563655368e+00 3.424708617166224656e+01
2.199883336867982209e+01 4.612629594901962449e-02 3.537360580298046386e+01
2.187047031910024941e+01 -5.451474015981665477e-01 3.516223448194668322e+01
2.212726131859230705e+01 6.376849695248225647e-01 3.558508114581900372e+01
1.943906398216878273e+01 -3.681415783931767827e+00 3.204677210503410123e+01
2.068600706034445480e+01 9.767190013206414889e+00 3.685696756262064611e+01
2.018353240761496892e+01 1.035711491892875458e+01 3.645254674478320567e+01
2.244488980683010837e+01 1.441769203605306693e+00 3.627817242144926269e+01
2.242930612382870592e+01 2.061730663235582739e+00 3.639071574010922916e+01
2.248022952651928108e+01 3.347783868101650739e+00 3.681470677348310971e+01
2.209631586300017858e+01 6.002415235828230777e+00 3.690589433802019670e+01
2.179252498904537205e+01 7.269515866633752488e+00 3.716377911129854539e+01
2.135563227878401449e+01 8.400439045109266090e+00 3.701707818211234979e+01
2.174213501398313042e+01 -1.136303639328567927e+00 3.495090626416097024e+01
2.161380057539226840e+01 -1.727463784266121793e+00 3.473957710789578357e+01
1.865536384737747966e+01 -3.992877614201026493e+00 3.111502272842180972e+01
1.913209841111923737e+01 -4.203279931734583919e+00 3.171757156066529859e+01
2.120336341007029901e+01 9.034737332479604532e+00 3.714594687218507829e+01
2.263396010875625208e+01 1.654149268748766222e+00 3.675953318789168378e+01
2.250307850586123237e+01 8.396414036594089803e-01 3.631734627862531539e+01
2.232747580374381258e+01 5.568246215462781201e+00 3.714933635493559194e+01
2.240298190767652642e+01 4.710194909608683922e+00 3.696557770460644576e+01
2.255506322554182930e+01 4.052958236519939916e+00 3.715439552551635671e+01
2.164148795265316494e+01 7.902770551691844503e+00 3.729264744088924743e+01
2.111429907917266391e+01 -2.383434482472946758e+00 3.406008289110641840e+01
2.053410439953693611e+01 -3.218855788844130039e+00 3.338530293958183393e+01
1.989923449459504923e+01 -3.819579813172078175e+00 3.262257519495842928e+01
2.213184707315860322e+01 -5.586592365499186696e-01 3.558212845110266187e+01
2.241629139869213461e+01 4.420954568688298947e-01 3.604783378574452968e+01
1.955187023999991069e+01 -4.167587208129291731e+00 3.222836554269801468e+01
2.148973899840995472e+01 8.537259044570509658e+00 3.742176012775590976e+01
2.035605645311667544e+01 1.044583591869866979e+01 3.689058728498240924e+01
2.272228185863854932e+01 7.912004437032686965e-01 3.682702448834160691e+01
2.264930093085403584e+01 2.926923084357311744e+00 3.709907954315283263e+01
2.217927690544988195e+01 6.135857600111884302e+00 3.723838617227481507e+01
2.255589949675314188e+01 4.758301710293697084e+00 3.752523583258384576e+01
2.212879130757547586e+01 6.703261378277159288e+00 3.757945771457072226e+01
2.189987429358897941e+01 7.418789321729550856e+00 3.757100837649478109e+01
2.228781866245437371e+01 -1.492443574489497049e-01 3.583629183442042887e+01
2.028492874287423220e+01 -3.813080862673220661e+00 3.311379887230761199e+01
2.148546840812162273e+01 -2.318625717128171004e+00 3.452824950000000115e+01
2.189853517102422487e+01 -1.677124061317509351e+00 3.519756241196694191e+01
2.210698517588351208e+01 -1.183374132911815257e+00 3.553678693888115703e+01
2.270724772315830720e+01 3.395274814158999011e+00 3.734340853850302722e+01
2.097976725029645095e+01 9.755016059889669577e+00 3.743484461667724617e+01
2.133531398828887404e+01 9.171504074912535387e+00 3.755081723176014208e+01
2.282054100167503563e+01 1.261851235336554078e+00 3.713583196178951340e+01
2.272273628634886578e+01 2.427794058728077076e+00 3.714683345947475601e+01
2.240421583758573121e+01 5.768877298258821007e+00 3.752242418909763444e+01
2.182596657555145825e+01 7.971830737358812868e+00 3.783724480281807701e+01
2.122295456954549664e+01 -2.853652050919923688e+00 3.423514354849397989e+01
2.096025588425566610e+01 -3.389054744944409059e+00 3.394183040412073638e+01
2.183840889748886127e+01 -2.219035760967909887e+00 3.509626558334893787e+01
2.261718164098786232e+01 2.649339670797988822e-01 3.649335363390814280e+01
2.257680823404039216e+01 -3.446140311118487398e-01 3.629898076069487445e+01
2.069757421548576914e+01 -3.924425024179027055e+00 3.364853585116662771e+01
2.043492504644626351e+01 -4.459728706778534502e+00 3.335527695447854057e+01
2.268795209531928592e+01 3.982259122295720655e+00 3.758196108913479350e+01
2.062409097149626191e+01 1.033792388208763668e+01 3.731904038084567077e+01
2.158069031753287703e+01 8.571901977681649853e+00 3.769397259501095476e+01
2.282283845325323668e+01 1.866300377693706380e+00 3.724052478691368151e+01
2.285951562614209820e+01 2.737234386125781960e+00 3.753261444757634990e+01
2.207018134396755826e+01 7.371323249443231695e+00 3.798062738330290955e+01
2.239212874547203569e+01 -8.135473395451351397e-01 3.599817681148294213e+01
2.003563634656541836e+01 -4.407986714924689409e+00 3.284219849988554074e+01
2.073525640278580795e+01 -4.469373525016101745e+00 3.377486621261384414e+01
2.103261184056535527e+01 -4.181076851545029172e+00 3.414993337022839626e+01
2.219135345929314695e+01 -2.119446951175520955e+00 3.566428181852103307e+01
2.286025770429234427e+01 3.443394321728166840e+00 3.790315815593502435e+01
2.299295819697466570e+01 1.412306072010246272e+00 3.756764177354019552e+01
2.301191046187210176e+01 2.078649285333979968e+00 3.772209518214025792e+01
2.255658522458100279e+01 5.358118613816713172e+00 3.784075991547806694e+01
2.278454197026064421e+01 4.124915703635686270e+00 3.799404669840392046e+01
2.248083173766845277e+01 5.969113486559654902e+00 3.789489930457074252e+01
2.231433734040410144e+01 6.770028033138306256e+00 3.812420441356186274e+01
2.191168200011706091e+01 8.093421759614457756e+00 3.828443740813025187e+01
2.132584327280417469e+01 -3.482338921293565370e+00 3.446363507542676530e+01
2.158844898277973101e+01 -2.947113664777822883e+00 3.475684105987477324e+01
2.185905996881849234e+01 -2.739334280785482800e+00 3.517979337831280162e+01
2.246828278305064686e+01 -1.416683411307573470e+00 3.611534558786683391e+01
2.275648129776551798e+01 -4.651781028573667154e-01 3.670360239882630538e+01
1.973912375223402549e+01 -4.975102606571225827e+00 3.252984449275803769e+01
2.017190054590233572e+01 -4.995800793163024167e+00 3.306159880612228363e+01
2.086260543856534611e+01 -4.930553616311160070e+00 3.401472582367668451e+01
2.270884566676100391e+01 4.806405815469643628e+00 3.808511652621504595e+01
2.293604111170549231e+01 2.761363161808070288e+00 3.781246707861851064e+01
2.107217735888824350e+01 9.758866960537689650e+00 3.774370614453394523e+01
2.080825331180302484e+01 1.034571843004160385e+01 3.793640571094202585e+01
2.142987645289615273e+01 9.307541198122137871e+00 3.804744705758403711e+01
2.297402653979345999e+01 7.464994862186010716e-01 3.741413366272134766e+01
2.280134015242530410e+01 3.054201622300863062e-02 3.689006363157955803e+01
2.263317078839194352e+01 5.487890165733292136e+00 3.817631837947312334e+01
2.051751064856382811e+01 -4.963151083362625116e+00 3.353851890877848518e+01
2.120758368581781284e+01 -4.897969693252241186e+00 3.449076936334108723e+01
2.254443832529932834e+01 -2.019820918698373546e+00 3.623251675738656274e+01
2.273766407478636253e+01 -1.132987577663606027e+00 3.655065808991811593e+01
2.171371627235435398e+01 8.761261494891860124e+00 3.838958034995079061e+01
2.040520327676266987e+01 1.092730904134108627e+01 3.766612294743356415e+01
2.295510250433692079e+01 8.079028123889693547e-02 3.726125300868290680e+01
2.237247456300960735e+01 6.851108539462134495e+00 3.842232274332866382e+01
2.218581161240145150e+01 7.532687529328418563e+00 3.857699502182084927e+01
2.255801495224423192e+01 6.169431355978194809e+00 3.826762535102497509e+01
2.185672573891548609e+01 -3.193472400013101176e+00 3.521938489811036987e+01
2.169143429304766713e+01 -3.575627312765994770e+00 3.498544150146872767e+01
2.143916792350356815e+01 -4.173824156346925385e+00 3.471516970332166352e+01
2.065114802785578263e+01 -5.802377850964803407e+00 3.386203097376949245e+01
2.098645962302822099e+01 -5.516303856890362844e+00 3.428319293750796959e+01
2.238665824393354242e+01 -2.563365933320619128e+00 3.602629621768916479e+01
2.289824107318439417e+01 -1.919994865652378868e+00 3.680189964115898249e+01
2.288914408844221171e+01 4.334036642147894192e+00 3.837830390866279373e+01
2.312285144875886900e+01 2.427686337333169853e+00 3.818498756625401569e+01
2.118798142866866030e+01 9.815004686599436923e+00 3.817252517257912814e+01
2.054267406809056595e+01 1.093302694924989993e+01 3.812923885649872346e+01
2.313664115933919518e+01 1.297634561148402366e+00 3.795257209220542194e+01
2.324558895063288944e+01 1.625231120263437967e+00 3.840257204266442415e+01
2.291719220953693537e+01 -1.253085571224820560e+00 3.695501266084288261e+01
2.310819397712867129e+01 2.989593786907605022e-01 3.772250149533402919e+01
2.287226293838246605e+01 4.952816317445240202e+00 3.860567527431846457e+01
2.199734562731948273e+01 8.214967145186346187e+00 3.873182442987809537e+01
2.152430182162203209e+01 9.443524928848045619e+00 3.854431705034423317e+01
2.211541069033535933e+01 -2.983242880035269273e+00 3.562258404215585017e+01
2.293615744177482085e+01 -5.857424619647739750e-01 3.710822497326962122e+01
2.269798859502223110e+01 -2.502817378976707197e+00 3.652993880699048646e+01
2.271481301939586572e+01 5.561414736066437214e+00 3.843657402619781749e+01
2.302379732911030530e+01 3.589147686248488789e+00 3.842340980155925223e+01
2.326946671684181567e+01 2.150993284226843105e+00 3.861392909158814035e+01
2.315638311554633688e+01 -5.918721715983594756e-01 3.772375228116781187e+01
2.326129214396885558e+01 5.171196987354526042e-01 3.818377676535147458e+01
2.101300105129738682e+01 1.027844967091641770e+01 3.842281606600255373e+01
2.180829144565116096e+01 8.897351923097161830e+00 3.888667713683431515e+01
2.121770577895852838e+01 1.021112880989998395e+01 3.890952070958392994e+01
2.161855950584129715e+01 9.579468538589804183e+00 3.904146937257352334e+01
2.233133858227920499e+01 7.407797315170941310e+00 3.893491118990610289e+01
2.199449710358312515e+01 -3.621935444492654366e+00 3.548578171675223558e+01
2.179442022254496436e+01 -4.204141480422581623e+00 3.521404168359926246e+01
2.338617597401204051e+01 -2.648582806584097726e-01 3.841600720130587376e+01
2.305725819267903987e+01 -1.101998650207909769e+00 3.736975570033499139e+01
2.260211381122892504e+01 6.434446932735540692e+00 3.872857890534693581e+01
2.188716686881408080e+01 8.925016685107102887e+00 3.919418927401019914e+01
2.215478450087083573e+01 8.271473293335565913e+00 3.934677209761026973e+01
2.296658078740484399e+01 -2.563746874309727364e+00 3.703937907427030751e+01
2.249770637195927137e+01 -3.085732502694881418e+00 3.625793688430734818e+01
2.209755899675638346e+01 -4.250353373313123129e+00 3.571449436884620354e+01
2.229756263155667995e+01 -3.668243565676070350e+00 3.598612093053638716e+01
2.305159754130653127e+01 -1.701186039607275102e+00 3.726401299362868258e+01
2.302966816521683668e+01 4.344404033416719990e+00 3.877471499865382754e+01
2.281081036050251853e+01 5.622982092186641800e+00 3.895412519601489265e+01
2.323385602744860279e+01 2.776832582741087574e+00 3.864880987105930643e+01
2.332495385791226994e+01 8.722875211168904519e-01 3.848610848945392604e+01
2.340019276911592527e+01 1.735758638339264914e+00 3.895450431867926966e+01
2.320464039241636556e+01 -1.482839853682884179e+00 3.772516816826338015e+01
2.264596582624788823e+01 6.699559640921985526e+00 3.919015489393640195e+01
2.274291264517452760e+01 6.156244484283125651e+00 3.914053798573244336e+01
2.081548509314711382e+01 1.084270047525446579e+01 3.877776484408219915e+01
2.132629005135734346e+01 1.015632866511514187e+01 3.922795736880082274e+01
2.242167201096320639e+01 7.618390155084671989e+00 3.949933027142843400e+01
2.189743353055446562e+01 -4.832819419924337723e+00 3.544270099999999957e+01
2.277380418625801539e+01 -3.048321500393393446e+00 3.676444029928083523e+01
2.237832867803937376e+01 -4.214542878310746588e+00 3.622995772246699886e+01
2.296405113163899614e+01 4.906371906585971665e+00 3.899963734388647651e+01
2.318736651978241170e+01 3.734873827540620361e+00 3.894405584595719461e+01
2.161880200488768367e+01 9.793071977448388310e+00 3.965627712169671781e+01
2.335766448584278976e+01 -1.264536146157990260e+00 3.818625085184797285e+01
2.342783934269939650e+01 1.040971040124101465e+00 3.887629409149290893e+01
2.345549278523521863e+01 3.461726658175183213e-01 3.879929687060905508e+01
2.103274363613336106e+01 1.073250727961594464e+01 3.941423281295023173e+01
2.192852422630991782e+01 8.976858973236884864e+00 3.965513411795096488e+01
2.188762460516855768e+01 9.245556476951110270e+00 4.011297097787558386e+01
2.221609387863737339e+01 -4.748250267581710204e+00 3.602018892965440244e+01
2.312593068353644554e+01 4.404634354692768206e+00 3.929231099533733840e+01
2.301641631468227089e+01 5.044322340807219973e+00 3.938210987614544933e+01
2.290685019332556749e+01 5.684498681900031158e+00 3.947206344522118115e+01
2.334490193525062551e+01 3.125984305470207669e+00 3.911320492991544029e+01
2.132640387804318038e+01 1.026279053215637482e+01 3.953511425248768063e+01
2.268833812294894869e+01 6.964680279713189925e+00 3.965214328772901808e+01
2.242184702099300253e+01 7.725514196913613851e+00 3.980614552907992021e+01
2.215513445097532852e+01 8.485407585013181375e+00 3.995953808527244888e+01
2.337254848593868317e+01 2.430707879673323912e+00 3.903355718172315392e+01
2.348318414730102432e+01 -3.494236128570925581e-01 3.872356738217021643e+01
2.351091613862396912e+01 -1.045928084441795081e+00 3.864799948698734511e+01
2.279702875253052596e+01 6.324685956457409830e+00 3.956209081327762789e+01
2.122822624321753793e+01 1.063270011655244041e+01 4.010958161056402105e+01
2.161897936552836796e+01 1.000628636149497552e+01 4.026652294999144033e+01
2.057412285705060384e+01 1.139160021025178970e+01 3.912312034004686012e+01
2.083503542580846002e+01 1.125850184198754711e+01 3.994795148523620298e+01
2.073705727456405512e+01 1.130838867142921345e+01 3.960042305335030477e+01
2.317091365487560140e+01 -2.590250422378866269e+00 3.766863114368924670e+01
2.303497434583940517e+01 -3.208005240740408937e+00 3.727704480395614439e+01
2.267548023204855312e+01 -3.832444885122952893e+00 3.671639849452117232e+01
2.320798905750165986e+01 4.579001541692667487e+00 3.982781467095652062e+01
2.323539047906420763e+01 3.765407261763966229e+00 3.920269316318836417e+01
2.326359711339721770e+01 4.043965204729207841e+00 3.958824752640142464e+01
2.218645425021581374e+01 8.574365627575010862e+00 4.062676937144082245e+01
2.190344337075940473e+01 9.289903849978342620e+00 4.044675319203183506e+01
2.345640518272809061e+01 2.361801156118970013e+00 3.943054155315406462e+01
2.356797803602658803e+01 1.597147050830849402e+00 3.974862518224885122e+01
2.328985343650381523e+01 -1.954652887269499040e+00 3.800718847984248328e+01
2.344298836033671307e+01 -1.736203912349558731e+00 3.846859838287429767e+01
2.253468938372496311e+01 -4.663699512756466881e+00 3.659755410627597882e+01
2.305136981206945990e+01 5.564404655897252638e+00 4.002448800390196482e+01
2.336853491177227582e+01 3.472374712596649093e+00 3.954023448610567470e+01
2.339220722884417825e+01 3.818742370843847045e+00 3.996784967515724674e+01
2.257830242290150835e+01 7.412038677030358791e+00 4.022934222763681333e+01
2.286867574839298456e+01 6.264001990873241610e+00 3.983846823510785384e+01
2.274383766638197102e+01 6.763842295122825199e+00 4.022614896876517321e+01
2.134024903564839093e+01 1.005303435963356229e+01 4.064694457060166854e+01
2.117313134192137269e+01 1.052844551577333654e+01 4.038052021057848862e+01
2.072517167513087344e+01 1.104970729205667013e+01 4.049442230507627727e+01
2.348079499755545996e+01 2.643717576024824822e+00 3.981730159402000169e+01
2.357016940989938902e+01 -5.204473486396762882e-02 3.924926669391162193e+01
2.360436669020407052e+01 -6.748741838662817294e-01 3.922865256359570196e+01
2.356872487026073770e+01 -1.695471365312350986e+00 3.889970942995242353e+01
2.066999768531426795e+01 1.083221474704054543e+01 4.081756385762781747e+01
2.106166486687831707e+01 1.009557994117073676e+01 4.102700214654115740e+01
2.153226960289916647e+01 9.350688329662281362e+00 4.095350595082619805e+01
2.317114435656307236e+01 -3.255859596556845315e+00 3.769767108310809078e+01
2.310331536564639521e+01 -3.851771769633411058e+00 3.751452824532893260e+01
2.323398589705740847e+01 4.864984270299681945e+00 4.021025295061186711e+01
2.265649621689823690e+01 7.120350097087298380e+00 4.072457091030240406e+01
2.284662312447695953e+01 6.381418697180786914e+00 4.064250541655120941e+01
2.290573719441513134e+01 6.137345237895816652e+00 4.025747655724657648e+01
2.246815107231920194e+01 7.859464705882352575e+00 4.080662705654622613e+01
2.200084246091980589e+01 8.605984310511967550e+00 4.088006562401913868e+01
2.108688734245980712e+01 9.854627191270161291e+00 4.140311140558044656e+01
2.042305000075382537e+01 1.073771114545085936e+01 4.121035367042573938e+01
1.978066130369188258e+01 1.138006444648567772e+01 4.139354223009510036e+01
2.053076567695890375e+01 1.054936447787127385e+01 4.142771724965489000e+01
1.999801160665571587e+01 1.100966402447238401e+01 4.182862110838676983e+01
2.345307373944774199e+01 3.207258998298483821e+00 4.000296067707049730e+01
2.359307848918911787e+01 5.292694328053471065e-01 3.954256402050405228e+01
2.354107491578309563e+01 2.798396698898829804e+00 4.039043480201135594e+01
2.360362230898744684e+01 2.115312277106929706e+00 4.038810094327242695e+01
2.337506674785886318e+01 -2.426466075259793520e+00 3.828920710317186149e+01
2.285325525635580135e+01 -4.579157329849175007e+00 3.717485971560762437e+01
2.330723727929181166e+01 -3.115812714029583930e+00 3.811005254436260259e+01
2.365194047108778364e+01 -1.497892379394909490e+00 3.940053170138114780e+01
2.369773025480802886e+01 -3.042537745274747074e-01 3.980867144898195420e+01
2.369552799862612957e+01 -9.709546440494304376e-01 3.971459267789671088e+01
2.323940899017629391e+01 -3.805171321752433666e+00 3.793089574587810375e+01
2.303663533120709062e+01 5.642863088168764030e+00 4.056043550123242625e+01
2.341595753935301261e+01 4.165429898046547841e+00 4.039600985567404479e+01
2.289637425257792103e+01 6.504397978473884123e+00 4.101111382173260722e+01
2.268143701867464657e+01 7.181622775297514139e+00 4.090892465542459888e+01
2.201712370338952951e+01 8.445858861704978793e+00 4.113078265475601825e+01
2.156923070246401508e+01 9.029733630733865368e+00 4.145502372271833025e+01
2.231759940049715496e+01 7.990811687453216905e+00 4.148931511731256450e+01
2.256967057739639415e+01 7.281839688651049691e+00 4.142093464445315476e+01
2.056892699042130346e+01 1.023495328244199776e+01 4.192894137026794255e+01
1.914790256177353100e+01 1.202477773867150468e+01 4.157689120462178778e+01
1.946462575862468469e+01 1.147157149999999959e+01 4.222897125797628348e+01
2.367967408012320973e+01 8.316520444305811610e-01 4.006815628246800287e+01
2.362123846105138369e+01 2.700664925345569678e+00 4.082055250140562919e+01
2.366613257524323188e+01 1.432784767977857809e+00 4.038659998324671818e+01
2.350146197600268039e+01 -2.293937541377327083e+00 3.871525595183928203e+01
2.267641835330382349e+01 -5.485558576010844511e+00 3.709628846001184144e+01
2.317156768419739166e+01 -4.494684830754730243e+00 3.775170028619942286e+01
2.338189994816022477e+01 -3.591643689545904294e+00 3.840608657632271417e+01
2.349640628631531669e+01 -2.958471376628338589e+00 3.875099062337364586e+01
2.001723165711117858e+01 1.085337053975133337e+01 4.207898980363849972e+01
1.603763181680285044e+01 -7.102683527887668213e-02 4.864588555109427404e+01
1.639696350000000180e+01 8.150060000000000082e-01 4.892072100000000034e+01
1.578563787314632449e+01 6.036432061409726657e-01 4.923082056434748921e+01
2.322666328637326671e+01 4.904188899514283939e+00 4.047828243691554206e+01
2.282211807684809912e+01 6.570994397016057142e+00 4.135241764514444895e+01
2.307419442267910625e+01 5.860485680347557569e+00 4.128395220133278798e+01
2.311129980534794726e+01 5.827199192329187483e+00 4.111327139745133508e+01
2.171821177866648966e+01 8.802393518288651464e+00 4.163424981196629204e+01
2.112110053697837486e+01 9.617065158556277638e+00 4.177900902441501074e+01
2.347849773311446953e+01 3.481993874559798918e+00 4.039325518083022359e+01
2.379126118996329708e+01 6.691124915257427863e-02 4.038959849999999818e+01
2.372867250092101088e+01 7.500613364478294631e-01 4.038667234890871072e+01
2.362647143789297033e+01 -2.344312770761776576e+00 3.915114927292030700e+01
2.292396856014402573e+01 -4.990169924558452763e+00 3.742396207945750319e+01
2.331403554539941680e+01 -4.281116558908486525e+00 3.822681664329854812e+01
2.378135117607596882e+01 -6.745158508908148942e-01 4.024231724318789816e+01
2.377143727207036150e+01 -1.416843833301297151e+00 4.009485494066436928e+01
2.359928231081608629e+01 -3.853565519699435171e+00 3.917805280680205726e+01
2.018379218648478002e+01 3.331809346706271047e+00 4.571639271380186642e+01
2.024956249999999969e+01 4.196881000000000306e+00 4.595547443898108497e+01
1.986738738650948477e+01 3.651652527034449314e+00 4.635045361001802888e+01
1.948511199999999732e+01 3.106281000000000070e+00 4.673192250000000314e+01
1.980166978559853774e+01 2.786250466134136961e+00 4.610044777265585481e+01
2.053696958345094714e+01 4.815142531058036468e+00 4.560285814085131051e+01
2.082798749890613266e+01 3.810085465280696582e+00 4.492287970179373247e+01
2.047307643336874250e+01 3.138476945878208468e+00 4.520615453536640160e+01
2.089845528392131513e+01 3.145775955126695056e+00 4.490868797677730129e+01
2.011023992053744536e+01 2.466450000000000031e+00 4.547147744554366255e+01
2.057849867860934268e+01 2.140698696141795310e+00 4.517141067689457401e+01
1.886213082781791428e+01 1.186528517796974747e+01 4.254930749422408098e+01
1.889673466934840462e+01 1.157766766840272510e+01 4.290726881037279128e+01
2.005165557770328277e+01 1.056537219870652322e+01 4.243676599611038114e+01
1.951619449999999745e+01 1.104018049999999995e+01 4.276608482822663149e+01
2.006062748860388822e+01 1.051283917731716677e+01 4.258907565493124991e+01
1.843158540036294823e+01 1.590086902939734426e+00 4.732870498997194630e+01
1.854546328955711587e+01 2.200631340173930361e+00 4.750677057271190051e+01
1.802950682027245932e+01 1.819444418542230046e+00 4.787263229619773597e+01
1.937548797448303972e+01 2.219143871189572792e+00 4.646910186202033088e+01
1.890580313636807830e+01 1.766550806226082848e+00 4.685365682704303936e+01
1.926423219821245780e+01 1.332700650568966250e+00 4.620353655861131870e+01
1.968704821888369239e+01 1.899508431615165804e+00 4.583673543249205551e+01
1.901554254365100505e+01 2.653702065357664619e+00 4.711913643722318312e+01
2.016002585370478073e+01 1.772832075261328688e+00 4.552285099957471459e+01
1.695520214097395950e+01 1.126598457692632227e+00 4.857964314536052086e+01
1.670544311889570466e+01 2.120840648937826201e-01 4.830951040631922666e+01
1.751351250000000448e+01 1.438230999999999815e+00 4.823852150000000449e+01
1.734701086480674803e+01 8.285929937810944113e-01 4.806009166724972914e+01
1.785877488255444234e+01 9.038682179152885965e-01 4.760149679247326304e+01
2.337147749965614807e+01 4.657743109870677856e+00 4.080575868748825030e+01
2.332625050000000044e+01 5.149913856847086358e+00 4.121541885720365173e+01
2.192843648367530918e+01 8.481820359815300137e+00 4.173799366433850366e+01
2.250775315725735481e+01 7.361582472788844811e+00 4.158538216643893293e+01
2.208661000000000030e+01 7.815219532517143186e+00 4.191754555885169964e+01
2.058645920332891066e+01 1.009114687854309267e+01 4.210784209939733813e+01
2.114657433574444312e+01 9.458851211731570174e+00 4.223510026679258544e+01
2.060378589212959000e+01 9.985710985000743278e+00 4.241210103162977418e+01
2.065997999133115570e+01 9.850532063776828551e+00 4.252810193445651521e+01
2.094039275893711505e+01 9.074662231529430301e+00 4.271199204688424089e+01
2.132288936590558848e+01 8.649418949727348149e+00 4.244711415163924073e+01
2.153896736164101355e+01 8.971701345642792091e+00 4.198673124249009447e+01
2.146145746622059747e+01 8.911805630048123206e+00 4.212930396990437742e+01
2.135870601239642497e+01 8.057185802548138653e+00 4.282925437249401313e+01
2.121347148162210772e+01 8.509391153928817175e+00 4.267002550975495723e+01
2.095860089220504108e+01 8.734320593649814057e+00 4.307053207539578921e+01
2.125450751060186860e+01 7.937362478495021634e+00 4.305989942837849327e+01
2.048141366644831152e+01 9.463747279332013207e+00 4.322002941236134888e+01
2.175074147941667846e+01 7.378655782735183521e+00 4.258473823984358120e+01
2.148622008653821780e+01 7.945100421954540693e+00 4.262763239705896012e+01
2.170477640703071742e+01 8.226072505130888501e+00 4.218244954255212065e+01
2.349362590785694138e+01 3.845115623504948843e+00 4.122832100101116737e+01
2.351857919087476034e+01 3.433175360854401337e+00 4.060842544655931619e+01
2.147529043997457876e+01 5.345410368147892832e+00 4.380866460069746893e+01
2.139218714629383555e+01 4.474135810596581386e+00 4.409615103960889115e+01
2.166363284581516879e+01 4.772901047802200480e+00 4.365810409239100665e+01
2.123116990279067551e+01 5.335145137799341519e+00 4.414496576548303608e+01
2.160844775565336207e+01 4.194292715887439016e+00 4.385488564189171257e+01
2.082436297967747052e+01 5.433380581365748974e+00 4.524258283441773898e+01
2.102956379122532482e+01 4.572557664339472971e+00 4.453268312277989338e+01
2.127822612243769029e+01 6.105691437631922014e+00 4.390201130200943425e+01
2.082617499988091225e+01 4.621733303328753983e+00 4.508369809031535880e+01
2.357729798767971374e+01 3.192799051537175359e+00 4.123459529345167596e+01
2.371039284798327529e+01 1.613568849673221006e+00 4.075384155735930847e+01
2.372377678097481635e+01 1.969029653183426154e+00 4.103245693893337886e+01
2.312780347454388874e+01 -5.224714398076126365e+00 3.799779771871246226e+01
2.376154128049025260e+01 -2.158442695332850825e+00 3.994754569819520640e+01
2.368412855197189870e+01 -2.992156252680969519e+00 3.940219889549116772e+01
2.345656205260265992e+01 -4.067476778556444295e+00 3.870211789560791260e+01
2.119036742559755027e+01 3.712058434418307851e+00 4.448920640431707341e+01
2.155305020474306943e+01 3.613949882814823766e+00 4.405137263926557267e+01
2.099129494963024811e+01 6.092312062276988627e+00 4.493754710542906139e+01
2.096901512525341005e+01 2.480589184651154078e+00 4.488576795375408324e+01
2.138190409230590561e+01 3.014159661911365973e+00 4.432180303795624354e+01
1.975919156058207449e+01 8.593042577206528865e-01 4.592052382453061909e+01
2.171464451039838295e+01 5.349443287039576944e+00 4.346124562206656350e+01
2.152234805762814318e+01 6.116143753282041295e+00 4.357229659423757084e+01
2.163455438806527553e+01 6.243269513420536043e+00 4.325609594719918505e+01
2.143802271324372555e+01 7.008661251186725671e+00 4.336149089218129404e+01
2.132531985710970446e+01 6.876874763542858204e+00 4.367125222402121665e+01
2.039521149999999849e+01 9.697759000000001350e+00 4.361580828377449137e+01
2.118074605745376360e+01 7.595270976465925195e+00 4.364445463528969782e+01
2.115556358800586878e+01 8.074977931128973552e+00 4.422097115752873719e+01
2.103625149999999877e+01 8.313271499999999037e+00 4.361537444748752534e+01
2.129352278275683474e+01 7.726387919193607345e+00 4.333178025754537543e+01
1.827058654938013049e+01 1.211507880409096671e+01 4.304648165155082751e+01
2.047215511985929837e+01 9.636203979118628027e+00 4.304133956442713327e+01
2.000349350444663088e+01 1.019742455714741425e+01 4.336962431280699093e+01
1.873395462290341484e+01 8.516330478309674934e-01 4.658414947818337026e+01
1.923796661998565583e+01 6.066779581209915673e-01 4.627943258169378993e+01
1.853034821515699093e+01 -3.583544672471083992e-02 4.678966145981969760e+01
1.718046226957839906e+01 2.187813889141425605e-01 4.787706442025501019e+01
1.701394936915160372e+01 -3.908946958340494549e-01 4.769537539879348031e+01
1.634594006388651621e+01 -6.740556684409579891e-01 4.803819050531579649e+01
1.760904261086241362e+01 -1.056847168234528733e-02 4.733016652369950350e+01
2.155049700000000001e+01 7.138869719141060166e+00 4.304809681042892322e+01
2.190447145176239019e+01 6.719309698213737470e+00 4.265509513099940619e+01
2.177206563983802212e+01 8.363732504482319641e+00 4.202339300431203384e+01
2.228673662410693268e+01 7.048260772412755060e+00 4.203740349511639351e+01
2.205818748348312042e+01 6.063914464243854496e+00 4.272506490190293960e+01
2.206488627468516484e+01 6.750931777830737168e+00 4.248314061962083343e+01
2.237777072181364701e+01 6.128806611280411154e+00 4.238088135081829222e+01
2.221218691770756237e+01 5.415163303588183652e+00 4.279448163091720403e+01
2.268755008902449077e+01 5.512190034927828108e+00 4.227743114105503253e+01
2.248723607273343816e+01 6.279870961909542970e+00 4.215747790360644132e+01
2.288872907426645043e+01 6.100841348431098154e+00 4.177781813796885757e+01
2.269818181600195217e+01 6.731418528122668832e+00 4.168157790396033135e+01
2.233451594312410293e+01 7.229651304051052385e+00 4.190667665894477523e+01
2.052337199141775415e+01 9.600099213998088743e+00 4.284658780065345240e+01
2.099740831311543587e+01 8.523891918973461657e+00 4.334292415793984077e+01
2.071563636480344428e+01 9.005720718442596251e+00 4.361582616592719575e+01
2.340990485447700920e+01 4.497789637303802657e+00 4.122191375627900811e+01
2.283090033135052366e+01 6.057133312926572977e+00 4.188487901194005758e+01
2.258260016698856987e+01 6.643657601823452552e+00 4.189578940707092869e+01
2.189553672543963714e+01 4.635655018051417997e+00 4.346568631586657716e+01
2.196337006024843319e+01 5.377662691044967858e+00 4.312769047391530108e+01
2.222632199772390393e+01 4.683003381285161026e+00 4.302133553101725738e+01
2.236960227269254986e+01 4.798028919156900329e+00 4.285756562749416076e+01
2.115826250000000286e+01 6.751382000000000438e+00 4.463210751032057289e+01
2.252768596792319755e+01 4.185356567869204625e+00 4.292043987129785876e+01
2.223901840385594042e+01 3.952408656432846890e+00 4.324773632804966184e+01
2.207254752553020793e+01 3.927493111090230915e+00 4.346990991085024092e+01
2.352216152560063378e+01 3.647787475432309634e+00 4.161642940244924915e+01
2.366091847108141266e+01 2.540863230180953281e+00 4.124018022518175997e+01
2.342419512124437020e+01 4.398933298031020733e+00 4.141595064673186499e+01
2.380291464614557384e+01 4.572353327960531066e-01 4.067233934959940456e+01
2.381459785258693174e+01 8.474861947030489784e-01 4.095749689368536650e+01
2.331745338952094215e+01 -4.874397010714313971e+00 3.859128883364291340e+01
2.384560056528590621e+01 -6.396088363436839286e-01 4.061143734220711110e+01
2.360157522854118639e+01 -4.248814811918187218e+00 3.942091055551152579e+01
2.374178603209551852e+01 -3.640000099621899299e+00 3.965325193953630389e+01
2.166508145545635244e+01 2.796796067491196691e+00 4.412714464955647742e+01
2.103965101341582411e+01 1.814699882340022441e+00 4.486844965516848305e+01
2.121088625565723618e+01 2.414810699242845082e+00 4.459014972606442484e+01
2.020810778508132444e+01 1.078839331374843225e+00 4.558258186401455703e+01
2.064614869565333066e+01 1.099503249157683271e+00 4.525302110087231000e+01
2.099327546908381237e+01 8.709680258966276512e+00 4.412855173431975686e+01
2.083101300000000222e+01 9.344281999999999755e+00 4.403614470997553099e+01
2.010663613783765413e+01 1.011747601749453196e+01 4.298056845374328816e+01
2.017259506399848235e+01 1.024221504603600330e+01 4.282093141992172747e+01
1.968995721402402665e+01 1.063428700000000049e+01 4.311404966594318466e+01
2.115691342332959124e+01 7.412973897693298397e+00 4.442662886279558876e+01
1.865618854868960241e+01 1.160452648901953943e+01 4.324139362443443702e+01
1.874205541530873731e+01 1.140168867824920795e+01 4.341530863702190146e+01
1.831782155295206138e+01 9.801521782978306341e-01 4.714631163631145228e+01
1.820265376277540881e+01 3.696401259286896668e-01 4.696629427665391887e+01
1.920998385272258346e+01 -1.193428302833133142e-01 4.636055049806246586e+01
1.593254522497472081e+01 -1.503334022767115252e+00 4.820147559912578572e+01
1.682301779507288941e+01 -1.126269512054935751e+00 4.775131435749846531e+01
2.177317414410090279e+01 6.566214478990330505e+00 4.296474004903251398e+01
2.199230004813420081e+01 5.986318205226013767e+00 4.288030811994157432e+01
2.307910000000000394e+01 5.470826243900731356e+00 4.187395328207405498e+01
2.285677993458463675e+01 4.799307886610646001e+00 4.236791902533311571e+01
2.272502379148791007e+01 4.872523752811385833e+00 4.246947994493569922e+01
2.276251814133598117e+01 4.232515243340101208e+00 4.266154282263870812e+01
2.268279159789990018e+01 3.570125175988053012e+00 4.298304669086114416e+01
2.320682499231877216e+01 4.806744892742073283e+00 4.190262282558004614e+01
2.315060556582402640e+01 4.767694237965343085e+00 4.206526370943127802e+01
2.333456256751909308e+01 4.142549524514784309e+00 4.193121948395246790e+01
2.361993080088335617e+01 2.898150792635232342e+00 4.181635347929454127e+01
2.321474214258984148e+01 -5.437755961706788099e+00 3.849032101616950285e+01
2.308400227890995282e+01 -5.955381961844381067e+00 3.824410803538209791e+01
2.346127933271100474e+01 -4.858008242515507114e+00 3.918842765323517341e+01
2.375166128136881838e+01 -2.899218573227009266e+00 3.980039761422105471e+01
2.389987568045678401e+01 -1.345294958026848509e+00 4.083301002104990118e+01
2.387493361919955959e+01 -2.178558211763003793e+00 4.058906589322425162e+01
2.190138216587372710e+01 3.414581266464280951e+00 4.376222277788514958e+01
2.212894141157629946e+01 2.533415335278997649e+00 4.374267397062528318e+01
2.177697988100014470e+01 1.980741386412355087e+00 4.419878736006580766e+01
2.224895065556384921e+01 3.216886788062209401e+00 4.347362764917769340e+01
2.233329772964757609e+01 2.571702556045684318e+00 4.356961187185351037e+01
2.108231707514981679e+01 1.030871802588833486e+00 4.493445236201185367e+01
2.025315065276958038e+01 3.852199124209712000e-01 4.563710002133769450e+01
1.990830184574828365e+01 1.030359460376554637e+01 4.375631013171057049e+01
1.778924190191109034e+01 1.216912484074105016e+01 4.371654207744091991e+01
1.936705146390763943e+01 1.080353799595345698e+01 4.360815103872577936e+01
1.921021569263207951e+01 1.102318564844192395e+01 4.348039027150805680e+01
1.942118598073826163e+01 1.090922949739016623e+01 4.389666125274005992e+01
1.872928947846548553e+01 1.141202986873940972e+01 4.384667463130783460e+01
1.810921260392169074e+01 -3.670876004231975465e-01 4.703818797717184452e+01
1.971745548708049967e+01 -2.302091801822059858e-01 4.603884050598750832e+01
1.731611747618529762e+01 -8.736701509968767265e-01 4.752622046260623279e+01
2.302624401990306069e+01 4.085326999598283493e+00 4.245843872424016752e+01
2.280000691222267761e+01 3.592584511798626146e+00 4.285344318676484932e+01
2.322211181179507733e+01 4.064554318552863421e+00 4.225650085124706834e+01
2.346231937415923241e+01 3.477723114605085986e+00 4.195970871023160242e+01
2.374363607084890759e+01 1.889136789394587401e+00 4.124200873923274457e+01
2.382631681953515113e+01 1.237394404250508506e+00 4.124444668716284212e+01
2.386269762986298204e+01 4.386642246434475090e-01 4.124600741343286359e+01
2.332087200213637246e+01 -5.467692765977144376e+00 3.895575782832101197e+01
2.389910257621960454e+01 -3.600898266474931164e-01 4.125219019762570838e+01
2.393552583441759651e+01 -1.158866232801846419e+00 4.126016156054284778e+01
2.146431080368636302e+01 1.489795504650173186e+00 4.457469057496797404e+01
2.200884435424548258e+01 1.849459230633953677e+00 4.400652872114745406e+01
2.112493344256040828e+01 2.479751467865997094e-01 4.500037578402763216e+01
2.071064063401082933e+01 -7.514312874914275131e-02 4.535151834694616468e+01
2.050602098611371105e+01 9.910124132751999326e+00 4.407239224188379012e+01
2.018096151068472821e+01 1.047608073317366362e+01 4.410864415759565560e+01
1.907536393297592170e+01 1.116059036424444528e+01 4.387170558863989100e+01
1.885619765441839846e+01 -4.406315674618400680e-01 4.661627775647085770e+01
2.021398188818127295e+01 -2.128231113995235346e-01 4.570212243828034815e+01
1.711685628276510940e+01 -1.517833332501284715e+00 4.759186182797858322e+01
1.663216244328275550e+01 -1.861351093931364886e+00 4.780896193912107606e+01
1.801455674528047624e+01 -1.103181123039042699e+00 4.711358562725623500e+01
1.761816130893094012e+01 -1.356248554508550530e+00 4.735853826842377856e+01
2.319584781415897723e+01 3.370665707061347938e+00 4.254888195282386931e+01
2.329365655144129477e+01 3.361056128477024174e+00 4.244771088314492147e+01
2.359000940326664519e+01 2.813137433157596234e+00 4.198800910790253482e+01
2.283755000000000024e+01 2.951714290354971570e+00 4.304537743612221590e+01
2.371769937720701904e+01 2.148513885957140435e+00 4.201601309075392265e+01
2.377290025000000284e+01 1.693030447162058749e+00 4.163178387913630019e+01
2.336530050000000358e+01 2.656571890311996587e+00 4.263897776387961613e+01
2.293062652048571692e+01 2.240088257984044429e+00 4.314724413024472938e+01
2.275374062033062472e+01 2.178884985590078038e+00 4.331649196841208749e+01
2.318060951878113229e+01 -6.076755467788083287e+00 3.872332664181709561e+01
2.367404949330524744e+01 -4.387444647289381550e+00 3.991638751073311653e+01
2.383305835436051368e+01 -2.675399223951365091e+00 4.029021392089661191e+01
2.383058222212905264e+01 -3.345702548047363223e+00 4.019378670029288969e+01
2.377369863316091525e+01 -3.929499760157915134e+00 4.035806206840022270e+01
2.188880067836970511e+01 1.165820586323207841e+00 4.428104898918046928e+01
2.241769297627957513e+01 1.926230039199500865e+00 4.366414223701154640e+01
2.164834771128127500e+01 5.986203286563072101e-01 4.454283796565830755e+01
2.223773704467101453e+01 9.003611974078887803e-01 4.406779080693500106e+01
2.250206111327493375e+01 1.280993264737550374e+00 4.375581373621709247e+01
1.966900266276808296e+01 1.094517432229282150e+01 4.428629841090196351e+01
1.915664078778975465e+01 1.141447995530119819e+01 4.446402222533525617e+01
1.881283248359800453e+01 1.136464841546791860e+01 4.415735716398767607e+01
1.820522491296451051e+01 1.181985545145760241e+01 4.441790829941754737e+01
1.849601197538038022e+01 1.178114940058263471e+01 4.475357075843362509e+01
1.887418994669543437e+01 1.153455741164235171e+01 4.445036433286189492e+01
1.889302514591756577e+01 1.156084453759383379e+01 4.457960721006514859e+01
1.918200143122003709e+01 -8.453651774949157982e-01 4.644040038203831244e+01
1.855100002704472928e+01 -1.341932307406729308e+00 4.681417577722497469e+01
1.718074528448956428e+01 -2.217426287369303584e+00 4.752500691985952130e+01
1.792000073285495532e+01 -1.838499816754035843e+00 4.718794986206775377e+01
1.644130098547203644e+01 -2.596450016428753838e+00 4.786215000364011729e+01
1.618695606131489129e+01 -2.049963879893863083e+00 4.803179074013745975e+01
2.342198786434432378e+01 2.011651351957290057e+00 4.268162050065215141e+01
2.332629918709353234e+01 2.019080119191543510e+00 4.284242895046772759e+01
2.385882294641492507e+01 -1.314499774571687429e-01 4.165635079316597000e+01
2.304016954515045512e+01 -6.686593116334669240e+00 3.849059855678294184e+01
2.347202567807389428e+01 -5.367675863322281415e+00 3.966692523892899658e+01
2.332567152221832529e+01 -5.859820271956770910e+00 3.930569317585593581e+01
2.395414385972243565e+01 -2.050883963321034287e+00 4.105455435611026616e+01
2.397196335106275455e+01 -1.957660619169205862e+00 4.126813274466339010e+01
2.387507735415535137e+01 -8.158753194298284939e-01 4.186639919330627890e+01
2.391953032013637781e+01 -3.050950147331819906e+00 4.073518479243560364e+01
2.372635294314311949e+01 -4.633344360431566500e+00 4.077624635678973419e+01
2.384902261434583437e+01 -3.563126748369567220e+00 4.066574847390677405e+01
2.382041361068926832e+01 -4.007420922259589346e+00 4.094294410998731593e+01
2.017478549204233218e+01 -8.112980854056432989e-01 4.576719133060667843e+01
2.189586262438522368e+01 5.533379787659127302e-01 4.437426986657331440e+01
2.190292161919337133e+01 -5.899658664391150414e-02 4.446747229462765461e+01
2.140794968002734677e+01 3.176444908111678012e-02 4.480456828065223363e+01
