-5.640897139845014507e+00 1.866265023009557922e+01 2.457587677326417364e+01
-7.530121113350281448e+00 1.763763005586818267e+01 2.429910056899637638e+01
-7.998298176329649678e+00 1.746166764117301540e+01 2.441227171020125297e+01
-7.036789547885416773e+00 1.784891606973013012e+01 2.425670204974596800e+01
-1.049815003620826204e+01 1.541063546867109224e+01 2.455954146169458596e+01
-1.036437110410720663e+01 1.581350206825140248e+01 2.486374030367365862e+01
-9.461681436235792830e+00 1.658397346531769045e+01 2.467320203134958234e+01
-1.130893468665596302e+01 1.451640152454860555e+01 2.469073904567438404e+01
-1.213478943256138542e+01 1.360639471874762130e+01 2.484630433907200953e+01
-1.285594587187509319e+01 1.233402834705928441e+01 2.491953927609852570e+01
-1.234501421285255063e+01 1.332492282194571587e+01 2.504350532196981760e+01
6.678707172459272812e-01 1.921642191503940467e+01 2.507287242351105405e+01
-1.410743786895184426e+00 1.930479329704679614e+01 2.485547945447500240e+01
-4.852100875374677713e+00 1.885890058030727445e+01 2.453040004051011991e+01
-6.430499009322441673e+00 1.846619938096735325e+01 2.462139995044713103e+01
-7.910099999999999909e+00 1.783219899999999924e+01 2.474819899999999961e+01
-8.396168770937041614e+00 1.755312262104076382e+01 2.483994762226387820e+01
-1.088975007740806689e+01 1.516495528011095928e+01 2.473022596581704136e+01
-9.897229868573834466e+00 1.626735552528892370e+01 2.482668851909362928e+01
-1.199640852588052198e+01 1.406359144130806982e+01 2.527061773021625157e+01
-1.267287066120019645e+01 1.286647679090134133e+01 2.532372004880434346e+01
-1.289099339128122423e+01 1.149442249243031711e+01 2.397090194416789188e+01
-1.301930657904786415e+01 1.171027812391940337e+01 2.456979739349867842e+01
-1.073915910812632823e-01 1.931679827524785509e+01 2.503372969489200273e+01
-8.968183662494932928e-01 1.933463774062037288e+01 2.490776055721301319e+01
-2.118190260908144218e+00 1.935187907474309910e+01 2.488675208040786302e+01
2.621271051802998464e+00 1.916300356031940311e+01 2.565860886996847157e+01
-6.924003140164273873e+00 1.825473643933002776e+01 2.466369297834992480e+01
-8.882346260365398649e+00 1.727398321549026150e+01 2.493171607492166686e+01
-7.417106297416940386e+00 1.804344426928316025e+01 2.470595067916995902e+01
-1.078279697072292365e+01 1.560474535102939164e+01 2.510721448766739172e+01
-1.023972535663652117e+01 1.636143024459011741e+01 2.533035556642920483e+01
-9.368600050888900910e+00 1.699480096300011311e+01 2.502350001792571277e+01
-1.151405129157422458e+01 1.474747002734429380e+01 2.540496592448591784e+01
-1.118276479945512669e+01 1.525166792261370574e+01 2.542498855883976816e+01
-1.241692339732980521e+01 1.350098088573053445e+01 2.566593822719339357e+01
-1.166126081977673223e+01 1.433059914743107477e+01 2.505629728750664498e+01
-1.300078813743292727e+01 1.240782095392472861e+01 2.560373450666807216e+01
-1.314759971119819149e+01 1.192609978317696928e+01 2.516859898501217785e+01
9.003941063552247659e-01 1.951898283137069967e+01 2.543373433562708996e+01
-2.825643640891028596e+00 1.939901702125873229e+01 2.491808231976283139e+01
-4.046674548816607597e+00 1.927040510543556451e+01 2.491631583518004334e+01
1.429486724979127432e+00 1.955434934082471798e+01 2.557748216332427305e+01
2.375383332327116737e+00 1.952876429379735868e+01 2.590623706878650623e+01
-3.456865269272175745e+00 1.931727636037541984e+01 2.489538834940408307e+01
-8.270298654431099905e+00 1.800179286664524625e+01 2.528492868034687291e+01
-8.809445912336961726e+00 1.770692384704679156e+01 2.540498042329231865e+01
-1.067590000000000039e+01 1.604429999999999978e+01 2.548399900000000073e+01
-9.804444730521749918e+00 1.667791062190848805e+01 2.517702723279589350e+01
-1.285397453142237900e+01 1.288954653942470330e+01 2.603887197211975746e+01
-1.318940779048153722e+01 1.205597953114862975e+01 2.583031468144189802e+01
-1.323117335524098337e+01 1.218572788442528321e+01 2.649136103337106007e+01
3.600550803767725849e-01 1.958333848418007861e+01 2.539114007733954637e+01
-6.830592103532195924e-01 1.966218962008348115e+01 2.528110907121585171e+01
-1.189545100891380880e+00 1.958751247239439408e+01 2.517908260661012321e+01
-1.710622095745636395e+00 1.960252121019562921e+01 2.517658061727463448e+01
-4.636483997804861978e+00 1.922353491100521694e+01 2.493724460799861475e+01
-6.266478993092228222e+00 1.883750726619695115e+01 2.502192949089516816e+01
-6.799013737002246316e+00 1.865252359242112234e+01 2.508409297931558513e+01
-5.214386523081067537e+00 1.909906801717006530e+01 2.496102850804685502e+01
-9.274004020349840616e+00 1.733117255723955097e+01 2.535689771955961191e+01
-7.292110093472819798e+00 1.844118402320038541e+01 2.512628708529811661e+01
-7.785208780445978860e+00 1.822984417472850893e+01 2.516848229191734632e+01
-1.102370406256559754e+01 1.568916322121356544e+01 2.569598182644930162e+01
-1.171940000000000026e+01 1.497879999999999967e+01 2.612000099999999847e+01
-1.217334147060520166e+01 1.409895751259588970e+01 2.599141574217089712e+01
-1.185793652045664182e+01 1.452108914503517667e+01 2.569521045481410937e+01
-1.322102514472623902e+01 1.138737393813220500e+01 2.474412391332711891e+01
-1.340888135514930113e+01 1.150033781218872875e+01 2.545823436828308317e+01
-1.270723889448692745e+01 1.337101875959417896e+01 2.647378361514514467e+01
-1.664955610637670613e-01 1.967126568809371179e+01 2.538471473014090662e+01
-2.567983308692927125e+00 1.979844120158686849e+01 2.536837158292809491e+01
-5.755274408560945076e+00 1.901400968315265771e+01 2.505363355750803223e+01
1.656604174270166263e+00 1.990711403918248479e+01 2.598932026635730708e+01
-9.667613686984473986e+00 1.713223759986765415e+01 2.564643406711986273e+01
-1.057327787727041724e+01 1.638496528685022469e+01 2.583593914654215595e+01
-1.012052980098182253e+01 1.675825278330202295e+01 2.574079672146961784e+01
-1.137169852762229638e+01 1.533383202570047210e+01 2.590808070116419159e+01
-1.248874707699903297e+01 1.367682646697222459e+01 2.628762463149416817e+01
-1.348310568158583322e+01 1.157727065312815995e+01 2.615549970108800082e+01
-1.299004102564327390e+01 1.284321014655821536e+01 2.681266535421165997e+01
8.601992397684170566e-01 1.987730066912189031e+01 2.579723901665886743e+01
-4.420819442494869911e+00 1.958825193168937417e+01 2.534418183081863774e+01
-2.010433217000964667e+00 1.990018397886641566e+01 2.549761156788741090e+01
-1.225644191728346932e+00 1.990533144242326458e+01 2.553234295813621912e+01
-3.199360538207411064e+00 1.971682811235795896e+01 2.534584999256069437e+01
-3.830737784014353053e+00 1.963521500020566535e+01 2.532332837653140700e+01
-9.179339891996372458e+00 1.766778568942962124e+01 2.569053468684549912e+01
-9.966741721175267799e+00 1.726972675750080555e+01 2.626960635333603022e+01
-7.167097298569503394e+00 1.883863159340342008e+01 2.554624723713604340e+01
-6.634881649938369819e+00 1.902348518220196638e+01 2.548409538469168467e+01
-8.145141680751178725e+00 1.839927336635953736e+01 2.570476343383854712e+01
-8.629944159483736499e+00 1.817112651991849148e+01 2.582083441969016846e+01
-1.088179285278095598e+01 1.616256222806189058e+01 2.619604094934543781e+01
-1.126505391865775785e+01 1.568921684556948648e+01 2.628321042659290541e+01
-1.213995775009212430e+01 1.441563983847078312e+01 2.651435885032227091e+01
-1.161296624447504122e+01 1.533382056490921563e+01 2.649499326672389188e+01
-1.281184651152342369e+01 1.338333762150859130e+01 2.720970986249873036e+01
5.223913536090890597e-02 1.995025567523314081e+01 2.570940831384410075e+01
-4.693448647237583593e-01 1.998967232369483327e+01 2.565437888371537412e+01
-4.998861331877741065e+00 1.946382146367352206e+01 2.536805823357359913e+01
-6.102668318671192083e+00 1.920833916288082577e+01 2.542194540070871867e+01
-5.576903610154055890e+00 1.933939003474278095e+01 2.539193350633993163e+01
-9.525611968583309164e+00 1.763697889614046588e+01 2.614663224032948108e+01
-1.047059412346794183e+01 1.672583548830751710e+01 2.618809112737566025e+01
-7.660339805186407780e+00 1.862741960546042463e+01 2.558869216264527680e+01
-9.084721499742313355e+00 1.800423769648169170e+01 2.602401233644321010e+01
-1.076314963491008569e+01 1.648170171377703852e+01 2.647077701435843977e+01
-1.256049980803981292e+01 1.385249980610490894e+01 2.690869990104901177e+01
-1.183154573466328507e+01 1.508751304204209198e+01 2.692248454976441252e+01
-1.121000204822942337e+01 1.594796914022631817e+01 2.661130587851057783e+01
-1.150640322602414933e+01 1.568927179033298813e+01 2.687044004952931786e+01
-1.327288984168301234e+01 1.231532377164758429e+01 2.715163059602717155e+01
-1.366987406150846596e+01 1.107504543202837866e+01 2.574754810081619993e+01
-1.362259840743326222e+01 1.154774156900179527e+01 2.692478657576943490e+01
-1.306312341405291733e+01 1.291430517488279328e+01 2.751063536229647966e+01
1.170660567437805666e+00 2.027906682973850749e+01 2.627676560156808705e+01
-2.941094105652686252e+00 2.011649606511866040e+01 2.579636018120795882e+01
-2.310299959131644432e+00 2.019790100237288044e+01 2.581870100415702751e+01
-7.535499623016570503e+00 1.902490013089472853e+01 2.600880095591959318e+01
-8.505344558135011113e+00 1.856871434987214542e+01 2.624129366298440758e+01
-8.990099548345405367e+00 1.834069978734554240e+01 2.635749932699241782e+01
-9.840146565504625187e+00 1.771834480107204968e+01 2.671363450484503232e+01
-1.108772186594787712e+01 1.628084660395923677e+01 2.690821038966020140e+01
-1.243434387508469108e+01 1.421564263067674183e+01 2.731352065410793983e+01
-1.257774803519169815e+01 1.390969229560532305e+01 2.756936722464499923e+01
-1.286053871218541822e+01 1.338182931162531197e+01 2.790798264932485750e+01
-1.346858181439291791e+01 1.199637136809414351e+01 2.736834394073105159e+01
-1.377680376468475743e+01 1.109856185565134012e+01 2.648068615619182609e+01
-9.403923273829017937e-01 2.027744011810742819e+01 2.595804487567832908e+01
-4.204899794905209376e+00 1.995340040113022084e+01 2.575160050460404548e+01
-1.625348429873137324e+00 2.023767103374236598e+01 2.588837348659302151e+01
-3.572761183971953969e+00 2.003497847179228941e+01 2.577398844436519454e+01
-1.036800203275202037e+01 1.706640243129888646e+01 2.653993061879568316e+01
-4.783460250903933009e+00 1.982857270923877024e+01 2.577512520570747157e+01
-7.003017256401588675e+00 1.920978659926784005e+01 2.594653816996770246e+01
-8.020335857296982951e+00 1.879684790214326284e+01 2.612502673629114014e+01
-6.470560454982154042e+00 1.939466453398542356e+01 2.588427885655904248e+01
-9.415105802405182800e+00 1.802953563263097081e+01 2.653556053495263001e+01
-1.026540048140301131e+01 1.740699961453939082e+01 2.689180050952095868e+01
-1.071072822901820487e+01 1.673045344325610273e+01 2.678274471439516091e+01
-1.331460000000000043e+01 1.244490000000000052e+01 2.781180000000000163e+01
-1.314334493710516050e+01 1.285395237909957089e+01 2.824672461711545068e+01
-1.259499531466103939e+01 1.396688446368761838e+01 2.823002153114675394e+01
-1.230823986874657194e+01 1.457863523710979869e+01 2.771817306604350151e+01
-1.140002489464731994e+01 1.604410846101692201e+01 2.724523911714505431e+01
-1.362962024863728416e+01 1.142626995338206797e+01 2.774083747005593281e+01
4.575805362321450631e-01 2.029813207129453190e+01 2.615224157630004953e+01
-2.555999554850811317e-01 2.031719999880982641e+01 2.602770000777356785e+01
-3.403649147486330850e+00 2.036724954097300966e+01 2.619207612458113132e+01
-5.361378890554172827e+00 1.970388229254494661e+01 2.579862218223892256e+01
-5.938799562312659930e+00 1.957929970984636014e+01 2.582209947974493858e+01
-7.897015580855327954e+00 1.912328281361476101e+01 2.652057273870163101e+01
-1.060809370799845652e+01 1.707107226527286770e+01 2.713457241823641297e+01
-1.095086179822715167e+01 1.673507077232547857e+01 2.737739588442604344e+01
-1.345763197283475243e+01 1.193852534680099531e+01 2.814279967155450635e+01
-1.393089999999999939e+01 1.064969999999999928e+01 2.603689999999999927e+01
-1.325934976072724503e+01 1.249047508248393790e+01 2.850310362113865281e+01
-1.194378497645245041e+01 1.519631672903057762e+01 2.772563721040075890e+01
-1.383742988056071255e+01 1.078722941226716081e+01 2.742149996155064784e+01
-6.336575157941686243e-01 2.054982604481460839e+01 2.631646478770479547e+01
-2.772363515737141348e+00 2.044867942137354078e+01 2.621438326317068856e+01
-1.382750731759371465e+00 2.060479077054792185e+01 2.636682206081874469e+01
-1.280074476174313425e+01 1.367227220331759341e+01 2.911680268727928933e+01
-1.297217205385003069e+01 1.326280842565328655e+01 2.868144022871970833e+01
-7.396317479128077466e+00 1.936306683136717055e+01 2.640086612082411222e+01
-6.864025334191032890e+00 1.954772728465669474e+01 2.633840020890502487e+01
-8.381953467192323259e+00 1.889530062486234385e+01 2.663700965163339163e+01
-9.715335812286076234e+00 1.810162181047100560e+01 2.712075352099310876e+01
-8.866889121329345258e+00 1.866731720069798328e+01 2.675344241013373292e+01
-9.290374877644795859e+00 1.841266625066045393e+01 2.694257473480406162e+01
-1.014030009483156292e+01 1.779057486233985941e+01 2.729893362042147231e+01
-1.046492456350780209e+01 1.747936675548346486e+01 2.755543677315815643e+01
-1.082552635970223065e+01 1.709223185351464380e+01 2.774530037708377250e+01
-1.360076778263312036e+01 1.143178341136732357e+01 2.847403783326160465e+01
-1.379071110657506161e+01 1.085597044243904818e+01 2.811355580704271873e+01
-1.388415891889831677e+01 1.071847348661763633e+01 2.672928997651213834e+01
-1.239712173573021126e+01 1.448304264439636846e+01 2.850694101363859900e+01
-4.627216602611279761e+00 2.015555464729317947e+01 2.617194897194487879e+01
-2.129740650574322824e+00 2.054814945916293922e+01 2.627378358455552032e+01
-4.034936028244393569e+00 2.028581967770169214e+01 2.616976917845805417e+01
-1.261224143335755343e+01 1.402407224647988748e+01 2.889062723633513130e+01
-1.218200232884929335e+01 1.494201222224811865e+01 2.812325397092196511e+01
-5.783053522751908204e+00 1.990588487142840890e+01 2.621854557844968525e+01
-6.331732949770898067e+00 1.973238804641044553e+01 2.627593458641234747e+01
-1.129360029779811470e+01 1.639909861389040557e+01 2.762019948033726635e+01
-7.757973421299297456e+00 1.946139438473415950e+01 2.691269015675171516e+01
-1.167480387357532479e+01 1.585197217739093567e+01 2.807411414948454720e+01
-1.342030657582872166e+01 1.192061016450929678e+01 2.887575429831754548e+01
-1.358132297984231762e+01 1.135052662102143550e+01 2.924858471754602718e+01
-1.374399999999999977e+01 1.092469999999999963e+01 2.880549999999999855e+01
-1.391564614058673754e+01 1.046454013069074662e+01 2.835753236435532187e+01
-1.320410000000000039e+01 1.253604999999999947e+01 2.919439999999999813e+01
-1.409732593747223994e+01 1.012809618267433720e+01 2.636371290543536361e+01
-1.407129048979953012e+01 1.013201977624569849e+01 2.709631217426283811e+01
-1.408704415449534331e+01 1.000504551206329928e+01 2.791021172328427724e+01
-5.205134619714931077e+00 2.003072018292687062e+01 2.619524770809697856e+01
-1.297485958096567060e+01 1.312677642741457262e+01 2.950124392871401824e+01
-1.262950000000000017e+01 1.408130000000000059e+01 2.955170100000000133e+01
-1.205589999999999939e+01 1.530499999999999972e+01 2.852790099999999995e+01
-1.234276682630202515e+01 1.469300743489228012e+01 2.903992027609486470e+01
-1.118606612041575232e+01 1.670549226394627240e+01 2.793577204028230909e+01
-8.258743634981932757e+00 1.922172419350100725e+01 2.703264643721355398e+01
-7.257204044143837685e+00 1.970106593248054594e+01 2.679273682893110120e+01
-6.725010441438834086e+00 1.988561076109098025e+01 2.673016772690990095e+01
-1.001541665725970276e+01 1.817348600292512018e+01 2.770536275400755954e+01
-1.066427062311698570e+01 1.755166902943634000e+01 2.821848032730357048e+01
-1.380767634327940030e+01 1.034431180096802727e+01 2.911148016512133907e+01
-1.361620245499550208e+01 1.093627251385430910e+01 2.950185015174063352e+01
-1.341866627022785075e+01 1.177630037201216417e+01 2.969161250298690291e+01
-3.234172849926699289e+00 2.069932012068897365e+01 2.660984816843351908e+01
-2.591692354792966668e+00 2.079883064959131289e+01 2.666932038460376120e+01
-3.865212060433013797e+00 2.061777132803817736e+01 2.658734969505163548e+01
-1.314884999999999948e+01 1.258162500000000072e+01 2.988570000000000348e+01
-1.293903812907288930e+01 1.311146725456864459e+01 3.023553859976624025e+01
-1.325613341384289967e+01 1.220174922194124179e+01 3.013430644249466184e+01
-1.278425229074176706e+01 1.359643616468950000e+01 2.989358285508563640e+01
-1.332531078167590088e+01 1.156348644038741647e+01 3.043890552478798028e+01
-1.347382678851061399e+01 1.133251411978762846e+01 2.986423733167196204e+01
-1.348829026387221752e+01 1.094785566159160517e+01 3.019882472138205642e+01
-1.313996657941512858e+01 1.207513437219744645e+01 3.091516569698108086e+01
-1.318633313609947955e+01 1.152306901503983916e+01 3.125333122817962561e+01
-1.305816006546722541e+01 1.138311720472237987e+01 3.203383488372148946e+01
-1.287762615452006543e+01 1.092083891217565217e+01 3.224541620512732720e+01
-1.274329070831140243e+01 1.130668365890705118e+01 3.260486578744875885e+01
-1.288361630184557960e+01 1.179524345054705314e+01 3.247618047148815634e+01
-1.323269999999999946e+01 1.097100000000000009e+01 3.159149899999999889e+01
-1.336044892469687895e+01 1.095943222692153007e+01 3.089541340867862473e+01
-1.318943052426268459e+01 1.032039109555841350e+01 3.187458471136424620e+01
-1.278548624440858816e+01 1.020365310403138182e+01 3.263733595825731015e+01
-1.248498187036571316e+01 1.443249769357281842e+01 2.991558425374259755e+01
-1.367013048713603318e+01 1.030189338744541772e+01 2.992330040983932449e+01
-1.193650451156734249e+01 1.563279988832987755e+01 2.886190300127005415e+01
-1.138864007380866106e+01 1.647135512522574885e+01 2.836851059543654685e+01
-6.176114470032596060e+00 2.005913381543906482e+01 2.667269321906915280e+01
-8.743689969744940171e+00 1.899390331430265633e+01 2.714934713487114593e+01
-9.590411052812475745e+00 1.848457690667028075e+01 2.752718696469175796e+01
-9.167051298601366582e+00 1.873924023074857814e+01 2.733826846164022584e+01
-1.033451041583529317e+01 1.782999494568938914e+01 2.788536337793787823e+01
-1.107864161625563426e+01 1.701157388756743316e+01 2.825102410325720825e+01
-5.049169069605000004e+00 2.035753571840502474e+01 2.659193653156422243e+01
-4.457190750476020646e+00 2.048765403569278831e+01 2.658964389932094718e+01
-1.309360000000000035e+01 1.262720000000000020e+01 3.057700000000000173e+01
-1.277549537243609024e+01 1.349621242507291363e+01 3.063450132172901874e+01
-1.295380314753688289e+01 1.262535004165195396e+01 3.127303382874482551e+01
-1.298735962800472166e+01 1.202021016919762708e+01 3.172944859756695379e+01
-1.351456400918301171e+01 1.054410251700076451e+01 3.051174427147791945e+01
-1.340819872183823591e+01 1.052439411124975521e+01 3.112465240859924265e+01
-1.358380087014591986e+01 1.007752569578064161e+01 3.065752992850511660e+01
-1.252249756430824412e+01 1.087067135862314693e+01 3.289943446275232475e+01
-1.247498704430973682e+01 1.149795997200196851e+01 3.316241932235496392e+01
-1.282662998305969460e+01 1.223727891340740648e+01 3.230402802887547864e+01
-1.270901573251170547e+01 1.220750204263492655e+01 3.291866952870628182e+01
-1.281400718315993004e+01 1.262350021657375621e+01 3.196906310550157926e+01
-1.338421756387268857e+01 9.777054823413012130e+00 3.136695025807861370e+01
-1.314616523188049868e+01 9.669842843941141908e+00 3.215764355021976684e+01
-1.205460116801917181e+01 1.536484618127043333e+01 2.935312522216930375e+01
-5.627217826487589392e+00 2.023265749287868687e+01 2.661521925192069915e+01
-1.097126019364293192e+01 1.731753326612977162e+01 2.856615125257557608e+01
-4.287172399926799216e+00 2.081972365375231249e+01 2.700729894204272696e+01
-3.053102638079001174e+00 2.104925842132367819e+01 2.706444853835007436e+01
-1.293018848338714299e+01 1.301154954301275701e+01 3.097615992843713428e+01
-1.256610882447052902e+01 1.410951081717834299e+01 3.042647241423297899e+01
-1.276673799881430860e+01 1.339599021893063835e+01 3.137541814587700273e+01
-1.229333183530860119e+01 1.200317757237835536e+01 3.364390684792002162e+01
-1.267421129476734798e+01 1.262165014946580577e+01 3.266509226454102333e+01
-1.243996839121043330e+01 1.040981792264338956e+01 3.319318566195329367e+01
-1.216649855363338162e+01 1.082037860529730189e+01 3.355505515925019466e+01
-1.278029985796497492e+01 9.456618510908270991e+00 3.288241567465862403e+01
-1.245709377578269716e+01 9.894758437582900967e+00 3.332496002240207389e+01
-1.213410652674168411e+01 1.033260171285845885e+01 3.376720473664509115e+01
-1.265536903426889381e+01 1.376742711475514902e+01 3.099538402103176082e+01
-1.130261018494847036e+01 1.068019299989441784e+01 3.478446611316723391e+01
-1.158000187958086613e+01 1.113852917443919743e+01 3.462853736696462192e+01
-1.181129943157871054e+01 1.077020090517482132e+01 3.420920303052722033e+01
-1.107092074190858888e+01 1.104860788464205079e+01 3.520430410149128164e+01
-1.079331720261487604e+01 1.059007980665325199e+01 3.536041250049215989e+01
-1.181701584764054758e+01 1.596085558964711915e+01 2.919616565561771182e+01
-9.043924808318008601e+00 1.906561808060692087e+01 2.773391174335892728e+01
-1.037706657367243857e+01 1.809028254278837977e+01 2.849682459545737956e+01
-9.890500308088979509e+00 1.855649906940761440e+01 2.811190098017153005e+01
-1.148360478972752219e+01 1.654355568595313031e+01 2.911623402529857429e+01
-3.695499745622794929e+00 2.094969903942364553e+01 2.700490002358009534e+01
-1.234062487479373438e+01 1.478330403564486950e+01 3.027906504991527470e+01
-1.250273316730210738e+01 1.413771490818643706e+01 3.130102861011423698e+01
-1.263864489675991898e+01 1.320117387043148227e+01 3.222025954186288033e+01
-1.205218902328945418e+01 1.138637019658484206e+01 3.392670416139012701e+01
-1.221562987361183872e+01 9.407130845687198928e+00 3.347932036908672160e+01
-1.202462124259245790e+01 9.817974446039801961e+00 3.377371118375032211e+01
-1.260306229438392833e+01 1.378096087990132901e+01 3.177522495114151013e+01
-1.061595666490372913e+01 1.104776908354327603e+01 3.574952066751332325e+01
-1.028443912798219984e+01 1.050003942828266368e+01 3.593588946708329246e+01
-1.148947391655229033e+01 1.012038449713793398e+01 3.441495714214411805e+01
-1.181456365695111188e+01 1.185893540928244150e+01 3.437203582228549692e+01
-1.134852850484368503e+01 1.150713576723008025e+01 3.504819020712501043e+01
-1.148028849849183075e+01 1.199193126780744301e+01 3.491646583510833324e+01
-1.111731922302941911e+01 1.187531854036533474e+01 3.546736333743376690e+01
-1.092040454488714829e+01 1.144202466579776711e+01 3.553644677598614265e+01
-1.205330120669704996e+01 1.542474338510213983e+01 3.017905217843453514e+01
-1.187551667890622653e+01 1.585654611383672830e+01 2.985445566050344723e+01
-9.467151234083152289e+00 1.881109505916680291e+01 2.792287808117298553e+01
-1.086369999999999969e+01 1.762400099999999981e+01 2.888179999999999836e+01
-1.122112775672207619e+01 1.711981199725416403e+01 2.937264044364254545e+01
-1.230620321156721353e+01 1.474116870082534092e+01 3.108059002651321379e+01
-1.250275432813105958e+01 1.313483174005394361e+01 3.296605323413571398e+01
-1.253439999999999976e+01 1.261979999999999968e+01 3.336119800000000168e+01
-1.247109254208109164e+01 1.365011221777287531e+01 3.257072175498999655e+01
-1.212201298542487748e+01 1.252579597229325969e+01 3.399303664181082496e+01
-1.231018653785898387e+01 1.460577290851801635e+01 3.178502341939013931e+01
-1.243940017337764736e+01 1.416589992284193045e+01 3.217499660746324963e+01
-1.014559720469118176e+01 1.102181395151909982e+01 3.630351501958238458e+01
-1.051558143413458346e+01 1.163271137526314902e+01 3.609537274142449803e+01
-1.129808614271269462e+01 1.233798201117459925e+01 3.525541610945387561e+01
-1.171008483492150098e+01 1.243189654310536163e+01 3.462417223517051212e+01
-1.219635069832771457e+01 1.513390905621971427e+01 3.064233643967509835e+01
-1.169773201396372286e+01 1.628834919214151000e+01 2.952985913239751170e+01
-1.229771506371596956e+01 1.353599061219878230e+01 3.330297962566969261e+01
-1.233315078599632741e+01 1.295664330231025829e+01 3.374804632887671829e+01
-1.196694684013150933e+01 1.284303148241019343e+01 3.430294486175483826e+01
-9.774999439633333509e+00 1.040990099511475542e+01 3.651200169922210392e+01
-9.100128327907276216e+00 1.026655850871822828e+01 3.695128814643953064e+01
-9.349034583595168257e+00 1.079752319435837293e+01 3.696977278994018690e+01
-8.816543119010070484e+00 1.063532658729436875e+01 3.729784585044144052e+01
-9.700712859159084545e+00 1.146483870483645617e+01 3.678925360804672096e+01
-1.157849973194610271e+01 1.661569979620659154e+01 2.986339788943919871e+01
-1.218112142545143683e+01 1.504514053720868283e+01 3.139549706121940176e+01
-1.205199999999999960e+01 1.548470000000000013e+01 3.100580000000000069e+01
-9.331220807975565634e+00 1.913204925923832889e+01 2.826052797843026099e+01
-9.754438090803141392e+00 1.887750008364774246e+01 2.844943755665498486e+01
-1.007477086716303738e+01 1.859801233650274455e+01 2.869814965489320002e+01
-1.072327042762350047e+01 1.797654184978130587e+01 2.921099074613484348e+01
-1.094751115785238227e+01 1.766014834630838237e+01 2.954858307696327202e+01
-1.226225317856307839e+01 1.411568255116917925e+01 3.285766633991799779e+01
-1.164922435756992414e+01 1.295998111436614408e+01 3.482858881784542149e+01
-1.226260711576336426e+01 1.448151581965164958e+01 3.250637384920111117e+01
-8.923473551359720091e+00 1.118477765856155415e+01 3.742710971927966312e+01
-8.425804262040138326e+00 1.012333098535174614e+01 3.739021796085110338e+01
-1.088580005831001785e+01 1.224400011877327543e+01 3.588709993229722528e+01
-1.028872352390964551e+01 1.207613241554230399e+01 3.638655504657052120e+01
-8.284156816694126846e+00 1.063093587047364963e+01 3.768542061288277267e+01
-7.751532351232890861e+00 9.980115501291752622e+00 3.782911419665319386e+01
-1.181505622491611440e+01 1.605066285030596163e+01 3.043413248435938812e+01
-1.154680703928171681e+01 1.663282986197560831e+01 3.062189819763209542e+01
-1.040223036587140193e+01 1.831632894450127580e+01 2.902200016836971841e+01
-1.118063491455286318e+01 1.735310252535517606e+01 2.994662835054781524e+01
-7.432636868931249197e+00 1.027050649485689604e+01 3.817189673453177789e+01
-7.787747875979844636e+00 1.070473626266588418e+01 3.807621254472761763e+01
-1.208498918107119025e+01 1.406543298984407819e+01 3.354078415596854512e+01
-1.213204880680605768e+01 1.329323906172802339e+01 3.413461273006599583e+01
-1.210405225958633224e+01 1.497363328630674850e+01 3.217180782930446981e+01
-9.691498483935909292e+00 1.190822145870162529e+01 3.688613391824711840e+01
-1.048829082871381857e+01 1.258574685653193370e+01 3.634650540722356027e+01
-9.094720513023991870e+00 1.174043580635044925e+01 3.738533880258346187e+01
-1.116762852436109377e+01 1.281806425662852789e+01 3.555987370035541062e+01
-8.142513189247251759e+00 1.113854103909335080e+01 3.798062058064653002e+01
-1.142380587796539437e+01 1.698820666075205565e+01 3.020237804774473389e+01
-1.103120339987379062e+01 1.769624613764013077e+01 3.021442619106330341e+01
-1.081110948800656679e+01 1.798502077043775671e+01 2.980685962928843935e+01
-1.058300215076030604e+01 1.832867928233119059e+01 2.953980643091366787e+01
-1.208589555872064913e+01 1.479698645162179460e+01 3.283759626134720833e+01
-1.190966980584879842e+01 1.578067496288176841e+01 3.128955924743194217e+01
-1.000609757619337081e+01 1.237943068635453692e+01 3.673006587065240325e+01
-9.492931169404002389e+00 1.230579192828085411e+01 3.717909411862434155e+01
-1.144934718175779587e+01 1.339190472222175998e+01 3.523277496537198061e+01
-8.497400000000000730e+00 1.157249999999999979e+01 3.788499800000000306e+01
-1.194547913481076584e+01 1.546568999240361109e+01 3.183755821696500021e+01
-1.126921971083514507e+01 1.736045387293827602e+01 3.054112135548872331e+01
-1.077889417715830334e+01 1.820639700856041543e+01 3.037431633399410202e+01
-7.933825549836059920e+00 1.142789824526273534e+01 3.817960212465204961e+01
-1.193133331395297958e+01 1.362918765158237022e+01 3.452043582514180997e+01
-1.190775121449136620e+01 1.401518990968155087e+01 3.422380252956145341e+01
-1.190853351405723259e+01 1.456376620922671528e+01 3.369612930841550025e+01
-8.896068768679830541e+00 1.213819758044483699e+01 3.767842970117370527e+01
-7.968848327173033042e+00 1.183299215201839871e+01 3.825356836766491853e+01
-1.176761577420668203e+01 1.607607585798841754e+01 3.157276491256255468e+01
-1.140508492306315702e+01 1.697820518941941259e+01 3.088465872971699966e+01
-7.370088001423345858e+00 1.128325284276923313e+01 3.847429108830726108e+01
-1.183902537486171802e+01 1.544669263108051993e+01 3.266879042280565670e+01
-1.009097499701108980e+01 1.292732535973795116e+01 3.680568731447227293e+01
-1.094006089982483054e+01 1.321769971762602225e+01 3.582249756088204862e+01
-1.173069901095173861e+01 1.396500077994645572e+01 3.490610200102894112e+01
-1.049380381661260309e+01 1.313768054306515864e+01 3.633910146221687398e+01
-7.478433167721092900e+00 1.167052754094423506e+01 3.850139507279467210e+01
-1.151510756240385902e+01 1.664996375708112453e+01 3.138054639347051022e+01
-1.111479984701836088e+01 1.773230021591806960e+01 3.087949876992458087e+01
-1.129901524699236859e+01 1.719994542354578471e+01 3.150915980819569029e+01
-1.173133327537132686e+01 1.445255596258316189e+01 3.443734503592104801e+01
-1.190926121646796965e+01 1.511231746421434075e+01 3.316867564124563472e+01
-1.122182383311156961e+01 1.379124509350725702e+01 3.549534813253517740e+01
-6.932773478566783609e+00 1.165318101829557662e+01 3.881520798794074523e+01
-7.440248393273456884e+00 1.209350759715950119e+01 3.862217227945737363e+01
-8.135223521376168776e+00 1.232214132816710261e+01 3.819107963653429039e+01
-8.661195208946997681e+00 1.253820113916904866e+01 3.786885201628034991e+01
-9.294362370883915148e+00 1.270336281227280928e+01 3.747205579304655032e+01
-1.173196663953593699e+01 1.494011244695558638e+01 3.396858841434251985e+01
-1.173225316314294631e+01 1.590924334208097868e+01 3.226227126449387583e+01
-1.142961908788113590e+01 1.420242723106353111e+01 3.521082900823239470e+01
-1.020286468436947835e+01 1.344332457887211696e+01 3.667523972737151894e+01
-8.301601054447203865e+00 1.281128831261200141e+01 3.812858913755838586e+01
-8.997381264414135771e+00 1.304028749845205404e+01 3.769700650719141066e+01
-7.606644336606056989e+00 1.258255894296167376e+01 3.855966092900838049e+01
-1.071249351524882343e+01 1.361733558211465400e+01 3.608512114295311335e+01
-1.162553285507707201e+01 1.637153630088986844e+01 3.185603444369989390e+01
-1.173260029816358774e+01 1.542770005321015780e+01 3.349979967182034102e+01
-1.148339999999999961e+01 1.666710099999999883e+01 3.213940000000000197e+01
-1.131405902364786620e+01 1.696751422548733501e+01 3.238241130138126778e+01
-1.129102339734903993e+01 1.657384635851286703e+01 3.292757694331068308e+01
-1.156643005429053694e+01 1.625414626094342196e+01 3.259267300427014646e+01
-1.143007496999172545e+01 1.475111146495032699e+01 3.468375598872687249e+01
-9.693198371765076260e+00 1.326930062379980235e+01 3.726540104657540553e+01
-1.097792708980477272e+01 1.402292586641731731e+01 3.573712164776590328e+01
-1.164943550578185949e+01 1.584132021387823919e+01 3.304580061852590234e+01
-1.143079030791063921e+01 1.529960967561743601e+01 3.415640255044962004e+01
-9.970750094504911232e+00 1.381823377403039999e+01 3.688540593333186735e+01
-1.055879042878659924e+01 1.404655724303002629e+01 3.620093841156447922e+01
-9.142542729363752230e+00 1.348026458013768725e+01 3.761934423066065136e+01
-6.911898696986070512e+00 1.235390048346237890e+01 3.899060139532841163e+01
-8.524217936706431686e+00 1.323786419084796151e+01 3.800165472662204280e+01
-7.983892867142071026e+00 1.309843949345697922e+01 3.833802310077624753e+01
-1.114727460665346648e+01 1.685969777575941464e+01 3.309751776384253930e+01
-1.140836218261303259e+01 1.612093827373983856e+01 3.333935129467045044e+01
-1.109870512899898287e+01 1.648062037166230098e+01 3.371551444358412652e+01
-1.152569952424871502e+01 1.566803218748330373e+01 3.375112683654248968e+01
-1.112777512562162663e+01 1.444045619034949013e+01 3.551632930969288537e+01
-7.288905509707466202e+00 1.286955974670479819e+01 3.876910922620412947e+01
-1.112895550837967562e+01 1.517151055640769464e+01 3.481305617123983609e+01
-1.131909370668156001e+01 1.590802206421709819e+01 3.400209381893273530e+01
-1.111273169378080006e+01 1.614772858082615059e+01 3.425276492969822328e+01
-1.090639969486321448e+01 1.638740015218962398e+01 3.450339908048891857e+01
-1.082648383366497491e+01 1.467804932333621615e+01 3.582127024616602995e+01
-8.592803872542187804e+00 1.369087639167570458e+01 3.797269810661722289e+01
-7.666185872913743538e+00 1.338559211542005478e+01 3.854745635703831397e+01
-9.138352780485169191e+00 1.395685226271394974e+01 3.747590821505873748e+01
-9.627561425807677153e+00 1.411331071720948493e+01 3.705566547573177871e+01
-1.024821305955033957e+01 1.436698797144937600e+01 3.650553310853256761e+01
-1.094090421942891744e+01 1.697792221338562868e+01 3.368580001800230406e+01
-1.077934558394566800e+01 1.589639273995672930e+01 3.504460734692379020e+01
-1.096990148542596799e+01 1.559541653696068231e+01 3.486137785959343205e+01
-1.082695968193405278e+01 1.504334117724696895e+01 3.547006148802282155e+01
-1.052550061230256873e+01 1.491539951714872103e+01 3.612589938028040137e+01
-8.043300000000000338e+00 1.390140000000000065e+01 3.832590100000000177e+01
-9.284371193802002153e+00 1.440838823242092914e+01 3.722592603124824961e+01
-7.404218707551724066e+00 1.367198281161898876e+01 3.859602374867248642e+01
-8.663835551723758854e+00 1.415489489369172738e+01 3.777591316486453366e+01
-8.327735084007789723e+00 1.450739502842385953e+01 3.783331342217702087e+01
-1.065232171674240469e+01 1.540550650313683434e+01 3.558568376939808786e+01
-9.904914486656714701e+00 1.466188542068759482e+01 3.667593174795597832e+01
-1.040348256801338245e+01 1.622032737113947931e+01 3.509010378056562018e+01
-9.045694086991913352e+00 1.483204969668090456e+01 3.718157980512507521e+01
-1.011831792879993230e+01 1.511650349240089319e+01 3.630637838422140362e+01
-9.568794873923865296e+00 1.486563997898842970e+01 3.680637844521744739e+01
-1.026090281290321293e+01 1.566841515013633312e+01 3.569823908325191297e+01
-9.711163534158437471e+00 1.531759331560321336e+01 3.648684450115275268e+01
-9.900993821109075554e+00 1.605339862409057261e+01 3.567630716909048516e+01
-2.916157172791803642e+00 -2.427702692082145397e-03 1.797709822647990308e+01
-2.069973043026517079e+00 -4.217245758388532550e-02 1.798913476854844617e+01
-2.521573531600544094e+00 -3.840464022834191304e-01 1.796291165553809321e+01
-2.212855179835956143e+00 5.394208876961479326e-01 1.801845105207381792e+01
-1.927091197650879550e+00 -6.237663434252214145e-01 1.795981841177557925e+01
-1.681438277800578085e+00 3.683309109364423239e-01 1.806865214835319478e+01
-3.054343060444399516e+00 5.745399945605202952e-01 1.800624114036227041e+01
-1.244282583995797831e+00 -1.795615960039347314e-01 1.807740221501828159e+01
-2.355737183069589236e+00 1.121014647599347658e+00 1.804776740079019959e+01
-1.068463398572143008e+00 5.383899081629728300e-01 1.815592727311462795e+01
-1.728965537685817067e+00 1.028045076698305582e+00 1.811567508658693626e+01
-1.122929532411947706e+00 -8.962015269282884722e-01 1.803470283258409523e+01
-4.769046411137636277e-01 1.570565224713957875e-01 1.819655126030220060e+01
-4.616833227660479544e-01 -5.870143534427646470e-01 1.813890184230479363e+01
-8.903450752295700710e-01 1.157780388842975849e+00 1.822684998207162366e+01
-2.057781631364956176e+00 1.908726882756919041e+00 1.814655001023912106e+01
-4.980487174493453129e-01 -1.235630117685266205e+00 1.813762217276491739e+01
-1.474063358409857027e+00 1.533253629614324876e+00 1.818669999402387560e+01
-3.066266683267242499e-01 7.823073344011548524e-01 1.826699999988581524e+01
1.995639583056345590e-01 -2.778262302078121637e-01 1.824310101769815162e+01
1.631982652590233673e-01 -9.264419508141757964e-01 1.824182129985168999e+01
-2.508106164122292370e-01 1.370882022796328092e+00 1.833846281681163148e+01
-7.413990571572366406e-01 1.869643449559083237e+00 1.832455628215789645e+01
2.770916415901440999e-01 4.068341296143243024e-01 1.830714999402387377e+01
-1.499594515462769451e+00 2.236647880220965945e+00 1.825933479766441536e+01
1.754734040828391795e-01 -1.656718194416054502e+00 1.824894209653018962e+01
2.552118054101062405e-01 1.009464154730625118e+00 1.836937870402197248e+01
-2.083644226765949625e+00 2.611926191622174542e+00 1.821911782153531334e+01
9.203259999999986452e-01 -1.204023400000000521e+00 1.836558000000000135e+01
8.905679999999993601e-01 -5.863312000000002744e-01 1.835643999999999920e+01
3.063007793521177469e-01 1.574128930325127573e+00 1.843759794764164894e+01
-8.227195591392972851e-01 2.581099051777193676e+00 1.839034062151797144e+01
8.608098901677887493e-01 3.136094864435468033e-02 1.834729998269266815e+01
8.389311865568918059e-01 6.339630115707182156e-01 1.840952585060211888e+01
-1.525567934741703713e+00 2.939782503271926473e+00 1.833188029280487541e+01
-7.453011519960517361e-02 1.840823632498890028e+00 1.841375603408542361e+01
8.170501822094834443e-01 1.236620775716912313e+00 1.847175740389495857e+01
3.507492294215541762e-03 2.332335822059255825e+00 1.847778445350230214e+01
-2.282708733727603967e+00 3.287597775234647912e+00 1.830762201022232460e+01
1.740343968986679091e+00 -8.136931571298020582e-01 1.861043848494369968e+01
3.493004709061158231e-01 2.024747007581310321e+00 1.849234740617027839e+01
7.951594121467637777e-01 1.839546354358457148e+00 1.853401659848026384e+01
1.300577131230961969e+00 -3.911660450832573632e-01 1.847886929318029203e+01
1.460989869752243209e+00 1.112605912025074889e-01 1.855247959674895242e+01
1.536417333881010983e+00 6.971021275898436897e-01 1.864455020968235033e+01
-1.626143801468106664e+00 3.687045157291753306e+00 1.844251473548230180e+01
1.475807705874231601e+00 1.707757113007879912e+00 1.874110306135742832e+01
-9.684346572002100473e-02 2.855470472161615092e+00 1.852054129717580722e+01
-9.669374620661068676e-01 3.267963138654852884e+00 1.844475454288816252e+01
1.731767339804730632e+00 1.182785541558539322e+00 1.876425019434267583e+01
1.822467109813081354e+00 -2.804799482150128753e-01 1.865889237387529320e+01
1.565336390291814928e+00 -1.529197728612989637e+00 1.855843534051534505e+01
7.732502044018976228e-01 2.442977655972722761e+00 1.859632799009106208e+01
2.180589407854126804e+00 -1.236680000606672269e+00 1.874215086851233636e+01
1.351991350034557948e+00 2.442433951004383541e+00 1.878524654349335776e+01
2.061532991239442669e+00 1.912089910232663281e-01 1.875778339358285507e+01
2.211116285742539933e+00 8.169391771220295695e-01 1.887866060919611755e+01
2.258411176900847028e+00 1.470853376477596619e+00 1.896938126085495213e+01
2.401911990114801831e+00 -4.423944144808942269e-01 1.884765574267556687e+01
1.900466458141043979e+00 2.074305092810942330e+00 1.892196654176978399e+01
7.513558875430423889e-01 3.045998382966355500e+00 1.865859700531802901e+01
-4.086476737420290384e-01 3.595943732975050544e+00 1.855755999780733490e+01
-9.367659671586323622e-01 3.798532935290970247e+00 1.853414026033489748e+01
2.711403065234492260e-01 3.332307988116219644e+00 1.862312044861442217e+01
2.949326374470374379e+00 -9.902415487488940293e-01 1.901057663860341052e+01
2.059614047289104466e+00 2.614218797922035264e+00 1.903608785815832860e+01
-1.165909682308681417e+00 4.288462193069335626e+00 1.858927084246221639e+01
2.811371695784054214e+00 8.968490243384099614e-01 1.908386601667355009e+01
2.662206369464531708e+00 2.711748599249180769e-01 1.896313172545680104e+01
2.510285302776764649e+00 2.068398688746591496e+00 1.912041581256945832e+01
7.294623567189386648e-01 3.649004943726106287e+00 1.872086459532654601e+01
1.608923999906958002e+00 3.160059822398022522e+00 1.895175628745025875e+01
1.497351006928409056e-01 3.923980196535515219e+00 1.867038437560131570e+01
-5.161911547936743894e-01 4.153251169043119972e+00 1.863660134751561515e+01
2.960956561799644060e+00 1.522579497305114771e+00 1.920474381765428618e+01
3.147806499484618215e+00 -2.779733546274328893e-01 1.910519090903938277e+01
1.158252225832119509e+00 3.705879782086877849e+00 1.886742819382630998e+01
4.192599923894091418e-02 4.481128289040945845e+00 1.874937155595597460e+01
3.718064149176981914e+00 -7.438022066449081482e-01 1.927900271549020417e+01
3.411629055186056192e+00 9.767593052208107807e-01 1.928907208052216760e+01
3.262273647668152421e+00 3.510603636066063071e-01 1.916827286643376738e+01
2.876714586860925849e+00 2.816721130404317819e+00 1.925364370976475570e+01
3.313663427915226389e+00 2.150952672008600963e+00 1.932799622400930772e+01
-6.237335448381879921e-01 4.710558857023622537e+00 1.871564289085652533e+01
7.075800000000000978e-01 4.251699999999999591e+00 1.878310000000000102e+01
2.321507765999641482e+00 3.176768233445545597e+00 1.913281131137633295e+01
2.074743623437488527e+00 3.832427871273848652e+00 1.910599117772061106e+01
3.649747168687776266e+00 1.614205389920048805e+00 1.938384737182142104e+01
3.040168765373495452e-01 4.800795874351692305e+00 1.881252593639974080e+01
3.790182142226813600e+00 -1.564305524358910737e-01 1.932620140201200343e+01
1.391161335396393195e+00 4.042064440011482240e+00 1.894454550179606045e+01
-1.289386487287046190e+00 4.939986965473925906e+00 1.868191453034780380e+01
1.282963690452147532e+00 4.605538912974354915e+00 1.895663139644566542e+01
4.099397149878996061e+00 1.071092311115866558e+00 1.946806397269668309e+01
3.862299999999999844e+00 4.309400000000001008e-01 1.937340000000000018e+01
2.758338360897595543e+00 3.622787842935281777e+00 1.926743981933025651e+01
-9.954704275441006445e-02 5.349892831524027059e+00 1.884195193082761932e+01
-8.963109531724242629e-01 5.419573647622401680e+00 1.877665083834786230e+01
7.515336329184640896e-01 4.873930849638226981e+00 1.887307292832769434e+01
4.124289342965759886e+00 -5.071079172232977328e-01 1.946922002830392628e+01
1.867594491223790509e+00 4.384597899985317682e+00 1.909175080318718898e+01
3.955830576925865927e+00 2.130398778390762082e+00 1.948922799016041196e+01
3.442211019095586799e+00 3.413062400126591456e+00 1.942895408917238953e+01
3.928449839281543454e+00 2.753411256920510475e+00 1.951609944905303351e+01
7.954872153125069900e-01 5.496160984026056795e+00 1.896304575323208397e+01
2.596388466064069700e+00 4.468218644545618012e+00 1.928567356574286151e+01
4.336494507067637727e+00 1.711244907481723976e+00 1.956272802779154674e+01
-5.032354350365038087e-01 5.899159242461117003e+00 1.887138701400153451e+01
1.326923020545314191e+00 5.227772354192190996e+00 1.904660592545322118e+01
4.238475149671536713e+00 -3.911015933993861049e-02 1.953257407224183950e+01
4.560718593912236329e+00 3.481066925755360586e-01 1.964957883692760277e+01
3.205115649600843497e+00 3.949980289359083407e+00 1.940590670477728708e+01
4.126592392185470359e+00 3.203181315595260870e+00 1.959058852516891136e+01
1.858359390528997457e+00 4.959384232941545179e+00 1.913016628878712666e+01
2.601223561108096938e-01 6.184570742051904269e+00 1.899661488433088863e+01
4.573798343147886136e+00 2.351955537106535932e+00 1.965747452288591646e+01
5.055248692992241111e+00 1.091812236891791521e+00 1.984622278882473978e+01
3.881809660904809611e+00 3.808756555220977003e+00 1.957043145410152007e+01
8.394992391614586325e-01 6.119218446525982458e+00 1.905313820758424725e+01
4.614917715514017971e+00 -5.094955890517502972e-01 1.969186132591726945e+01
2.434438267394940070e+00 5.313650379592935735e+00 1.930390731222817280e+01
4.939559522387551915e+00 1.870598516852395310e+00 1.980151431749962043e+01
3.536537744790546611e+00 4.378924537363810821e+00 1.952184071588894554e+01
4.811300000000000132e+00 2.993199999999999861e+00 1.975230000000000175e+01
4.566388945926053822e+00 3.598740082105444049e+00 1.973210733350084212e+01
1.300717143971949152e+00 5.828560497577980115e+00 1.911821658468180019e+01
1.839191052473358345e+00 5.657170503114201665e+00 1.921584390784390095e+01
4.937409353621118768e+00 -1.221562894464593985e-01 1.980896050538692421e+01
5.259900747160449086e+00 2.651823274061340108e-01 1.992605961091442168e+01
-3.303762021158287432e-01 6.618165987668236383e+00 1.898914353585740500e+01
-9.070604312785404133e-01 6.448611809642884829e+00 1.890083209734759961e+01
8.835000496133716963e-01 6.742122993761221927e+00 1.914320850429181320e+01
3.234685392156077643e+00 5.002111239766763084e+00 1.948821296245452928e+01
5.180564737726276014e+00 2.414318822909128137e+00 1.989759334100709509e+01
5.670608206691168718e+00 7.106543906701179303e-01 2.008913866832756412e+01
5.549778276800093835e+00 1.835518807424528553e+00 2.004286656281479040e+01
4.321408813900824875e+00 4.204450958740556743e+00 1.971190897159508992e+01
1.689912873939781068e+00 6.463597517363528056e+00 1.928659733911682750e+01
4.076314321116500494e+00 4.810444591185587093e+00 1.969170118076144149e+01
5.143281597276815553e+00 3.464561847512139359e+00 1.997316279986195298e+01
4.884342121517587287e+00 3.983856676403641384e+00 1.993370540943187308e+01
5.455331186544435162e+00 2.813930236832926646e+00 2.009738991922441542e+01
2.646902389155934010e-01 6.986858375127325438e+00 1.910673732876739805e+01
-7.426547014360986854e-01 6.958199377273080799e+00 1.898902334162777450e+01
2.418697037016099394e+00 6.063261622906466641e+00 1.939702671641980558e+01
3.010471620595895903e+00 5.667888611032949164e+00 1.947763461639797100e+01
5.919088957376824389e+00 1.256566450251474176e+00 2.018817803704950364e+01
-3.541194804121350348e-01 7.231593032945489163e+00 1.907026606471575647e+01
1.413048982776597740e+00 7.050720525716569931e+00 1.930071820957109807e+01
3.831148598405941463e+00 5.416615875416126435e+00 1.967148774717126258e+01
5.753913030437407095e+00 2.287887732396950202e+00 2.020847119897159416e+01
4.910606463421259171e+00 4.684366328912419775e+00 2.005048892607712929e+01
9.274733077108027191e-01 7.364625840293312464e+00 1.923322080915142962e+01
3.586300347396274013e+00 6.022000161896081671e+00 1.965130016553292691e+01
6.331344061686895230e+00 1.855950130100183726e+00 2.048792900046369780e+01
5.786908457640434378e+00 3.285123089520873840e+00 2.031801460715432839e+01
5.474932567243219417e+00 3.935453798031258721e+00 2.019380560299634908e+01
6.098885885288634512e+00 2.634793106769474313e+00 2.044222452296111925e+01
2.540326761618346474e+00 6.807978964956618029e+00 1.952005683322191132e+01
3.063258043558072519e+00 6.415031064723196508e+00 1.958567147318658286e+01
2.017292779513223167e+00 7.201004252904875891e+00 1.945442934603832086e+01
2.317569520905999880e-01 7.500716230368801973e+00 1.917321879274234675e+01
4.405981201180014573e+00 5.194104255615781263e+00 1.989838364639690838e+01
1.494360747768435527e+00 7.593952501160593727e+00 1.938881457293969746e+01
4.224061748791068993e+00 5.736126619341850308e+00 1.989719483417451684e+01
5.806582298196700798e+00 4.406345527855743072e+00 2.041444774487305835e+01
9.714299999999997937e-01 7.986900000000000333e+00 1.932319999999999993e+01
4.861822516646437720e+00 5.450253929870048530e+00 2.014308931515420653e+01
4.159689367654467063e+00 6.442798367819667860e+00 1.993979370116870697e+01
6.743598697868620206e+00 2.455333609098055980e+00 2.078767967647614512e+01
