2.948848014802826878e+00 -1.168007844859615751e+01 2.578029052080899319e+01
3.466380961649331738e+00 -1.135751250000000034e+01 2.523025695213607733e+01
5.217986222398446117e+00 -8.956974813108345757e+00 2.310463513722501361e+01
4.695796046177364680e+00 -1.017757154301223999e+01 2.415655656911737736e+01
7.665830079698912947e+00 -3.537668851949881343e+00 2.147872044537900393e+01
6.977828160057402584e+00 -5.630599432517997549e+00 2.183001855112254930e+01
7.492858120894638319e+00 -4.722287546992879115e+00 2.179948992756170512e+01
7.741232552015118173e+00 -2.362405935659167788e+00 2.122258263266594724e+01
7.912046059625932770e+00 -1.785728565689047809e+00 2.124022128666637954e+01
4.020422949315046734e-01 -1.243807770801012680e+01 2.950959947736822997e+01
-2.583864356409468321e+00 -1.127792267669408055e+01 3.196269757936896383e+01
-1.883118279654634408e+00 -1.156806967889552595e+01 3.174254390145686600e+01
7.364391250183651039e+00 -3.034245354521940552e-01 2.082336451676663458e+01
2.793023326734970002e+00 -1.195407043363477939e+01 2.640919002371091651e+01
4.285937579731958991e+00 -1.057091024495766618e+01 2.451447862865265037e+01
3.875935743414706369e+00 -1.096441065793808889e+01 2.487254926964284962e+01
5.105790577495016080e+00 -9.784118749999999309e+00 2.379853173100751462e+01
7.143242139777861155e+00 -6.253960666101088250e+00 2.225816645621340584e+01
-3.900099325760073121e+00 -1.072768868257626274e+01 3.212253015713378801e+01
9.741409461658923075e-01 -1.252094282844144679e+01 2.855187892107167968e+01
2.045407019099488632e+00 -1.234872694717500252e+01 2.735413712006754494e+01
-1.015273498128834939e+00 -1.196743256786200682e+01 3.111193949929164404e+01
-2.821853634008278933e-01 -1.222002827805456704e+01 3.028582431371003381e+01
7.920802381476823584e+00 4.004021884464310510e-01 2.112843419116815724e+01
8.009029983683221943e+00 -3.546905913308197600e-01 2.118418447550954653e+01
2.608908962125376707e+00 -1.227956223754926945e+01 2.715685654717697517e+01
3.547266307319850487e+00 -1.161075041792076945e+01 2.593960467697979766e+01
6.218142438580410492e+00 -8.379514545923655078e+00 2.310891696985781252e+01
5.476764493554515667e+00 -9.315663056049986679e+00 2.356853423419513049e+01
6.987948285742717758e+00 -7.336326337700758593e+00 2.277493542345812827e+01
6.588596875000000352e+00 -7.911293749999999569e+00 2.287903811409815447e+01
7.583027433362390823e+00 -5.620459808604417518e+00 2.214358310286626264e+01
7.839822993452102651e+00 -5.166350083869309273e+00 2.212714030312238833e+01
7.938464433103916917e+00 -3.974653208058299914e+00 2.176924718368855594e+01
8.053677870424788665e+00 -2.842971196685653457e+00 2.143402715188666718e+01
8.282859498660746667e+00 -1.095809476817546146e+00 2.139312444722167328e+01
8.309427232535337993e+00 -2.297089476339352121e+00 2.149830045897311237e+01
-4.458616499719672888e+00 -1.046070941642228824e+01 3.210439453283451883e+01
1.394547293462241599e+00 -1.256184635893159829e+01 2.838686632299785373e+01
1.157440426969915670e+00 -1.251660556345541941e+01 2.918423327049274008e+01
-6.314516906132927598e-01 -1.211476327682131782e+01 3.069480214830984366e+01
-2.681145569823887964e+00 -1.107876234300173657e+01 3.277474248264140755e+01
6.437185857774908371e+00 1.621242781786745857e+00 2.047193985783194847e+01
7.387013155002008169e+00 1.329831628269714905e+00 2.082145798765913369e+01
5.071015861274450032e+00 -1.045461643993169609e+01 2.472597411385313038e+01
4.640236381573510371e+00 -1.086763682861439584e+01 2.510163211117319193e+01
5.847188807217992945e+00 -8.847918492920925360e+00 2.333888691857705311e+01
5.521930315069378814e+00 -1.002179244818763593e+01 2.433205477062781341e+01
7.387375983524400169e+00 -6.761249090904366099e+00 2.267081662455658631e+01
2.289136017704874071e+00 -1.244799160106220626e+01 2.799410488143534081e+01
3.163711481753630039e+00 -1.209546754692043002e+01 2.699066645265504505e+01
3.628313094088277513e+00 -1.186415387273708788e+01 2.664943150318228859e+01
6.209136461323595535e-01 -1.236396702235026446e+01 3.036741557556585391e+01
-7.737726061048008641e-02 -1.215347344419954290e+01 3.118538373520242502e+01
-3.349568749999999984e+00 -1.085505312500000130e+01 3.272379668770240357e+01
-2.012497871259008697e+00 -1.130254537356313449e+01 3.282571395340250575e+01
-8.449639560500318280e-01 -1.185880646181161246e+01 3.201997980697327506e+01
4.209462113130319594e+00 -1.128065830904238531e+01 2.547729197701743686e+01
4.062762969109318334e+00 -1.146047044942091908e+01 2.578028952918453953e+01
5.841830585222769656e+00 -9.740709120614608807e+00 2.413690250627646350e+01
6.211684093564522335e+00 -9.272616723479966794e+00 2.390702018863123257e+01
7.260114894071632463e+00 -7.947376521023301166e+00 2.327746147977784830e+01
7.786671528749018911e+00 -6.186360913536785411e+00 2.256673594742582978e+01
8.446061294904209760e+00 -4.210506233902290063e+00 2.210952411830539077e+01
8.316343060600864590e+00 -4.910293482243734964e+00 2.228211522221367957e+01
8.576062144075443427e+00 -3.509305414316725269e+00 2.193375159652091000e+01
8.504031232879560420e+00 -1.609376779478187913e+00 2.155466003731855906e+01
-3.991583217208247714e+00 -1.055945825621437351e+01 3.265887983360003943e+01
9.631151720824722151e-01 -1.247300483956016492e+01 2.997930680718288343e+01
3.198854504249768915e+00 -1.232510860486175375e+01 2.761244520715407802e+01
3.708499250556825722e+00 -1.211741628760636047e+01 2.735887954257902166e+01
1.999291568066478231e+00 -1.259847139588948117e+01 2.885460882447325304e+01
2.651183911997961218e+00 -1.252168994641299626e+01 2.860831874656248530e+01
-1.279100286463711766e+00 -1.165913970446577785e+01 3.233489657128519212e+01
8.903886757552985642e+00 1.867751418937217134e-01 2.167963304235097155e+01
8.653675137513280546e+00 -4.059539190406609155e-01 2.154494348492768552e+01
8.114358067477779102e+00 1.476945543827068219e+00 2.122623023805771680e+01
6.581724822234936489e+00 -8.804345092086087732e+00 2.367707427999880565e+01
5.935890259923440659e+00 -1.025965407725402656e+01 2.486600520378497592e+01
6.951766606080560962e+00 -8.336072157593964249e+00 2.344712877645379479e+01
7.940846623523553305e+00 -7.267827182111167517e+00 2.327185664872040860e+01
8.186603174545973971e+00 -5.610326979329183672e+00 2.246249576410114912e+01
8.705931263262881359e+00 -2.808906743671762296e+00 2.175572634738089661e+01
8.903708698091826079e+00 -2.024884895223324488e+00 2.180729829711446044e+01
1.340750621987607083e+00 -1.251226790167683234e+01 2.981669100893704893e+01
3.038704823385667275e+00 -1.240932918938680629e+01 2.803124681868901291e+01
4.407125165615878082e+00 -1.186967307034331043e+01 2.702646257845518463e+01
4.095807766374909953e+00 -1.169036528599080960e+01 2.640544643423659110e+01
-2.732502982220005094e+00 -1.095057296656619350e+01 3.332000221265536055e+01
-1.344226207737182044e+00 -1.152620306868413458e+01 3.287656195440980866e+01
8.508757467031529131e+00 8.323807951999024901e-01 2.145285355484967482e+01
5.523715231237924961e+00 -1.074596309223301382e+01 2.535369265334562527e+01
4.952617825647346983e+00 -1.120366376748933490e+01 2.572478182205052732e+01
6.575064447374898258e+00 -9.697314703242760459e+00 2.447515926328503610e+01
6.945058961539589681e+00 -9.229149985413174662e+00 2.424528306663277277e+01
8.027474303278804513e+00 -6.583230609999377592e+00 2.292913502374510415e+01
8.404138766331218591e+00 -6.099524456768758540e+00 2.286445895688355634e+01
9.050314391321835572e+00 -3.979800614268167003e+00 2.235155117346571174e+01
9.101144144273773051e+00 -1.240859344206687087e+00 2.185722583622793991e+01
1.524172846077334942e+00 -1.250793125000000039e+01 3.044902416609858520e+01
4.311723489966102107e+00 -1.211176907763506883e+01 2.762486134420411332e+01
2.604433972405860942e+00 -1.263512044096668951e+01 2.932267127126501549e+01
1.000226003781121031e+00 -1.235004618030198742e+01 3.106229605120898540e+01
-6.747739326434617491e-01 -1.175025636649310989e+01 3.292745046574204792e+01
-9.919956602812877999e-02 -1.197120917232780002e+01 3.230155501665370110e+01
-1.335908475525040995e+00 -1.138158443322116220e+01 3.360620251316153428e+01
-2.115723489838619908e+00 -1.104604816752221730e+01 3.391560954500507563e+01
9.298069879990647379e+00 -4.571946401190327691e-01 2.190552134511428406e+01
4.659210099084717172e+00 -1.156357365497711598e+01 2.633111160011246099e+01
7.315051925356065077e+00 -8.760985621031814219e+00 2.401540730123184630e+01
9.180114691292361684e+00 -3.278865177864767055e+00 2.217581473749188703e+01
7.931487685759791795e+00 -7.983451488523426676e+00 2.367580035840055785e+01
8.991685590212140866e+00 -5.303313568435132908e+00 2.278694367480344596e+01
3.787871822812976852e+00 -1.237068750269178352e+01 2.806836891488708829e+01
3.324351065111421644e+00 -1.251753805316615420e+01 2.883900803307132321e+01
2.064322350026758457e+00 -1.257152593249652206e+01 2.988581111535328105e+01
4.763738825622407802e-01 -1.219216111060397445e+01 3.167571031427737793e+01
6.349562162520133946e+00 -1.049736342061189731e+01 2.539961921277336998e+01
6.829081935692166816e+00 -1.007563198557532047e+01 2.510658702810066956e+01
8.621579366737377015e+00 -6.588277655676447075e+00 2.326625579399370025e+01
8.451365741251040120e+00 -7.569322933258990638e+00 2.373147150838207509e+01
8.718995148743864831e+00 -5.835178251403128513e+00 2.287194470619232334e+01
9.323129062310977488e+00 -4.526135311588839194e+00 2.268627709778142076e+01
9.425394803594725701e+00 -2.744682609525850747e+00 2.223473573637134137e+01
3.209244310193408722e+00 -1.267174957050321993e+01 2.979047929414173979e+01
5.026979038625746021e+00 -1.199223431636671222e+01 2.764062002423634823e+01
4.600563777042219193e+00 -1.227194769780910555e+01 2.818473195333600856e+01
-5.383889067146263585e-01 -1.161092501517426889e+01 3.385265826036054193e+01
6.102982577174047130e+00 -1.082379317554702958e+01 2.574141681681296845e+01
7.308601542676718132e+00 -9.653902786049178175e+00 2.481355897867497973e+01
7.678118788420474239e+00 -9.185643850831542778e+00 2.458335100738828416e+01
8.839039149616439772e+00 -7.077068762280394054e+00 2.366809248571038538e+01
9.654568163075831322e+00 -3.749114578648471419e+00 2.259357421004730782e+01
9.820342689355895160e+00 -3.195595024309937582e+00 2.259599163372579866e+01
1.677617749544430881e+00 -1.245799603686451640e+01 3.112363767882637333e+01
2.488682998327840235e+00 -1.258691145699712699e+01 3.054096260866830903e+01
4.418510418424844488e+00 -1.240596812048355879e+01 2.856067955241526946e+01
3.945230606161523212e+00 -1.246424568967830027e+01 2.873248444699177284e+01
4.102593452318369138e+00 -1.255780632594160906e+01 2.939663885018140732e+01
5.253865167666471159e+00 -1.166664350519126181e+01 2.688176356894509667e+01
1.030174345713808393e+00 -1.223085218317325484e+01 3.216611241955495615e+01
-1.339127756330516783e-01 -1.179184253133332483e+01 3.342182328682734749e+01
2.876137065141759486e-02 -1.188982108091286349e+01 3.298257047587841129e+01
-1.498813929105083487e+00 -1.114154415480670046e+01 3.451133984553985812e+01
5.693674397070284776e+00 -1.112674822573096733e+01 2.597202427525349577e+01
5.374272340846367513e+00 -1.139474824557775534e+01 2.636745702727768048e+01
7.069466971836043001e+00 -1.035185945877383595e+01 2.559720998245963486e+01
8.603085879206510356e+00 -8.019538567567565224e+00 2.407427465565304203e+01
1.014481475011784184e+01 -2.680477140814973680e+00 2.271343283930797341e+01
2.127137553643499768e+00 -1.252375376843397703e+01 3.094529205526920990e+01
5.412926235431151589e+00 -1.217324794228170148e+01 2.830104824975364863e+01
3.813523287098794068e+00 -1.270834643230722882e+01 3.025788760959933299e+01
-9.695992184764032906e-01 -1.137190582437198572e+01 3.428824285712332198e+01
7.322236275972835440e-01 -1.202937145737924851e+01 3.303747218634921978e+01
-2.217903270397969528e+00 -1.079997572241002146e+01 3.474728473649211935e+01
6.763270337792344655e+00 -1.073509328754069969e+01 2.593328477330513948e+01
6.434580132781288597e+00 -1.104984747649790933e+01 2.621921740563584180e+01
7.753360033550578123e+00 -1.006442221240441981e+01 2.558984382012549119e+01
8.140601846396821273e+00 -8.602591948909322994e+00 2.432881128297444207e+01
9.211606036367930628e+00 -6.585826199889169175e+00 2.357150914755758109e+01
9.056683003119051278e+00 -7.566278638663042955e+00 2.407027889828698619e+01
9.251362947306343898e+00 -6.059786268498405626e+00 2.328137647387890752e+01
9.796628090186404236e+00 -4.996398308490592299e+00 2.311134415615860860e+01
1.012848177465243005e+01 -4.218856919426411167e+00 2.301076005737670371e+01
3.453211970260022134e+00 -1.266594520881405828e+01 3.063297228927908122e+01
2.729760101435520614e+00 -1.253956429668120620e+01 3.144120945427135894e+01
1.831102471053580816e+00 -1.240807867967192912e+01 3.179810434405133535e+01
5.848485185640146078e+00 -1.176970689807082593e+01 2.743239201202177924e+01
5.049576545503800418e+00 -1.244127244949338618e+01 2.905333042463988136e+01
4.260048877499404973e+00 -1.265142200539090389e+01 3.006120696474536302e+01
4.970153289809433161e+00 -1.256398872276620793e+01 2.980344394476529502e+01
4.070228294887935361e-01 -1.183343455095377728e+01 3.391626335210310117e+01
-4.020053897215997152e-01 -1.147159513529345531e+01 3.477785608592564159e+01
-1.635556057410009423e+00 -1.081331479626022407e+01 3.561997712247026726e+01
6.141532999827187034e+00 -1.140977767518610442e+01 2.682580100839242832e+01
8.041384374999999807e+00 -9.610534375000000296e+00 2.515161165717359282e+01
8.452561535290879391e+00 -9.092001312241590583e+00 2.492516387131423627e+01
9.881851919200453693e+00 -5.533826854983908916e+00 2.340509221782686211e+01
9.562549999518390464e+00 -6.919700749859601707e+00 2.395120015858708484e+01
1.028826547906419542e+01 -3.426244324140803155e+00 2.296060092396236740e+01
1.583983154728609177e+00 -1.226954359298476405e+01 3.265655444232597659e+01
5.722540662125578770e+00 -1.197434594852531120e+01 2.791711034744768227e+01
-8.820518932874027440e-01 -1.123701697961968193e+01 3.510692900307420672e+01
7.465175871893515058e+00 -1.051856190507931821e+01 2.602832220761123949e+01
9.274381250000001131e+00 -8.055609374999999517e+00 2.447257096755944872e+01
8.863329015176235615e+00 -8.573984894997440875e+00 2.469894436302597285e+01
9.783494971818518238e+00 -6.284296171060509195e+00 2.369062932929707443e+01
1.984571354603161364e+00 -1.235816661688808793e+01 3.247260621429219185e+01
5.842810938254811681e+00 -1.228196402094184592e+01 2.894081527325869274e+01
4.417293647996626049e+00 -1.274491240097700206e+01 3.072491210317671317e+01
-9.505291237111179736e-01 -1.107291525897471374e+01 3.566102628975897204e+01
1.435005932762003500e+00 -1.216878694739494016e+01 3.309234102985739412e+01
2.756448507061601272e-01 -1.165035911982159433e+01 3.472045664329110082e+01
7.176931540843173529e+00 -1.097279641667005912e+01 2.646689509018894881e+01
7.130537602616108472e+00 -1.130712041773051624e+01 2.715576704268587704e+01
1.060281562499999986e+01 -4.689049957191781637e+00 2.343625663070488230e+01
1.006197626568304493e+01 -7.394702720226437265e+00 2.449146336759985942e+01
1.069008038196290400e+01 -3.997889761976364031e+00 2.335214023986367238e+01
2.735475621301067140e+00 -1.243182172172296696e+01 3.254233945535585804e+01
3.332984667012912183e+00 -1.255539009651162097e+01 3.193763362481370649e+01
3.875099983824952687e+00 -1.265015112358904226e+01 3.133120809964096765e+01
5.680258741479202733e+00 -1.247655540594905865e+01 2.954568999254218653e+01
6.225290000859097006e+00 -1.207454805678231935e+01 2.841736517552362074e+01
6.442885405548634203e+00 -1.187273222834540043e+01 2.798282662776201590e+01
5.443244699114301532e+00 -1.259044026612376577e+01 3.017269039425526245e+01
-2.657690624999999307e-01 -1.133241562499999944e+01 3.570205540624999685e+01
1.191780358584591637e+00 -1.202193031392581624e+01 3.375260285783249259e+01
9.485518830984747130e-01 -1.187507227228346274e+01 3.441124536153261460e+01
8.516755603070182090e+00 -9.869835375736878191e+00 2.573165951370275195e+01
8.228340781350444999e+00 -1.032367922401449434e+01 2.616963787675259567e+01
7.739890697951834930e+00 -1.110242469366333751e+01 2.700292912279953228e+01
8.672790298151054955e+00 -9.590666576831281986e+00 2.548722112362637660e+01
1.068502041894843835e+01 -5.371707138677812132e+00 2.379438409107285324e+01
2.138043749999999577e+00 -1.230825312500000024e+01 3.314724669550709280e+01
6.560637183961406826e+00 -1.157226294164196823e+01 2.740594773494604652e+01
5.206230539257711953e+00 -1.270432492073227593e+01 3.079971599298368545e+01
-9.216295590714774777e-01 -1.083629146895052209e+01 3.657152277272876262e+01
-1.226246012021833809e-01 -1.113908127098604339e+01 3.661941707645235766e+01
9.135168893117400657e+00 -9.007551566598358761e+00 2.523256252827940926e+01
7.635346392877478294e+00 -1.138926110958021631e+01 2.756398921521859791e+01
7.868752765753249889e+00 -1.089131916327339411e+01 2.671802744711212796e+01
9.597521534001769439e+00 -8.424403918446216721e+00 2.497786391285690044e+01
1.026476872774713023e+01 -5.899327391665009301e+00 2.379248115251064633e+01
1.031652274986565843e+01 -6.509183500245052656e+00 2.410057264237826757e+01
1.119191138549674847e+01 -4.533965865240407567e+00 2.385845683264321693e+01
3.936109999228506684e+00 -1.257122038144014375e+01 3.243421392167109474e+01
6.492429482389807660e+00 -1.226481420880190676e+01 2.925577514883896768e+01
4.598502507611294199e+00 -1.270940609821623646e+01 3.140015657785476577e+01
4.967020837655428345e+00 -1.273707813342136497e+01 3.113742700382853812e+01
7.084170029221704468e+00 -1.164125621172059333e+01 2.784426497339790885e+01
6.958056185959566875e-01 -1.168712276539133477e+01 3.508068240882475664e+01
1.612016504570151776e+00 -1.205636060966414647e+01 3.412215354190460914e+01
8.302567440202341942e+00 -1.123198751974109300e+01 2.753869857801207033e+01
8.559757712159052900e+00 -1.080993810761581564e+01 2.696886472092941034e+01
8.775632105136221384e+00 -1.046936766805468011e+01 2.663990922960065788e+01
9.875031078108911231e+00 -8.139972406777571834e+00 2.489869426379739181e+01
1.107926161560706468e+01 -4.985723628432169541e+00 2.389840147515040414e+01
1.084934687500000017e+01 -6.733984375000000355e+00 2.451036074332315096e+01
1.161743705726552456e+01 -3.420149679071011306e+00 2.394352135057645370e+01
1.145487663442616899e+01 -4.030545724868021651e+00 2.395161206405267862e+01
2.889125432347189104e+00 -1.238190826923838372e+01 3.321713006315045646e+01
6.311551997907377753e+00 -1.251187254764015400e+01 3.003853429650495599e+01
7.037740740623838143e+00 -1.197583776200267636e+01 2.853369544196030461e+01
5.995225208791588045e+00 -1.266373434042889912e+01 3.087452699267330303e+01
4.430602196586643782e-01 -1.149917478721613939e+01 3.575011232402276562e+01
2.675145271912655609e-01 -1.136789029442320498e+01 3.618753776998805449e+01
8.991505139252700118e+00 -1.012879726186373297e+01 2.631095464350826774e+01
9.303932089585122966e+00 -9.570807730278515280e+00 2.582269215694801545e+01
1.076716931564102886e+01 -6.053057265222260952e+00 2.415229601633344458e+01
1.050032453602402249e+01 -7.713539267121262810e+00 2.498245763606603020e+01
3.640695144799968030e+00 -1.245560738151371005e+01 3.328707312048830858e+01
2.282430608618229773e+00 -1.220544065611788653e+01 3.406438837327173985e+01
2.709757976483397446e+00 -1.232413877620014908e+01 3.364603232469723793e+01
7.171686117389280746e+00 -1.212733425366521978e+01 2.915561045519456584e+01
5.516749836257432982e+00 -1.272924363570630923e+01 3.154995562830151101e+01
4.779782872682176276e+00 -1.267388579831479234e+01 3.207574476223295079e+01
-4.540747135135855261e-01 -1.085847188866294744e+01 3.716851344971215809e+01
1.489446933425119024e+00 -1.191666110166018200e+01 3.490564885296279840e+01
9.920876336231469139e+00 -8.793442410862992276e+00 2.548349786752134705e+01
8.038905405125163384e+00 -1.155958033352371928e+01 2.811270279877036060e+01
1.155593377382755271e+01 -5.282565492499339044e+00 2.436077485358792671e+01
1.112561898673542693e+01 -7.287105751515631447e+00 2.506622432373954013e+01
1.167953292119833542e+01 -6.305194655558144845e+00 2.489817106131797075e+01
1.203259901444778102e+01 -5.579434603331176135e+00 2.482314968337636785e+01
1.178120178790126893e+01 -4.378856959921868075e+00 2.428079658718732503e+01
1.199375122672842764e+01 -3.821987985842357993e+00 2.432316527670803552e+01
7.305775374067879468e+00 -1.227899204065125183e+01 2.977820108412306865e+01
7.656984903764632477e+00 -1.203667920686127601e+01 2.901083092026185284e+01
1.152309445927646614e+00 -1.166603174240936625e+01 3.579820296428395210e+01
-8.927291559337967586e-01 -1.059966828206715839e+01 3.748201825841128709e+01
8.010391612811926798e-01 -1.140338099841136632e+01 3.667323957195126383e+01
2.057425082518686554e-02 -1.094567468999152204e+01 3.753712278616225717e+01
2.426799169981698867e+00 -1.210264230532770036e+01 3.497940506722157039e+01
9.160448331741456229e+00 -1.099895124940662683e+01 2.762665391068551202e+01
9.250727370372178626e+00 -1.072856096455712382e+01 2.721968998499333026e+01
9.466890612605030952e+00 -1.038810540997697274e+01 2.689103055919497720e+01
1.137697836424804443e+01 -6.904210540260410589e+00 2.497006990557198947e+01
1.206369886207683351e+01 -3.185144903256722948e+00 2.434064896841484327e+01
4.539339023570909681e+00 -1.258705156975943495e+01 3.293084354140579251e+01
3.281961937973997934e+00 -1.234003794582845437e+01 3.414526570643841552e+01
7.775242940265292724e+00 -1.188717175085219324e+01 2.868671472711234216e+01
6.942717912670959279e+00 -1.254718256531469223e+01 3.053128682894735846e+01
6.204745311171565580e-01 -1.114203751510515694e+01 3.747622549678445836e+01
9.701027946715194972e+00 -9.969526431814381695e+00 2.652462108257198281e+01
1.024402426525455923e+01 -9.162245619588549772e+00 2.598881478981023108e+01
8.865413351428250266e+00 -1.136158855540087309e+01 2.807463224705346150e+01
1.047584203738508002e+01 -8.224358079696038715e+00 2.532493384913404810e+01
1.059286590923565008e+01 -8.702307852992227311e+00 2.580188717143982657e+01
1.140193389904433374e+01 -7.840310683541292569e+00 2.562218945651796886e+01
1.243988323648287952e+01 -5.049666860843727179e+00 2.499425913227324614e+01
1.256896093749999999e+01 -3.369099518817666450e+00 2.482384439234350637e+01
4.961039348105538593e+00 -1.263837035166695877e+01 3.275132707319611569e+01
4.392290028365515298e+00 -1.252924906947902706e+01 3.335697479126448428e+01
7.439925707054981352e+00 -1.243071934762295427e+01 3.040109017760817167e+01
6.066477313887328471e+00 -1.272140936747280904e+01 3.196248910586376368e+01
-3.643971684263135891e-01 -1.067604412714654494e+01 3.796826198100923477e+01
2.030692297768314170e+00 -1.195827693836993433e+01 3.540037205243820040e+01
9.935167328663981223e+00 -9.550945893546025189e+00 2.615821418831571066e+01
8.513165877350752808e+00 -1.179845491452847916e+01 2.883982120078234246e+01
1.107710289302112017e+01 -8.308807874934673876e+00 2.575149534276535235e+01
1.190440357688420114e+01 -7.074370787351519141e+00 2.542960321380960309e+01
1.250974062500000095e+01 -5.876393749999999194e+00 2.528599449466564408e+01
1.237009687499999977e+01 -4.223878402093595774e+00 2.470285309461669243e+01
5.141861554429991266e+00 -1.260286259532001552e+01 3.342685706787882793e+01
8.276243109997482250e+00 -1.209752201362211821e+01 2.948798194663547179e+01
6.784439972108815553e+00 -1.262313248386140785e+01 3.094935971096979443e+01
8.103680580859467852e+00 -1.232735690451727351e+01 3.028041110213251486e+01
6.700323674844081090e+00 -1.266835361899716261e+01 3.166216858605969975e+01
1.495517348140485980e+00 -1.161269054195712869e+01 3.649099735587207505e+01
1.636866895014351952e-01 -1.075238441131933342e+01 3.845427616373273594e+01
-3.897628843843474744e-01 -1.051140224851092242e+01 3.842714537315060142e+01
1.861890814395275484e+00 -1.183296754038596887e+01 3.584631249136109687e+01
1.056718123174839441e+01 -9.531059375574292503e+00 2.649415129607263353e+01
9.941825554262752718e+00 -1.064716776077529303e+01 2.747056192288829024e+01
1.025446610776092982e+01 -1.008918160228697936e+01 2.698241382745704797e+01
4.499154627735756584e+00 -1.247939979732916527e+01 3.403556110074928398e+01
3.212650292042284139e+00 -1.217788537245866287e+01 3.526971386727352353e+01
5.797174863363417252e+00 -1.265938838083182816e+01 3.283927795010057338e+01
7.574127835499452566e+00 -1.258250626489362034e+01 3.102423765119329602e+01
-9.433359856100023144e-01 -1.027036550731784281e+01 3.840001059467212485e+01
2.571178125000000314e+00 -1.199983437500000072e+01 3.589440099999999489e+01
1.280376829119218485e+01 -4.147790164241481392e+00 2.512208331140060835e+01
9.427991477760427230e+00 -1.149112839174764211e+01 2.861031651431011369e+01
9.958223566167857754e+00 -1.097153261784500522e+01 2.802889314052412928e+01
9.449389287785168179e+00 -1.119940216764920571e+01 2.812848904041141296e+01
1.112278514215192970e+01 -8.961992100159317687e+00 2.633596851527670424e+01
1.167809999999999881e+01 -8.393218750000000838e+00 2.617787002133153962e+01
1.318743227679423491e+01 -4.741959258679367295e+00 2.559341427948665171e+01
1.266009842021527554e+01 -6.389747393994134939e+00 2.564086553028799287e+01
3.854124484728355338e+00 -1.235593679150675328e+01 3.464447614132702569e+01
8.895609474539931227e+00 -1.215837538336460000e+01 2.996522085742277852e+01
6.616204153124885856e+00 -1.271357500443446931e+01 3.237503318976774125e+01
2.131393896745401140e+00 -1.167786395676698774e+01 3.695565881477166670e+01
1.299208608013419664e+01 -3.609360218409092269e+00 2.526022557624720832e+01
1.306894891968076955e+01 -3.007651956810918570e+00 2.528346939180326913e+01
1.277861578079758864e+01 -4.482817553068008110e+00 2.514796813424821309e+01
9.252481773555631506e+00 -1.170957208488351142e+01 2.899322003099052125e+01
1.243292309296235310e+01 -7.244883847604550731e+00 2.589009332466392976e+01
1.325801164296921364e+01 -5.568525396663216220e+00 2.588574539310842226e+01
1.296430039037604409e+01 -6.084518250942410944e+00 2.576057895987358037e+01
5.923193176664844906e+00 -1.262466914718745414e+01 3.347330800023139830e+01
5.284932676508325322e+00 -1.253646648011811138e+01 3.433139699368687303e+01
4.426335251661327241e+00 -1.237183645568329027e+01 3.514371025728735276e+01
3.320609569437196207e+00 -1.210073873511497133e+01 3.595591153605369783e+01
8.369166203385178804e+00 -1.252216583645268599e+01 3.111767297370806418e+01
8.888308132012994633e+00 -1.194088421644288545e+01 2.940093865302669585e+01
8.741721389815317877e+00 -1.233874166938178618e+01 3.057967162481616796e+01
7.181579807495768186e+00 -1.266148761405147560e+01 3.202318481719790810e+01
1.101869384579465461e+01 -9.811240483431909354e+00 2.708529521524103245e+01
1.060146029946276336e+01 -1.055561294759778335e+01 2.773641171676437267e+01
1.042789072618558954e+01 -1.076114122822398578e+01 2.791921379802039738e+01
1.231955689397574183e+01 -7.903908906935631862e+00 2.626381547496169233e+01
1.115391262897876601e+01 -9.549224063237380378e+00 2.687356885602443768e+01
1.323772364588631234e+01 -4.071654034124518873e+00 2.554160010756238464e+01
5.730573419826122006e+00 -1.260345335993545213e+01 3.389659130484967875e+01
8.099284847518056552e+00 -1.259019304962678554e+01 3.143669346685252464e+01
3.111877662017296320e+00 -1.200191886339773006e+01 3.636580247398386234e+01
2.693109606683100843e+00 -1.184835609012465163e+01 3.680228349951912037e+01
9.515123932423941611e+00 -1.221924343542539049e+01 3.044257912917711906e+01
1.337048744353678309e+01 -3.501555629469598863e+00 2.562246402959317848e+01
1.147087535603915143e+01 -1.009183597926891274e+01 2.767732038818375884e+01
9.974626372402768837e+00 -1.129597558054333994e+01 2.858736464879174477e+01
9.464718631535401272e+00 -1.191828769591816695e+01 2.964089111591917103e+01
9.991046851397991091e+00 -1.162077765815194397e+01 2.914645892907900304e+01
1.209033405230917779e+01 -8.796683948136628572e+00 2.678929502859269718e+01
1.281025656659843648e+01 -6.902418572628066684e+00 2.599527885833065710e+01
1.359647852268177814e+01 -5.001263872061440630e+00 2.603911711521632455e+01
7.165932347037081485e+00 -1.270574055894877574e+01 3.278758654616193269e+01
7.746956461078998046e+00 -1.260939977022234260e+01 3.167135299696245099e+01
4.069857507490212356e+00 -1.220161838770744644e+01 3.601740701058822225e+01
1.367199687499999960e+01 -3.995462689614936114e+00 2.596143876839175135e+01
1.091470936601372621e+01 -1.087528833040404486e+01 2.836855909473593229e+01
1.042123127229356960e+01 -1.104978378360806701e+01 2.840488847975715814e+01
1.126246584480868940e+01 -1.046386703685654318e+01 2.800281380862392311e+01
1.222866126783129204e+01 -8.463416575886222759e+00 2.659901567408367384e+01
1.296040625000000013e+01 -7.415062499999999446e+00 2.634968382026218237e+01
1.341861489522237783e+01 -6.292530457024533952e+00 2.623491409941244967e+01
1.383896798109875270e+01 -4.628416184604357220e+00 2.622335091825911846e+01
7.919766581882673684e+00 -1.263629055325943540e+01 3.231843793930791975e+01
4.998884103055434736e+00 -1.238772254123530736e+01 3.564196882719529214e+01
6.703926661923547137e+00 -1.264647011353844519e+01 3.351976392183708953e+01
6.319022600558381164e+00 -1.260404394094947556e+01 3.436611974619063403e+01
5.429098464121426382e+00 -1.247005676245601435e+01 3.523630992450276977e+01
9.164211564705448509e+00 -1.246182487015786400e+01 3.121110933343054938e+01
8.624440544927816532e+00 -1.259787971613014257e+01 3.184914960476329426e+01
1.372985477061707726e+01 -2.574142596111251624e+00 2.595609075741803551e+01
1.174107427579818186e+01 -9.567402072189253204e+00 2.725326580181006975e+01
1.192272151349532550e+01 -1.037222505017598451e+01 2.826891426005395402e+01
1.075508605948952301e+01 -1.122932073374055228e+01 2.888465110555263138e+01
1.400574375000000060e+01 -5.260728215623489135e+00 2.648506440291077979e+01
1.401230204452815897e+01 -3.541411912736601941e+00 2.629703734817127625e+01
9.959849312589291515e+00 -1.240143894394075019e+01 3.130461550992457731e+01
1.024574258443203867e+01 -1.186087144045229458e+01 2.989695920097724624e+01
1.387107840412494575e+01 -3.057755828314241420e+00 2.612655456997350001e+01
1.140111216622044310e+01 -1.098933900774594186e+01 2.881752483564946843e+01
1.078470882503417094e+01 -1.148643695895217220e+01 2.933597478124001512e+01
1.326669366992942400e+01 -7.834629078860277041e+00 2.685363304330905265e+01
1.410271514196508491e+01 -4.100144637721098384e+00 2.643401093602268404e+01
7.715659137675115353e+00 -1.269790625974442655e+01 3.320015042995179755e+01
9.149532965104883786e+00 -1.260556559092280615e+01 3.226156250380112311e+01
1.013549446312650204e+01 -1.228019539895051970e+01 3.092060125918612457e+01
1.232784390586142287e+01 -9.585568607828630405e+00 2.763271112655587558e+01
1.250252847709147197e+01 -9.200110361684995297e+00 2.740066902235259505e+01
1.241898200798810770e+01 -9.987864315811483706e+00 2.814059701368280386e+01
1.051994620383643309e+01 -1.167092840655088359e+01 2.958143100240230794e+01
1.277886321073026643e+01 -8.533568587018464768e+00 2.701988840236878531e+01
1.416637600694212829e+01 -5.986089909017720423e+00 2.683439968437650336e+01
1.423194136781215313e+01 -4.592808964400973082e+00 2.663710219167478854e+01
1.364374348251074487e+01 -7.061562838427756894e+00 2.676646556607227723e+01
1.387285024320078008e+01 -6.500506739830762548e+00 2.670917315685488092e+01
7.484658747245765298e+00 -1.266827104079803590e+01 3.356623639773949463e+01
8.092577445335052744e+00 -1.266318121397088881e+01 3.296556030785928471e+01
9.934173844428956457e+00 -1.248687865535617192e+01 3.191751606703093458e+01
1.050041244835555965e+01 -1.210093978050646513e+01 3.064740115022092937e+01
1.421103890588019603e+01 -2.603989506070117699e+00 2.646183510079258383e+01
1.214829761565177968e+01 -1.079480022475046752e+01 2.899212719445590025e+01
1.348294509778945027e+01 -7.583317072402615544e+00 2.684448349273296230e+01
1.446806529065588975e+01 -5.457177722330625258e+00 2.700442430875090949e+01
1.432665312499999999e+01 -6.708284374999999855e+00 2.718298651583745951e+01
1.444309150960222432e+01 -3.646159914813674074e+00 2.676968174009481061e+01
1.401770954864701579e+01 -2.131872294357107123e+00 2.624343566429240582e+01
1.435253657672507188e+01 -3.087498766241125736e+00 2.663258004779168431e+01
8.707460793449124381e+00 -1.264781857041593049e+01 3.293709307454353308e+01
1.075515643250760967e+01 -1.234107809321768734e+01 3.139808302238201065e+01
1.244392789632380314e+01 -1.042822673760932162e+01 2.867433230068116856e+01
1.188751530548357138e+01 -1.110338883794847398e+01 2.926649203200475213e+01
1.104956002068897902e+01 -1.172114548543466483e+01 3.001699055565552143e+01
1.157913233201059988e+01 -1.135196688607237192e+01 2.952567183204430279e+01
1.291493458030866925e+01 -9.603743936439805395e+00 2.801236390851227043e+01
1.357320840503179937e+01 -8.254504501091020074e+00 2.735796532968701200e+01
1.453364418251146084e+01 -4.204879317947955109e+00 2.690682336319571277e+01
1.446905482148314448e+01 -4.978296589234072478e+00 2.694088467154381661e+01
8.265387948717346944e+00 -1.269007174496362289e+01 3.361272120456545309e+01
9.674589020637268888e+00 -1.261325094124115864e+01 3.267395064438086649e+01
1.103927057574811066e+01 -1.193610189093478269e+01 3.054954606497924630e+01
1.339755551920961629e+01 -9.138419308868085622e+00 2.793697166409542021e+01
1.332949487139535094e+01 -8.603775388152635983e+00 2.744109176229384772e+01
1.493035389524249545e+01 -5.653648935009672805e+00 2.752374967423505936e+01
1.444564185651661958e+01 -2.119954452094615860e+00 2.669194606805708148e+01
1.087889291628312272e+01 -1.241494015434170706e+01 3.202678623859193152e+01
1.031877723371642119e+01 -1.252154612168317449e+01 3.243380432681479419e+01
1.327922124144386373e+01 -9.934550883503844076e+00 2.863846217970245078e+01
1.237390624999999922e+01 -1.121743749999999906e+01 2.971545270413814777e+01
1.296554564110137164e+01 -1.048427298408814323e+01 2.908007165151003193e+01
1.400527754117669943e+01 -7.751505589678361119e+00 2.733908841598792350e+01
1.493226538399352954e+01 -4.695949686911347065e+00 2.739661260667978482e+01
1.492696156965718934e+01 -3.228131779249872491e+00 2.726286878229971933e+01
1.476618767736466253e+01 -3.776122933813794713e+00 2.712779537380021111e+01
1.469259339838785294e+01 -2.633860381483034363e+00 2.696796887102833296e+01
1.419853243831872724e+01 -1.605741747065177361e+00 2.642005186458793986e+01
1.019964586515362370e+01 -1.262093599038135139e+01 3.308633744698440182e+01
1.348099083939442266e+01 -9.647132750488960795e+00 2.844449495751601376e+01
1.197601599475926903e+01 -1.149435048682764382e+01 3.008357022033911932e+01
1.157812676855848366e+01 -1.177126342343727927e+01 3.045169236429908821e+01
1.496453866519135900e+01 -4.309607282780985038e+00 2.737960661673728069e+01
1.387935937499999994e+01 -8.673884375000001867e+00 2.786171019158937057e+01
1.483557825540471953e+01 -6.487168429246608525e+00 2.764220676809485866e+01
1.442724929500185027e+01 -7.313925520036176131e+00 2.750841034085707193e+01
1.129656477676494930e+01 -1.233859959540530049e+01 3.185225501915689605e+01
1.146773927411780036e+01 -1.200373752623304036e+01 3.096960264464350843e+01
1.420470599321344274e+01 -8.949926052654818776e+00 2.833194520680311257e+01
1.364345385529899524e+01 -1.026530867106772860e+01 2.926447276024928001e+01
1.404689792354210809e+01 -9.690513326785730186e+00 2.887651523982442470e+01
1.476697193890128190e+01 -6.911394541869626984e+00 2.768067155050211881e+01
1.514553008119734301e+01 -2.631757515083332333e+00 2.746586665774159286e+01
1.516088379849226797e+01 -3.821326912879453364e+00 2.755728119998312309e+01
1.530599235750753095e+01 -3.169307939400531904e+00 2.767597625567318431e+01
1.462234449663300850e+01 -1.606439368099928711e+00 2.687101688703828017e+01
1.504644465285137223e+01 -2.054780626770817076e+00 2.733168757523951342e+01
1.100251180743800639e+01 -1.248873188027021541e+01 3.265490502325364019e+01
1.135735065154644019e+01 -1.223621054781942874e+01 3.148752451418245357e+01
1.319048512239404758e+01 -1.090701596664757744e+01 2.980311901387496221e+01
1.263724352696869602e+01 -1.145218492627015650e+01 3.039562885859743702e+01
1.210670896376360872e+01 -1.182138404492230244e+01 3.088641252315014540e+01
1.348675789104562028e+01 -1.054027552621146846e+01 2.948549629405138717e+01
1.452788125000000008e+01 -7.919781249999999773e+00 2.783395064511758932e+01
1.554746339396765364e+01 -4.957917282064612685e+00 2.808778327896895277e+01
1.539182735873759533e+01 -5.849600337722496768e+00 2.804216143284103779e+01
1.292178518260389808e+01 -1.123958027591987552e+01 3.016717281002051720e+01
1.438350230443802502e+01 -8.691571355529095655e+00 2.828583005920643245e+01
1.452972219101268081e+01 -9.225686250636139007e+00 2.880170293726786923e+01
1.534437237933874343e+01 -6.266109402709692411e+00 2.810131061214409343e+01
1.539462823833990868e+01 -4.414141877011216408e+00 2.785151522994919659e+01
1.520741760994393132e+01 -7.114563806570157745e+00 2.817850120094382405e+01
1.559776153940663868e+01 -2.629659590223106136e+00 2.796300470456035825e+01
1.569110993631893081e+01 -3.298007414571197948e+00 2.810754013212415359e+01
1.495573393162450948e+01 -1.131937104663891525e+00 2.721678649278333140e+01
1.196004201072736883e+01 -1.213125595655479749e+01 3.157703945527468647e+01
1.183840102322634280e+01 -1.233612004921066685e+01 3.230679195421625849e+01
1.290058585125233570e+01 -1.168693685188125819e+01 3.107582740061780413e+01
1.461310315384864467e+01 -9.733915243986016819e+00 2.930876203760250576e+01
1.488764523387605543e+01 -8.709258336058189442e+00 2.870994993043220589e+01
1.498437079879066580e+01 -8.194892230734796001e+00 2.840919487915939357e+01
1.400791249999999977e+01 -1.059627187500000112e+01 2.989087694849818888e+01
1.504833272536006739e+01 -7.786873103465580037e+00 2.828100246355421987e+01
1.570029737553766580e+01 -5.501836285628257883e+00 2.832407526220270455e+01
1.565473145605385241e+01 -2.122216380723834117e+00 2.800341621806357750e+01
1.578445759355796341e+01 -3.966422954469996043e+00 2.825212263719562955e+01
1.539971098658975279e+01 -1.476671422642955589e+00 2.769482421985193454e+01
1.263528054664844191e+01 -1.187150291276634562e+01 3.132112524491121164e+01
1.347034272174199643e+01 -1.126175047803106821e+01 3.061945382332198307e+01
1.459337050388779033e+01 -1.018720649594058969e+01 2.981625147816691879e+01
1.485479710208685944e+01 -9.501496830879220923e+00 2.927154721020482242e+01
1.598454935093529272e+01 -5.016273854476430039e+00 2.858013217920768767e+01
1.583169479517748890e+01 -4.472458886274887746e+00 2.834382564463131615e+01
1.585313140625000017e+01 -6.045065625000000331e+00 2.856038499524846586e+01
1.537602852870831605e+01 -8.607327719449661130e-01 2.765877428247324943e+01
1.256213473534950786e+01 -1.202640693545788686e+01 3.166647014884311773e+01
1.556836045115842815e+01 -7.654076346755503302e+00 2.872769193912068175e+01
1.544059002644718781e+01 -8.469838805528919323e+00 2.898410383462365303e+01
1.564777983587672949e+01 -7.317693243708693451e+00 2.867623699940639170e+01
1.597092607012877252e+01 -6.782664934284825975e+00 2.886739336192032823e+01
1.604980849274678079e+01 -2.627563798907702974e+00 2.845995487177589567e+01
1.617432110068880746e+01 -3.518686253144707177e+00 2.865276538417370489e+01
1.596475421771394743e+01 -1.474532664077796484e+00 2.831593800411858908e+01
1.575268139163210890e+01 -8.990580427478989112e-01 2.806078656259558812e+01
1.277214043319457382e+01 -1.212763017710183355e+01 3.225865583158214633e+01
1.401811556663675162e+01 -1.128388896636799288e+01 3.107108926485958023e+01
1.316385312499999927e+01 -1.192162187499999959e+01 3.175584171782465148e+01
1.428444398846371755e+01 -1.077916542612903505e+01 3.041167859168307430e+01
1.517994044152586497e+01 -9.777366604513250792e+00 2.974149297010967530e+01
1.539221973579558167e+01 -8.726961981393673184e+00 2.913443400324542765e+01
1.451967480402040067e+01 -1.057882505095992975e+01 3.030790010027869741e+01
1.628480451962367326e+01 -5.710599536107825891e+00 2.899855301175375999e+01
1.616194386276177752e+01 -4.052786029631010756e+00 2.868009469750198193e+01
1.626880221734914045e+01 -4.530791642762405758e+00 2.883619279401758106e+01
1.628980241341051283e+01 -2.049971011861066561e+00 2.869851279325867210e+01
1.553800495808136439e+01 -9.261388814564341487e+00 2.965018451941111266e+01
1.599274502137426879e+01 -8.132794706660382289e+00 2.936672905660157085e+01
1.627556328229481508e+01 -6.148176280396619120e+00 2.904783393656523316e+01
1.633804437283790278e+01 -5.080311720477314275e+00 2.898038998652382148e+01
1.652979576095717817e+01 -1.472394891741657386e+00 2.893708341003025808e+01
1.656414604267509105e+01 -3.071013373432605498e+00 2.905336876835212934e+01
1.562596766879923571e+01 -3.724935429775877438e-01 2.791348988229378136e+01
1.456091466512801702e+01 -1.096201778223272605e+01 3.093236743978771131e+01
1.552716847545752898e+01 -9.960267574425387238e+00 3.030054779186740532e+01
1.589659398615893693e+01 -8.744654747210667267e+00 2.955874720573100234e+01
1.608886256254954006e+01 -7.521156409592414605e+00 2.917478854319587711e+01
1.663501595466953376e+01 -3.830007279351859140e+00 2.919094270661785728e+01
1.650185552071994621e+01 -2.625468194150816004e+00 2.895691953640666583e+01
1.674187568681036709e+01 -2.047871313656153269e+00 2.919549464096682456e+01
1.631771705745589074e+01 -8.969421786519315987e-01 2.867938037355648007e+01
1.610563109374999868e+01 -3.214899538566842740e-01 2.842419176782759749e+01
1.566843966228558926e+01 -9.725036732025893471e+00 3.015486530468350423e+01
1.503188090431502211e+01 -1.056136309717027899e+01 3.072528553686674258e+01
1.669807362384350924e+01 -6.251306088300396802e+00 2.953537985748795691e+01
1.671648326308184451e+01 -5.376018615080196739e+00 2.943672729441126634e+01
1.670588707479626223e+01 -4.589131688503389483e+00 2.932854455856035969e+01
1.632817540661866573e+01 -8.937457322628002743e+00 3.012128760941768135e+01
1.648014479827354606e+01 -7.654970292225227624e+00 2.964021610331719714e+01
1.643430859424309176e+01 -8.605991989909865580e+00 3.004508315767935400e+01
1.655815747720296116e+01 -7.281353807342304307e+00 2.963079776197015391e+01
1.695395573809503986e+01 -2.623375379131470009e+00 2.945395679993121618e+01
1.716267929011406679e+01 -3.317301672277213509e+00 2.974038325756390577e+01
1.678011090777395964e+01 -8.381359672695828378e-01 2.918784833455234207e+01
1.700279762153117602e+01 -1.442430544169041262e+00 2.945914510015520804e+01
1.615714355067748187e+01 -9.672685895033890091e+00 3.056841320454814692e+01
1.587464590683708998e+01 -1.014330031644604446e+01 3.086000969639472302e+01
1.737139639733641872e+01 -4.011308035196264221e+00 3.002683610387851587e+01
1.723608340191468002e+01 -2.075587929426433220e+00 2.974343562220558113e+01
1.687190162359347667e+01 -7.788945044741550916e+00 3.010621214948566404e+01
1.702801507835155803e+01 -7.041263520865488346e+00 3.008735513366889691e+01
1.713481217210151542e+01 -5.698070675981079525e+00 2.994940914456372738e+01
1.714832717678204332e+01 -5.040959623485464114e+00 2.987506970863320177e+01
1.714296974945694529e+01 -4.647485252563987146e+00 2.982090363207105099e+01
1.740316579766594884e+01 -2.592997321000416910e+00 2.998633546497254088e+01
1.697144461962567874e+01 -8.467477187326265309e+00 3.053089705789749431e+01
1.675983373008538990e+01 -9.130292644743475350e+00 3.068393272476509281e+01
1.712129774821778483e+01 -6.354609355849305530e+00 3.002375550890758404e+01
1.761201706996726202e+01 -3.286910747003077393e+00 3.027294399533025882e+01
1.728589012345751996e+01 -7.359435876364334383e+00 3.045282571285398276e+01
1.726340940868123752e+01 -7.922835123252888856e+00 3.057191669278339319e+01
1.758023537499999733e+01 -4.705878586274796049e+00 3.031347805171266074e+01
1.749762128679271100e+01 -6.801301692344869920e+00 3.054366977949751671e+01
1.747491800161863651e+01 -5.913514718979594242e+00 3.035992287959557601e+01
1.770921565493553373e+01 -5.324375115304682105e+00 3.054218796328271424e+01
1.781376177822739137e+01 -3.726296595279103840e+00 3.053707118754059380e+01
1.750847375702450748e+01 -8.328989561752331738e+00 3.101661609291319266e+01
1.754420502546991401e+01 -6.457836817444762012e+00 3.051177166931266527e+01
1.790461521854565419e+01 -4.259008092244819466e+00 3.067450493133653922e+01
1.783847508459536257e+01 -5.943199524567689629e+00 3.077140164383841281e+01
1.804083093322842757e+01 -3.187321326947227362e+00 3.077730237035330063e+01
1.801366187210072312e+01 -4.725344523421181719e+00 3.083921554992422287e+01
1.796755625847720594e+01 -6.561172051431625185e+00 3.100030576143984362e+01
1.814276094129469996e+01 -5.344200921823198058e+00 3.106815918042712710e+01
1.822902390392698990e+01 -3.812136876274930142e+00 3.103556763850343003e+01
1.844704633158239915e+01 -4.744819330043929639e+00 3.136491720281655304e+01
1.841257340875737825e+01 -6.121567807083938106e+00 3.148587417805438449e+01
1.852760852149589255e+01 -5.409243109466798316e+00 3.154066672207541444e+01
1.870648199740985618e+01 -4.019618533604950805e+00 3.162781845232955646e+01
-9.859110554109584257e+00 7.080704915058994686e+00 4.134412634001071041e+01
-1.057608155889007051e+01 7.182000671419699778e+00 4.065741025307655576e+01
-1.000971772390515468e+01 6.477467010019426041e+00 4.114867021311781059e+01
-1.023881556459897979e+01 7.809660143380105168e+00 4.103759291945809196e+01
-9.176135583982485855e+00 6.919426773991527391e+00 4.187639639262109625e+01
-9.555375660383651493e+00 7.650426485945148514e+00 4.157011668259968928e+01
-1.090090796983013632e+01 7.973030281752837567e+00 4.040951225075360753e+01
-1.061807889069580213e+01 8.537158128764872345e+00 4.073250495871803167e+01
-9.934884522687585928e+00 8.378548925082302645e+00 4.126488700676069499e+01
-9.251540668539171008e+00 8.219502230508036078e+00 4.179747362660507548e+01
-8.872000033334638047e+00 7.491194964712780902e+00 4.210263406708490663e+01
-1.128051302565321734e+01 8.700545445110501319e+00 4.010417325576649006e+01
-8.567980498677638224e+00 8.060008176366777022e+00 4.233033448876851423e+01
-1.031407208994576941e+01 9.106250420854058447e+00 4.096085736550589473e+01
-1.099764791222046334e+01 9.265153744226610755e+00 4.042802525841335637e+01
-9.630955215809125392e+00 8.947437957163556277e+00 4.149347579318846613e+01
-8.947708445415955225e+00 8.788578076958398100e+00 4.202638869762504470e+01
-1.150147982342743269e+01 9.393030701011532813e+00 3.994120391100982914e+01
-9.315463211890127937e+00 9.435238416534925676e+00 4.170693886387567062e+01
-9.893487287530803087e+00 9.756261344696369520e+00 4.124499055170425521e+01
-1.057643265462228754e+01 9.915593989865056912e+00 4.071196585847044247e+01
-8.263601206617929407e+00 8.629503573413522588e+00 4.256026376246843768e+01
-1.135156450629256142e+01 9.940906173491312003e+00 4.013975235409719033e+01
-8.632068123200772547e+00 9.276895854671067809e+00 4.224076817185394361e+01
-8.999990104002799640e+00 9.922486248720673530e+00 4.192236252337836078e+01
-9.367799588758407126e+00 1.056791743003792128e+01 4.160447587216012266e+01
-1.015602440722558164e+01 1.056459218501823649e+01 4.099791584503608277e+01
-1.179194393360511661e+01 1.000927309408802657e+01 3.971000707454759038e+01
-1.200611712900865768e+01 9.521093575942014553e+00 3.945373810956300531e+01
-7.811782017414339307e+00 9.247752064611825418e+00 4.267898457563678960e+01
-1.082539509657602750e+01 1.075235957370040296e+01 4.049657610527206231e+01
-1.170535743986757105e+01 1.061607843258710382e+01 3.985237041339139807e+01
