2.355508366986977009e+01 2.038852396821508872e+00 4.115738756943513010e+01
2.283636749063150262e+01 -5.064385730506962169e+00 3.809021517600281470e+01
2.353361295572799250e+01 -2.030910750609320914e+00 4.003456535897615964e+01
2.343571278778297895e+01 -2.855445562659581160e+00 3.949072447697994903e+01
2.318349202773193696e+01 -3.918998129159227961e+00 3.878588195126364013e+01
2.104840218450932454e+01 3.738211591353322039e+00 4.447374315961705804e+01
2.140982854562307480e+01 3.636876923731145350e+00 4.407229474731048668e+01
2.098266809576862713e+01 5.975916381474176475e+00 4.489827937247272160e+01
2.082541918045609464e+01 2.533346882098283626e+00 4.487763053918577327e+01
2.123811876294065470e+01 3.050969944694917668e+00 4.433848675338558110e+01
1.964599622183937200e+01 9.348430003511638553e-01 4.601753012694247502e+01
2.163613526565920608e+01 5.475113403380179378e+00 4.337060864868418264e+01
2.144078462109735739e+01 6.136046261076061548e+00 4.354698268137714479e+01
2.156733150835524881e+01 6.338923973401459300e+00 4.318946313690175742e+01
2.137212574561007727e+01 6.999765245098820365e+00 4.336557726414900316e+01
2.124534822688311309e+01 6.797194025760749270e+00 4.371296930823381643e+01
2.047729625378862650e+01 9.560702577105313793e+00 4.379056689630805010e+01
2.114832991961936060e+01 7.511703595946542578e+00 4.368846104309355383e+01
2.121333266617092761e+01 7.907450717457226830e+00 4.424909603439691352e+01
2.105009095711637457e+01 8.225778931094998470e+00 4.365446109190024515e+01
2.127480543163580151e+01 7.713602663755795952e+00 4.333127294168743759e+01
1.817138986683177393e+01 1.207181329985216678e+01 4.338844884579835082e+01
2.048418722016730342e+01 9.599176081101502334e+00 4.318636580246352707e+01
2.007484353451491543e+01 1.003032156019794030e+01 4.357173176543075499e+01
1.863763116887503202e+01 9.489526715956958514e-01 4.674329443468182177e+01
1.913841930437878247e+01 6.830704775038497489e-01 4.641625836006603834e+01
1.841753930508875925e+01 9.912893051903128028e-02 4.688866432171243304e+01
1.714864313720714151e+01 3.587721770812662414e-01 4.796506283835133644e+01
1.694178211506792309e+01 -2.171297154444623567e-01 4.786445547698080105e+01
1.629104579832474187e+01 -4.837372555175739608e-01 4.821709703888381426e+01
1.751896580658507574e+01 1.469280369856471313e-01 4.748203626607157446e+01
2.149858197011748473e+01 7.201910990698490167e+00 4.300849169653682225e+01
2.188552717772565614e+01 6.851823667621241398e+00 4.255558432554506254e+01
2.162009817452186411e+01 8.333707517315463775e+00 4.221206883288170530e+01
2.218366245257316649e+01 7.040953571051256965e+00 4.216304231706646277e+01
2.201203261893337171e+01 6.168279107634173641e+00 4.265985953296971900e+01
2.202997183865213771e+01 6.862678380248758536e+00 4.242062396599494889e+01
2.230099173089973164e+01 6.189711780351281334e+00 4.238994752370019370e+01
2.213876157655798593e+01 5.483503777104219878e+00 4.276432261455946815e+01
2.257221090084892623e+01 5.516176549897054748e+00 4.235924955932241431e+01
2.237802763903973613e+01 6.278213287380631336e+00 4.226119111834816522e+01
2.276763224547509523e+01 6.114846949408024201e+00 4.191447557410239710e+01
2.257686036892868131e+01 6.740528220690165107e+00 4.183957076789610596e+01
2.223161147191159515e+01 7.224645147057488614e+00 4.204614204885175610e+01
2.050125600251761782e+01 9.619633234608956585e+00 4.298311846129502101e+01
2.099434158224097757e+01 8.467343244381680734e+00 4.341979123824771136e+01
2.076361635889693957e+01 8.893449802989154662e+00 4.372241869941467485e+01
2.325892569964505441e+01 4.538718455943255847e+00 4.136282859851304039e+01
2.271603430420759295e+01 6.068052700604692262e+00 4.200825089187984673e+01
2.247372558433110967e+01 6.646600940965804227e+00 4.202720081295404952e+01
2.179744188314311515e+01 4.731171058161439014e+00 4.340736246200027892e+01
2.188759052236659741e+01 5.479313199843765858e+00 4.306730463599416936e+01
2.213234747000306868e+01 4.736746337495504555e+00 4.300335695788336920e+01
2.228371888553754587e+01 4.858815273502838927e+00 4.283903703368297045e+01
2.116356897008764903e+01 6.614044049632569866e+00 4.461354905126688664e+01
2.242849312873359224e+01 4.234782952391585198e+00 4.291367402028105005e+01
2.212592318642151312e+01 3.990835260416490282e+00 4.324212394845115170e+01
2.195855431128128288e+01 3.987895111601584830e+00 4.344409401139051852e+01
2.338252246674019119e+01 3.694266647057165009e+00 4.172845516440914793e+01
2.350285610077518328e+01 2.602962715399195215e+00 4.135432705951997434e+01
2.328006884066000737e+01 4.439196635380866951e+00 4.154711884820403611e+01
2.361180994990219872e+01 5.479094909521073919e-01 4.078036804038617902e+01
2.363858846579968187e+01 9.309361872613571842e-01 4.106721983104753093e+01
2.304473015293383398e+01 -4.717424693443928341e+00 3.867863389450406686e+01
2.364300259012606986e+01 -5.307078463737964213e-01 4.070053978183151600e+01
2.335426892834254531e+01 -4.097943497740662799e+00 3.950102292995733677e+01
2.349933864959059449e+01 -3.495447213724958591e+00 3.973009051355028731e+01
2.152496525605555533e+01 2.833747848010552683e+00 4.413554118349996713e+01
2.089468998881864792e+01 1.879238843526059632e+00 4.487492408269626765e+01
2.106652214087199226e+01 2.465483211336426894e+00 4.460789465969291001e+01
2.008789912959141333e+01 1.154871431014143468e+00 4.563994797753528587e+01
2.050441034961620801e+01 1.180002649421731276e+00 4.525867933566853196e+01
2.108505340267039330e+01 8.534321377281521848e+00 4.418110402507344503e+01
2.095668977993874194e+01 9.161092019815413323e+00 4.411313443332914375e+01
2.010990373797288910e+01 1.007989833223575360e+01 4.317133490674515173e+01
2.010918246326514947e+01 1.015804363724127590e+01 4.307545409280287885e+01
1.971835234856197516e+01 1.053795242364826734e+01 4.336086926877546688e+01
2.118846268404447741e+01 7.260546375521883533e+00 4.443134721739981075e+01
1.867981045021222641e+01 1.155219906031997645e+01 4.357166509433925228e+01
1.881375495688643440e+01 1.132327920291503887e+01 4.370522986780228081e+01
1.824986157396427444e+01 1.086868807950870819e+00 4.720451408969647389e+01
1.809595869873194829e+01 5.107694123916299844e-01 4.709971502836648227e+01
1.909886384166389206e+01 -1.946587607878356996e-02 4.643940348396282047e+01
1.587829754991090070e+01 -1.303756615341228997e+00 4.837273800944885238e+01
1.674576179727289826e+01 -9.486530717440398996e-01 4.790263218421864622e+01
2.171180743504481825e+01 6.629630716278692937e+00 4.292717589857356586e+01
2.192541324679218206e+01 6.056258690826187063e+00 4.284570592010776835e+01
2.295822740046838462e+01 5.489740060882800421e+00 4.198931629769046481e+01
2.274143040000405946e+01 4.813395949604909241e+00 4.244008910770510568e+01
2.260866566333633543e+01 4.884098722643272161e+00 4.253506664650692670e+01
2.264512957621318989e+01 4.251694020181325584e+00 4.271097671769802417e+01
2.257315013118280689e+01 3.611106226460239821e+00 4.298826795176583460e+01
2.308400437243828307e+01 4.833535840854686683e+00 4.200953037686113589e+01
2.303106573688398484e+01 4.793140233971867836e+00 4.216262717354074141e+01
2.320978519323234934e+01 4.177266967494273509e+00 4.202974868095506622e+01
2.348476260857653131e+01 2.950836408673412237e+00 4.190943074908043542e+01
2.294144352389101371e+01 -5.274854515819235701e+00 3.858058361273141657e+01
2.280486598915913987e+01 -5.787128498274817012e+00 3.833825643270396455e+01
2.320910385111780627e+01 -4.700806675570813553e+00 3.927208055093483097e+01
2.351648051700369635e+01 -2.763183254586248250e+00 3.988219692396592819e+01
2.370092863534347671e+01 -1.225184175026062805e+00 4.090768521276505965e+01
2.366560790472466635e+01 -2.049164860653541087e+00 4.065949314514344337e+01
2.176506107066094842e+01 3.440830302442294375e+00 4.377622173812752493e+01
2.199793733321542533e+01 2.573693271125199633e+00 4.374106911884367577e+01
2.163989215758143203e+01 2.031572107956713946e+00 4.419955342468303172e+01
2.211948160787265039e+01 3.245203367003220318e+00 4.348080711978466439e+01
2.220547472772576114e+01 2.609319210574946091e+00 4.356998106008502702e+01
2.094064951279363029e+01 1.103748346712942974e+00 4.492905593651998686e+01
2.011458797662687203e+01 4.815778030675831878e-01 4.564167880663156751e+01
2.002811680005429196e+01 1.017007643146130924e+01 4.395325736136322092e+01
1.792320134213373706e+01 1.210659298396975458e+01 4.405008816557256068e+01
1.949384721756290517e+01 1.065299309545735973e+01 4.384148913778067680e+01
1.931557944206099364e+01 1.090311804476448465e+01 4.373629291116641582e+01
1.957907656204704594e+01 1.077923256947773467e+01 4.411649472338979194e+01
1.891205565293525481e+01 1.126822692326026498e+01 4.411160536437846957e+01
1.800274447262439637e+01 -2.224682487014986443e-01 4.715076283176534133e+01
1.958686687531172410e+01 -1.206607552928918720e-01 4.605294150863511504e+01
1.723346382665307530e+01 -7.073131308644093895e-01 4.766043440781534457e+01
2.291085155804095663e+01 4.109640792981395840e+00 4.252104217619427118e+01
2.268157614399660815e+01 3.619376725430436981e+00 4.288686654931623110e+01
2.310389445561936483e+01 4.096527411421639897e+00 4.233594481642476381e+01
2.333557565598901107e+01 3.520424831500828855e+00 4.204997268858102188e+01
2.358408781701779589e+01 1.958503610294233699e+00 4.135440036134475861e+01
2.366531911995809168e+01 1.314171015965053479e+00 4.135314863594563661e+01
2.369562936883914617e+01 5.271804252791580936e-01 4.134801784530218072e+01
2.306381679253060923e+01 -5.304150500300250926e+00 3.904325279267090565e+01
2.372592776051919472e+01 -2.593334071217112125e-01 4.134203598720753092e+01
2.375621578746720175e+01 -1.045047689453951323e+00 4.133553706007229067e+01
2.132478272682295284e+01 1.554540929445510589e+00 4.456973343909788809e+01
2.187627750369193791e+01 1.901680700853814576e+00 4.400152413311198529e+01
2.098644500366501475e+01 3.291715780692416327e-01 4.498294255904295369e+01
2.057368580295727156e+01 1.779496540259833948e-02 4.533899540163217523e+01
2.067036522410780108e+01 9.726784555965396706e+00 4.417304962412126201e+01
2.038368836159864372e+01 1.029259173264400395e+01 4.423297581368136377e+01
1.924600486324726134e+01 1.102505137097979215e+01 4.411403011770863714e+01
1.873849630282109047e+01 -3.118295458724107960e-01 4.667796933123544534e+01
2.007750564307428931e+01 -1.134357320057260143e-01 4.570026436810547921e+01
1.703014061392376988e+01 -1.347347908195815513e+00 4.771103075670467319e+01
1.654959429507583835e+01 -1.679918875238981091e+00 4.794078881920348323e+01
1.790942362272905086e+01 -9.550913815382487959e-01 4.720176029079725311e+01
1.752488093608062769e+01 -1.197301292558204056e+00 4.745649719428261193e+01
2.308037293720122562e+01 3.405305271011668466e+00 4.260206327814696436e+01
2.317675072268756509e+01 3.399555238644388133e+00 4.250935314237045048e+01
2.346129025147640945e+01 2.863896333318099785e+00 4.207019006236969716e+01
2.271806236064989193e+01 2.986140798611111258e+00 4.306301655038594589e+01
2.358699371923151844e+01 2.207409799941385309e+00 4.209041118171507634e+01
2.362616430627029729e+01 1.760399665159900540e+00 4.172107319991123120e+01
2.324969501986086584e+01 2.701602156781418795e+00 4.268301211118380678e+01
2.281241432122974544e+01 2.283602370601131248e+00 4.315985674255215798e+01
2.263305095659920951e+01 2.223659261274660626e+00 4.332148249212233537e+01
2.291867358130672727e+01 -5.906875066763838333e+00 3.881499744331222246e+01
2.343893928832346063e+01 -4.235912857616186855e+00 3.998442211283828129e+01
2.361305724554257068e+01 -2.540816499790637728e+00 4.036215034088953502e+01
2.360509550109352617e+01 -3.203329630098497915e+00 4.026009637124585083e+01
2.355266956760220509e+01 -3.781709816022486237e+00 4.041803024636243435e+01
2.175464132284076157e+01 1.229957268837269746e+00 4.426459360494593653e+01
2.229147122660873137e+01 1.973075204376114833e+00 4.365920511582451269e+01
2.151379116963266114e+01 6.714469053217614336e-01 4.452231877115370651e+01
2.210908314115307505e+01 9.654870326958979732e-01 4.405217002531569648e+01
2.237738305936159833e+01 1.337029813009672052e+00 4.374840198644324119e+01
1.991400541971993121e+01 1.076893151211676702e+01 4.443235543781127461e+01
1.945533335130966179e+01 1.124548626687896480e+01 4.463187313571428660e+01
1.902137921815987198e+01 1.125417834747081791e+01 4.439228594330817401e+01
1.846949840160307943e+01 1.172882721794806038e+01 4.466637952442478365e+01
1.885194521747232344e+01 1.162588640653555494e+01 4.494320532172722693e+01
1.916331658361575307e+01 1.138866630207695430e+01 4.464162575977346847e+01
1.921459393951334249e+01 1.139733169789035827e+01 4.475604639129554130e+01
1.905930849088986534e+01 -7.227335151691358650e-01 4.646606186257124449e+01
1.843765492503893810e+01 -1.204794418536926148e+00 4.686000900911757583e+01
1.708462580241070583e+01 -2.048982757120813236e+00 4.761578188486536334e+01
1.781592399547463756e+01 -1.686962857497766866e+00 4.725269771753249870e+01
1.635310323967397750e+01 -2.411246060893470933e+00 4.797894266308516364e+01
1.611586227062649002e+01 -1.857574128495077748e+00 4.817581472074064664e+01
2.330517035078375798e+01 2.064179053622583027e+00 4.272158073804793332e+01
2.321094485885384628e+01 2.070634427275421796e+00 4.287486623383037454e+01
2.370638730248306913e+01 -4.367211753352281262e-02 4.174265763834507936e+01
2.277334116719571000e+01 -6.510363477675194410e+00 3.858564564849562828e+01
2.323211671917474064e+01 -5.206130817657225407e+00 3.973854977493427043e+01
2.307761687718886279e+01 -5.692912410238807119e+00 3.938407244379646244e+01
2.375884699229095531e+01 -1.921828094341657245e+00 4.111474035220360435e+01
2.378649465374273930e+01 -1.831055365541936375e+00 4.132871899422787720e+01
2.372691167117859479e+01 -7.225990702012883293e-01 4.193694185338070213e+01
2.371099497893591135e+01 -2.910744404947801733e+00 4.079108682536494257e+01
2.351747150094911731e+01 -4.478790326585492032e+00 4.082462584754431845e+01
2.363783388461597923e+01 -3.418364652609852339e+00 4.072055971542139474e+01
2.361729293913698058e+01 -3.858379241892478273e+00 4.098957128195271338e+01
2.004029753518661749e+01 -7.088861546948755921e-01 4.575890114030022460e+01
2.176327497019269686e+01 6.230705336833982644e-01 4.435225569368633813e+01
2.177183529522286065e+01 1.630478723319665063e-02 4.443965963816442155e+01
2.127296060571614689e+01 1.130281398845954521e-01 4.477957793790967145e+01
2.254808078808646599e+01 1.461878361977662522e+00 4.357971248752431137e+01
1.755437336161130801e+01 -2.450846159597521279e+00 4.730184277755473232e+01
1.809242216437692008e+01 -2.151380900780512473e+00 4.705990096225119146e+01
2.361908164817896960e+01 1.485489574431496429e+00 4.209826242622806092e+01
2.290662616504128479e+01 1.581726288736638564e+00 4.325660779648540455e+01
2.357194783109072134e+01 1.535221411590740326e+00 4.228674602009493810e+01
2.368585615990305726e+01 6.352515632464488249e-01 4.154809811144829723e+01
2.295485681032244685e+01 -6.246432714037902123e+00 3.922096403912698293e+01
2.337847327840728795e+01 -4.977171656875291283e+00 4.023940393089713297e+01
2.331801647682142686e+01 -5.718295852734042839e+00 4.049207468563994894e+01
2.313633234031326324e+01 -5.982533045110349335e+00 3.985614857279227152e+01
2.341772066403585484e+01 -5.098710383324228879e+00 4.065854347093670640e+01
2.368325561475198526e+01 4.178250844295565425e-02 4.211642056773681020e+01
2.371534220059530895e+01 -6.799522330990132035e-01 4.212391307005224661e+01
2.374742851506054109e+01 -1.401533945209852083e+00 4.213102562945137919e+01
2.378218032702886831e+01 -2.009165177981777184e+00 4.172653923395303366e+01
2.371704497100535747e+01 -3.238339512693116706e+00 4.115542854923366178e+01
2.381676567963683055e+01 -2.618420088918773647e+00 4.132176025349363613e+01
2.103208777691888542e+01 -4.454187793908448434e-01 4.503673459129913681e+01
2.223861963430264055e+01 6.884216676588332529e-02 4.409833904000825555e+01
1.892171998182478632e+01 -1.508536405091251975e+00 4.653625441190609990e+01
1.657972573230006930e+01 -2.933821750560419606e+00 4.778597201757526136e+01
1.782872610459700269e+01 -2.915493367695715321e+00 4.710908252555132947e+01
1.951228419986146889e+01 -1.311735955400361364e+00 4.617068040608646839e+01
2.336057708661662602e+01 1.427386057238355876e+00 4.276011643317588806e+01
2.365116874946437164e+01 7.636076364704714736e-01 4.210818913249911333e+01
2.309554057450958098e+01 -6.230436597482788663e+00 4.021340028425378677e+01
2.357570544504494947e+01 -4.465681511178005714e+00 4.145314131418891179e+01
2.355688378146364670e+01 8.629818099939559062e-01 4.248606727136338179e+01
2.341596554181550971e+01 7.906289803560409002e-01 4.280015602159567578e+01
2.317220713200199356e+01 1.440248668836432877e+00 4.306654414636071238e+01
2.300067105444317406e+01 8.806193387605759648e-01 4.335325517099465742e+01
2.313344699691374373e+01 8.098959173033020154e-01 4.325896586246029329e+01
2.067620068652599841e+01 -9.299813878534808342e-01 4.531625994711987460e+01
2.031965587513109739e+01 -1.414989243239381356e+00 4.559608241467041267e+01
2.246319376809835688e+01 7.012188532260229534e-01 4.383976358716530086e+01
2.178031014478337113e+01 -5.905949132716094008e-01 4.452698517613289653e+01
2.141022003731960055e+01 -8.213671521924085228e-01 4.482563559892613370e+01
2.000176339328238839e+01 -1.304649395637112130e+00 4.581760132393005591e+01
1.729080730314483816e+01 -3.214768854789750385e+00 4.735096740995818720e+01
1.836692999403671323e+01 -2.615869507129914950e+00 4.686707719318389564e+01
1.878179544766505771e+01 -2.294376048750108144e+00 4.660519464812366408e+01
1.996277360509635912e+01 -1.900461108160061974e+00 4.587639432888968827e+01
1.864167864812551656e+01 -3.080594537444933945e+00 4.667415689958389891e+01
2.258413876769466100e+01 -7.099844768925281713e+00 3.875671249376321015e+01
2.287306992206009681e+01 -6.742556357643126219e+00 3.993471325296778929e+01
2.265080823521692821e+01 -7.254186161617695916e+00 3.965627135983491058e+01
2.311591300994195919e+01 -6.389821126813107988e+00 4.069617889512239373e+01
2.319692289610558689e+01 -6.131899457056882774e+00 4.114608140235142741e+01
2.340323264144562643e+01 -5.448367458347562753e+00 4.102923410032899199e+01
2.354179957131230694e+01 1.900474954815662976e-01 4.268390142589090175e+01
2.352669209858644450e+01 -4.828875001995052152e-01 4.288091167503839785e+01
2.369522800338925350e+01 -3.763138430859693795e+00 4.171342235512339158e+01
2.349035891549254984e+01 -4.887774721433005176e+00 4.114567467789823496e+01
2.375602030023103950e+01 -3.190574870677674202e+00 4.151729877875688146e+01
2.246540122712115561e+01 4.679631624116706301e-02 4.393767192880692107e+01
2.309464732135640119e+01 1.794186536610621330e-01 4.345304747778094168e+01
2.201377515432179166e+01 -5.641663989285586878e-01 4.435631034663057903e+01
1.952234949532637032e+01 -2.293894648757948573e+00 4.614424456027179389e+01
2.087205312373001576e+01 -1.650077773059023700e+00 4.524829341322393361e+01
2.095227846754209011e+01 -1.047743775430399538e+00 4.514251383740915458e+01
1.810314873559121196e+01 -3.380143757916469038e+00 4.691632049558384665e+01
1.908210939115059901e+01 -2.687167913091574434e+00 4.640916611900019717e+01
2.270855715807223874e+01 -7.373593280064184796e+00 4.028795086323030006e+01
2.292129679472218839e+01 -6.819214263775082330e+00 4.041112642387363962e+01
2.242833037451166689e+01 -7.766307418872443691e+00 3.937755103605186235e+01
2.374740338546676099e+01 -2.710674244340709027e+00 4.172107840836849846e+01
2.371271405713429203e+01 -2.102703171153715189e+00 4.212587532986825778e+01
2.363709094340800121e+01 -9.418731982558534721e-01 4.250603222806888937e+01
2.365600677155233456e+01 -1.982227929977045111e+00 4.231015761906413530e+01
2.346868852011595763e+01 -1.779585793879509215e+00 4.286778222813774164e+01
2.347133788054470926e+01 1.538725049946715884e-01 4.284121410847878053e+01
2.288681190763857742e+01 -5.198240541492784583e-01 4.371273697158446936e+01
2.246753053784332010e+01 -6.076349795628430694e-01 4.403504667959689556e+01
2.178867142038060223e+01 -1.197739934164003817e+00 4.461430014769530317e+01
2.142947181294134396e+01 -1.750374219729299297e+00 4.489632027707003203e+01
2.079172424881877035e+01 -2.252422213347379021e+00 4.535408535525719742e+01
1.975174472135620007e+01 -2.670095584065500738e+00 4.600398033696958322e+01
2.033726459553171395e+01 -2.377846567826399582e+00 4.566801636189884306e+01
1.829135917583141335e+01 -3.802194011333711376e+00 4.677348074530662814e+01
1.898556822042864667e+01 -3.644346833079650683e+00 4.646535819664504174e+01
2.305661434733700332e+01 -6.602591067977871653e+00 4.150427905106617033e+01
2.322886270871656222e+01 -6.038133665299747044e+00 4.170404664760720692e+01
2.348844367626392682e+01 -5.178348726212917974e+00 4.156649400672403516e+01
2.237446590496260868e+01 -8.096575231986873789e+00 3.976727452524702500e+01
2.349769078338799133e+01 -1.131230316496020905e+00 4.287448530363607091e+01
2.343968624292798353e+01 -2.427964106452868975e+00 4.286093383806156965e+01
2.363441230142208482e+01 -4.335909890823947954e+00 4.190920508618794571e+01
2.306534303811310949e+01 -5.458923883888049389e-01 4.350277851509781613e+01
2.169210012431421575e+01 -1.835815726509191892e+00 4.472956307762132155e+01
2.107024440934598175e+01 -2.302748121848078977e+00 4.517818247852366653e+01
1.954068297874404081e+01 -3.439031761897454409e+00 4.613082514572781179e+01
2.367797549832377157e+01 -2.802906943780277160e+00 4.212045173032058898e+01
2.357364091539976414e+01 -4.908238177200902719e+00 4.210384360160552575e+01
2.364321694464310042e+01 -3.504509014584374249e+00 4.211490751279016109e+01
2.291381104056328510e+01 -7.061319490238957997e+00 4.090026586429137723e+01
2.340118165881052903e+01 -5.473426186864359444e+00 4.190387682215589393e+01
2.356457549287532416e+01 -2.562869417167034758e+00 4.248919211804556539e+01
2.338938380313181753e+01 -1.042473179226893976e+00 4.307345242036907251e+01
2.360844160626211519e+01 -4.206283797885402187e+00 4.210983898137119041e+01
2.246955944032839625e+01 -1.262077336169346475e+00 4.413226774238689387e+01
2.213028192911058767e+01 -1.557324581438229716e+00 4.442177101939903139e+01
2.211562518679339817e+01 -2.527413655609826559e+00 4.451132661925564804e+01
2.159521889955210838e+01 -2.473609266951801278e+00 4.484477680424686241e+01
2.071122703010690458e+01 -2.854778371470302112e+00 4.545991399252778820e+01
2.025062454641608767e+01 -3.305825477195411199e+00 4.572547490908213774e+01
2.347313380299682350e+01 -3.143517385966905220e+00 4.266815894487658056e+01
2.288408176981836561e+01 -7.167963090193850917e+00 4.130416662566748442e+01
2.332923054441228672e+01 -5.567611807069535068e+00 4.229954275373070516e+01
2.271176502782736151e+01 -7.732611539069157658e+00 4.110429582670405324e+01
2.325204858814581854e+01 -1.602068768573284618e+00 4.326570228220346337e+01
2.303601642580993314e+01 -1.271005927749648157e+00 4.355192676787321204e+01
2.311468005009325921e+01 -2.161676335436706786e+00 4.345777860864566833e+01
2.267917789846102394e+01 -1.218172174507409444e+00 4.397123392182624002e+01
2.347780346303805388e+01 -4.316046350038109658e+00 4.247551207490545977e+01
2.316524155701186061e+01 -4.987780990920476221e+00 4.278468565246267730e+01
2.247145587066276917e+01 -1.916533458719168248e+00 4.422943350755005554e+01
2.105572653115456916e+01 -3.302151147669666553e+00 4.526786291402967777e+01
1.978995302502113418e+01 -3.756909231089590850e+00 4.599190808261315055e+01
2.052696186527446542e+01 -3.454531130760507551e+00 4.556073591644793908e+01
2.279781367854690899e+01 -7.167701143064154401e+00 4.216204797188927245e+01
2.308500078308267689e+01 -6.226437792367971014e+00 4.249508253164584914e+01
2.341068365606238189e+01 -3.076387521121025426e+00 4.285401500696957555e+01
2.338167989733547003e+01 -3.724922557271267642e+00 4.284708126077077139e+01
2.327349981168960724e+01 -4.356447704860075376e+00 4.281580731248639182e+01
2.175881435572720690e+01 -3.138619300696879666e+00 4.479329957071435331e+01
2.149811300144889259e+01 -3.111726799779293895e+00 4.496006590524842750e+01
2.300666084633605024e+01 -1.996138035199198191e+00 4.360087493526687297e+01
2.272436597681693371e+01 -2.318911756481464526e+00 4.393957228163147022e+01
2.234369307180322650e+01 -2.605833756733429318e+00 4.428970938908125277e+01
2.221576567103883093e+01 -3.295766578775815248e+00 4.435004219372593326e+01
2.034248746426636600e+01 -4.054295648764625781e+00 4.566214948305677979e+01
2.297726993748331026e+01 -2.721294996828799828e+00 4.364974986349546526e+01
2.317965034178650896e+01 -3.223265068118660981e+00 4.324819158183869661e+01
2.275480810014873256e+01 -7.450213657364743725e+00 4.163310397344343983e+01
2.308322668891681673e+01 -4.381508350503255933e+00 4.307551592646498051e+01
2.285459925209042709e+01 -3.464515755333665847e+00 4.362018569405040580e+01
2.272309239526923719e+01 -3.210106205296141990e+00 4.385495090800287699e+01
2.092475196245817415e+01 -4.251462683501650908e+00 4.533808625511036183e+01
2.305705243662193382e+01 -5.621017887874089958e+00 4.275492137243841029e+01
2.259396604503477235e+01 -7.378774641201381712e+00 4.244493234742130738e+01
2.284072754215636181e+01 -6.885313513513513506e+00 4.269064819776538400e+01
2.278495871252138016e+01 -5.036618791778543880e+00 4.330382495331133441e+01
2.260936571891970459e+01 -4.950578852317897294e+00 4.356121622105969493e+01
2.248684273796019184e+01 -5.690825080645161016e+00 4.353221416954013279e+01
2.273193164256768739e+01 -4.207773387531009490e+00 4.359063076398980741e+01
2.246887425103721014e+01 -3.698885654177556770e+00 4.406008741227802261e+01
2.221431079445309464e+01 -4.188197133203064304e+00 4.426542251706848674e+01
2.208758354495839882e+01 -3.986798830871261856e+00 4.441050285183610669e+01
2.140068553479996893e+01 -3.750286699043608341e+00 4.507547900083169878e+01
2.044854932268358638e+01 -4.752866354768933377e+00 4.560189796683902586e+01
2.096752095941530314e+01 -5.015902745168777876e+00 4.514846251919333042e+01
2.075060262075580653e+01 -5.649400385864671748e+00 4.518553619967421753e+01
2.148553108867657002e+01 -5.212941007252632986e+00 4.472105742013521024e+01
2.118414848330426636e+01 -4.383056738757636239e+00 4.511175963405492695e+01
2.294891373236322707e+01 -6.253279179478889560e+00 4.272310627097318303e+01
2.266395494548776668e+01 -6.285853602073628643e+00 4.311302703616816956e+01
2.222318540881433790e+01 -5.185425761444972359e+00 4.400166005584215156e+01
2.168110857634784949e+01 -4.214367063945379854e+00 4.477322214629295871e+01
2.195925120010787523e+01 -4.678303167420814646e+00 4.447109748284974984e+01
2.100988876217259715e+01 -5.748382205325555105e+00 4.497241636581235014e+01
2.174035226745397864e+01 -5.375165206659587191e+00 4.448078804683787979e+01
2.152153938749096085e+01 -6.071944025517198362e+00 4.449034268439041995e+01
2.025261219237305710e+01 -5.768424698011827445e+00 4.554258809896943205e+01
2.240890251452904636e+01 -7.421906929545565745e+00 4.283827023181677163e+01
2.211015982873329477e+01 -6.810573984229350231e+00 4.337457140023008151e+01
2.229860753812204521e+01 -6.249334809723245954e+00 4.345434174896031720e+01
2.201944319534549876e+01 -6.280163917294896869e+00 4.385867202200350334e+01
2.155170904971941326e+01 -6.869791847315233291e+00 4.418220025708205867e+01
2.192174142687373006e+01 -7.372132600527809387e+00 4.329427913029034158e+01
1.491178899946632619e+01 4.010058325882273955e+00 4.881371676125043280e+01
1.502266639701388051e+01 4.645248196743796854e+00 4.859577386887007577e+01
1.447678852343037192e+01 4.552287200029974557e+00 4.886960662021373025e+01
1.482194191327795352e+01 5.168605957756267522e+00 4.855487458343766605e+01
1.546043149312834508e+01 4.969512637822782075e+00 4.826096506963828148e+01
1.568110742004492231e+01 4.140055746553888305e+00 4.838947366630303293e+01
1.530120706685391418e+01 3.925607787628792700e+00 4.865199077525063132e+01
1.617885006682845983e+01 4.752719517672507443e+00 4.794108271702312862e+01
1.590290616644612953e+01 5.293728810371123750e+00 4.792772109610209696e+01
1.515867482527354682e+01 5.754518422343108064e+00 4.819962417305220725e+01
1.462105893263662004e+01 5.691956358736954158e+00 4.851397445514465545e+01
1.558430139629891009e+01 3.205951210170571830e+00 4.870820478876669313e+01
1.634367084976376105e+01 3.634859862406074171e+00 4.818504019069484201e+01
1.643649696271862481e+01 2.808004822381054755e+00 4.837248985503980236e+01
1.700575483435768476e+01 3.129663296231699920e+00 4.798115416526482591e+01
1.673024386746376280e+01 3.670687511025489069e+00 4.796779876851007174e+01
1.645461762605328104e+01 4.211706245512585767e+00 4.795444172120019033e+01
1.409293439602394038e+01 3.870470561685897870e+00 4.922452561317885511e+01
1.480100907062766602e+01 3.374827160361987932e+00 4.903165882598858616e+01
1.469257452566173860e+01 2.739553312570797594e+00 4.924960009147802253e+01
1.425511228444877609e+01 3.281665448438344956e+00 4.930554246936303997e+01
1.615439821134906140e+01 5.813749454627060054e+00 4.763190958868857905e+01
1.661204777909349417e+01 5.267104338875338243e+00 4.754521351987137479e+01
1.659097591506844083e+01 4.871448050823889986e+00 4.767993440666358396e+01
1.442004401943137459e+01 6.215299248093130835e+00 4.847307267064906711e+01
1.573960230689571560e+01 6.294291888788823286e+00 4.771363031770056295e+01
1.640589016233176167e+01 6.333741265454732705e+00 4.733551420898891138e+01
1.748588546233705898e+01 3.577824275427218925e+00 4.758276690647030449e+01
1.727855178764576038e+01 4.449159660473321232e+00 4.743195883407225466e+01
1.586712327705989267e+01 2.486275361588921484e+00 4.876441699283886777e+01
1.732083342832127926e+01 5.240447634140841693e+00 4.716179548049537829e+01
1.718368273544191283e+01 5.951769868130175389e+00 4.702071638491728578e+01
1.498567002617235033e+01 6.637698710707675254e+00 4.805972434612976230e+01
1.508005188881761249e+01 6.254812370333928229e+00 4.809121659864634069e+01
1.555127119365802990e+01 7.060047161745353961e+00 4.764940595961391523e+01
1.625804036822298571e+01 6.908047298659831803e+00 4.728723318301527456e+01
1.719006483833657484e+01 2.589965167123022383e+00 4.804286257315051500e+01
1.709457177912134895e+01 6.374348414122089856e+00 4.694255793883410632e+01
1.796179856041502632e+01 5.569351871001171794e+00 4.670267065466777723e+01
1.803035628338822249e+01 5.213725087848227524e+00 4.677378723821959738e+01
1.778349909814202334e+01 6.414961813821343561e+00 4.654935454004710493e+01
1.706093116436726831e+01 6.731513232363106169e+00 4.687139666344960176e+01
1.683824638528665218e+01 7.593210363802941565e+00 4.679975952530870842e+01
1.611684185960445959e+01 7.482352591126735675e+00 4.723883533126825540e+01
1.562692764593669104e+01 7.780244927116976683e+00 4.749474444491795566e+01
1.638243562836304434e+01 8.008900358832459432e+00 4.699319888653344890e+01
1.559799971743311886e+01 8.485637034950100244e+00 4.740745602094417421e+01
1.513656262623051774e+01 8.078131665986367338e+00 4.775533169991459204e+01
1.669956104601426006e+01 7.917467375812369923e+00 4.681264449150086904e+01
1.522570429684600057e+01 2.295276996173191364e+00 4.911598755708091346e+01
1.777994218625424239e+01 2.684119778381171439e+00 4.769765497560760537e+01
1.796652710255083463e+01 4.026420219429475367e+00 4.718342334540742655e+01
1.643112834047495596e+01 2.160993406680910223e+00 4.856464324321230208e+01
1.567992038051870729e+01 1.830519812693145676e+00 4.903123850819201834e+01
1.607268122569881186e+01 1.962846354687938222e+00 4.880530895690127835e+01
1.835319050035618815e+01 4.607043600927541505e+00 4.678605505569832701e+01
1.847214477485681527e+01 6.455548158873547493e+00 4.615792989207893982e+01
1.873942644257233781e+01 5.186986892503028024e+00 4.638788932452297331e+01
1.771658262099353820e+01 7.129663397177991691e+00 4.641031887955256252e+01
1.756609981909814522e+01 7.704148180562314430e+00 4.636255686572019385e+01
1.837232299408237068e+01 7.527880433641761293e+00 4.594913061905853624e+01
1.538255410406215340e+01 8.718106932769153161e+00 4.750873825295608555e+01
1.664808428992872891e+01 8.535640513198533341e+00 4.674976025054958484e+01
1.728282209151569404e+01 8.352987213535785216e+00 4.638832601407823120e+01
1.605952680246064190e+01 8.893198012232693017e+00 4.705941117536180940e+01
1.691385963562008143e+01 9.062718803116133870e+00 4.650615877927101849e+01
1.816252117089965878e+01 3.430278458713504008e+00 4.726032521441664613e+01
1.458409904176172134e+01 2.104235686430560914e+00 4.946754189280580505e+01
1.737432371934400877e+01 2.050253205493036912e+00 4.810456986304897242e+01
1.549271042809326282e+01 1.174705080810196645e+00 4.929805852080352224e+01
1.482470539490849681e+01 1.575778715673749275e+00 4.949998998036273434e+01
1.627814988401286200e+01 1.439404995311504454e+00 4.884671319559758729e+01
1.895034293342492049e+01 5.841782233519692724e+00 4.607696392759741855e+01
1.829721017755946377e+01 7.815090211864889724e+00 4.592525202773185811e+01
1.909457038077706770e+01 7.211071704424804274e+00 4.562713767630829409e+01
1.902787139239453751e+01 7.925986751159344479e+00 4.548779177811191943e+01
1.916111282749402633e+01 6.496140306684751842e+00 4.576623958318432273e+01
1.786605071820480362e+01 8.788492441176662950e+00 4.596399800896092813e+01
1.752305230423619165e+01 9.189043053319879917e+00 4.611332095182548585e+01
1.942738494137578442e+01 5.237353026751735641e+00 4.598907185937834896e+01
1.873811588106010362e+01 8.575039562457515530e+00 4.551378866022388081e+01
1.844940871692293172e+01 9.224109420346206178e+00 4.553953886564446663e+01
1.652137427212714016e+01 9.301022011139734147e+00 4.671264501320718665e+01
1.562847038652330056e+01 9.358054768124127065e+00 4.725960033132739824e+01
1.698332078901717423e+01 9.708917789668962683e+00 4.636580336428646376e+01
1.642900319423880617e+01 9.853631285711195176e+00 4.668885178969781435e+01
1.678318574168593358e+01 1.037788597653967138e+01 4.639183314206534448e+01
1.587445544360754113e+01 9.998341546921961864e+00 4.701224877625518417e+01
1.612055675655213705e+01 1.063908500108252575e+01 4.676497199284585093e+01
1.871772676254735757e+01 4.067336541101003178e+00 4.674970981850415797e+01
1.947968715907578385e+01 4.667872116065533206e+00 4.613482255747122451e+01
1.699490250498616462e+01 1.835707574302841039e+00 4.836549767726749849e+01
1.871654198412610270e+01 3.565393297259324967e+00 4.691178871667931816e+01
1.835837405509717968e+01 2.834404400444348049e+00 4.733711297122405171e+01
1.946867548306054374e+01 4.108202562305516281e+00 4.631426277417352821e+01
1.984507552771064809e+01 6.966512370173128410e+00 4.525881618703125042e+01
1.970812004374323578e+01 6.110072549966749200e+00 4.557488973013487765e+01
2.011467222246787401e+01 5.287650856636439300e+00 4.559060035310775305e+01
2.025500296163703950e+01 5.724000400611064521e+00 4.537789234904879976e+01
1.982869257546145292e+01 6.535458282978753530e+00 4.538136441706358681e+01
1.975639755989363522e+01 7.919823938220248216e+00 4.507152960536929243e+01
1.870090306953881054e+01 9.729359592400319556e+00 4.531300330212664562e+01
1.794796684354974659e+01 9.670274836439471500e+00 4.577917757436308932e+01
1.928447538350443935e+01 9.203123690139790369e+00 4.506180567774669754e+01
1.909310584718570070e+01 9.580263196660681047e+00 4.510198592305231102e+01
1.717949187004320777e+01 9.589594624197243178e+00 4.626264401681073934e+01
1.744522898772789077e+01 1.011676275655261925e+01 4.601898950000000355e+01
2.012049175149906333e+01 9.182124212132862340e+00 4.458708671409782198e+01
1.811587503210433781e+01 1.049329599197184848e+01 4.555914099844189735e+01
2.052895183633474474e+01 7.436812009038506588e+00 4.475327102463254647e+01
2.048464225930981186e+01 7.913648581733699672e+00 4.466003558163365739e+01
1.967068259981811096e+01 8.337603607024680841e+00 4.502606133724927417e+01
2.049616304496279540e+01 6.574757908668344975e+00 4.499642882114738285e+01
1.716870910927651295e+01 1.078248009613029446e+01 4.609603593496132135e+01
2.031343035479580195e+01 8.749182335590163007e+00 4.456933741518920300e+01
1.973838389315801223e+01 9.936394106945433791e+00 4.466690559160090146e+01
1.895235269113629428e+01 1.023460239320450071e+01 4.508448523459577473e+01
1.771314479148676924e+01 1.074697095316261475e+01 4.576412349323155127e+01
1.665263889799901165e+01 1.098092332365115098e+01 4.638723185021385831e+01
1.920375730337556419e+01 1.073983490235424476e+01 4.485792391964575643e+01
1.798078404501118754e+01 1.137665728492203243e+01 4.550946253419000698e+01
1.718454068062647266e+01 1.132264046565503257e+01 4.600977896107041687e+01
1.878546218558712155e+01 1.086928275167175073e+01 4.509599470495651019e+01
-5.449426203400093982e+00 -2.109548201964368541e+00 1.822434958683138717e+01
-4.875902714266691085e+00 -1.548259512657797599e+00 1.827763240173104720e+01
-4.525214402380965950e+00 -2.401063354022554996e+00 1.826818112115427439e+01
-3.934628589759652684e+00 -1.966187075398825090e+00 1.831803128415286608e+01
-4.160934860349495779e+00 -1.160575162699312601e+00 1.833310243770570835e+01
-5.783056259766166995e+00 -1.383115928606444944e+00 1.823035753586158236e+01
-5.426694978056197272e+00 -9.894375831304921265e-01 1.826504043461134685e+01
-4.924137789263825837e+00 -7.504520565149995770e-01 1.830284645607159177e+01
-6.278502733026904536e+00 -1.994409590648985153e+00 1.818650564063871755e+01
-6.116652697526180127e+00 -6.566398387586152019e-01 1.823636700545404921e+01
-6.571117374756033414e+00 -1.096031193159504813e+00 1.819993444425089990e+01
-3.971790934216214985e+00 -6.570787992844087100e-01 1.841570521530206861e+01
-5.687220238616505164e+00 -3.403013196783772898e-01 1.827260566795566987e+01
-7.192206419432623399e+00 -1.661905146186507753e+00 1.815126495508529203e+01
-6.956458707131233155e+00 -2.479739328857235581e+00 1.813751076016881925e+01
-7.681004189216100286e+00 -2.118838776304790450e+00 1.811262599748328839e+01
-4.163943643984198140e+00 -4.122207973094016431e-02 1.847170189133183626e+01
-4.983757951951603538e+00 1.824414215505287817e-01 1.841227088706734705e+01
-6.939115192118085140e+00 -3.870687747071087648e-01 1.820368300879300349e+01
-7.427950426038173681e+00 -8.440160279447863623e-01 1.816501907927638726e+01
-6.231816999817039182e+00 -2.840611306943206404e+00 1.816242043275912366e+01
-6.450223756114016105e+00 6.988046755249652242e-02 1.824237792701424610e+01
-7.916737244811896446e+00 -1.300961535094308230e+00 1.812638023626123029e+01
-7.600474001627008924e+00 -3.005797694631789252e+00 1.819293575785545514e+01
-6.804203622535049512e+00 -3.157122271188863127e+00 1.819782500687730575e+01
-5.792815033106514910e+00 4.886541550678453749e-01 1.836423396289031373e+01
-4.301464939196721460e+00 6.669546355192251808e-01 1.854496052841631837e+01
-7.841403846341783002e+00 1.386615290795073854e-02 1.825975768840758917e+01
-8.229631517510386018e+00 -6.411863236662702636e-01 1.819915650563211429e+01
-8.405481579321119057e+00 -1.757905552668052929e+00 1.808776123783798440e+01
-8.002988388362588523e+00 -2.381878522867322712e+00 1.814034707281478731e+01
-5.135368958122607630e+00 9.074279734301653466e-01 1.848610809331488980e+01
-3.424948337814812227e+00 5.029632379806685538e-01 1.861784836936266174e+01
-6.728968596144694558e+00 6.819146394095405572e-01 1.835138632163511474e+01
-7.216564706133707041e+00 4.962238940714025492e-01 1.829876630088992329e+01
-8.718376743458589928e+00 -1.098137488424637986e+00 1.816053682366587552e+01
-8.316134856107598949e+00 -2.495893136001370305e+00 1.813224628404886474e+01
-6.093208910830918867e+00 1.212313374549611966e+00 1.849475055428737136e+01
-8.226710002718045089e+00 -3.234361300415990570e+00 1.817677373694224130e+01
-8.989064820407644874e+00 -1.274243276499222199e+00 1.815470793140794115e+01
-4.477876349982980564e+00 1.326202478126667472e+00 1.860800518085547139e+01
-3.622651841733700806e+00 1.123959173956947666e+00 1.867388964698142928e+01
-7.007709814948725580e+00 1.293964135361916901e+00 1.846039275001674440e+01
-8.561367554985798378e+00 -4.600109351778633449e-02 1.826563137291832462e+01
-9.031271897569839169e+00 -4.383410915133000296e-01 1.823331228700121187e+01
-9.062832734704084459e+00 -1.791982728490171484e+00 1.813678777056325231e+01
-3.153148791675670193e+00 1.332004697841772334e+00 1.876838479216326050e+01
-5.312835024854606125e+00 1.696738656644731114e+00 1.863684300710135133e+01
-7.982851336514602991e+00 9.225897057128363832e-01 1.835517118189230956e+01
-9.573185612824733681e+00 -7.900876067556464877e-01 1.822172728947581533e+01
-6.130898094074053617e+00 1.852450182721022909e+00 1.862291167003908754e+01
-6.632293443039597669e+00 1.643980226980467085e+00 1.855253836600220652e+01
-8.663553945946219415e+00 5.720716826012177680e-01 1.833061767520858965e+01
-9.254603776745415900e+00 -2.396530067565605826e+00 1.819210486886919398e+01
-3.820327320044296648e+00 1.744977035749751604e+00 1.872993059571799535e+01
-8.017871061178208691e+00 1.863080152420878655e+00 1.853608824197507232e+01
-9.344201929070198531e+00 2.215542486024077995e-01 1.830609545069342659e+01
-9.974066446860501145e+00 -1.141288825612921887e+00 1.823661312255756783e+01
-1.015750728296419680e+01 -3.057175119726377455e-01 1.828877885863530750e+01
-4.537214455925797196e+00 2.077951033221993260e+00 1.875769514170180585e+01
-3.207537344981002736e+00 2.070493873876496416e+00 1.887974600173203044e+01
-5.768013843547473485e+00 2.194298493677382833e+00 1.871271175483455451e+01
-7.286449816028846449e+00 1.906031607852535226e+00 1.856939778737568858e+01
-8.749283048721473222e+00 1.349084711052925378e+00 1.841160418093317830e+01
-9.720926449515841838e+00 -1.826097206629023084e+00 1.818595500289331213e+01
-4.110470073261991431e+00 2.375832523713904632e+00 1.887124523461562120e+01
-5.254028560426688976e+00 2.410936398438681572e+00 1.878546890067386954e+01
-6.848168607351558634e+00 2.185524889549788075e+00 1.865069785013234593e+01
-9.912535728057008555e+00 -2.430335189247150307e+00 1.824128833350350831e+01
-6.409509078879145783e+00 2.464739853588218121e+00 1.873197032443091814e+01
-9.657417453625237513e+00 8.820800611288418525e-01 1.837894492129283464e+01
-1.037824785371836356e+01 -1.860164564404062082e+00 1.823512793953215549e+01
-1.099114349511031286e+01 -6.567273299738026759e-01 1.833707251774442781e+01
-1.019963565052918852e+01 5.303672905644449820e-01 1.836737183687147379e+01
-4.827443404117585324e+00 2.709079435902728594e+00 1.889906223199902868e+01
-3.481400275753204543e+00 2.785026340623904417e+00 1.904533501819479113e+01
-5.970837610707060428e+00 2.743955587885169134e+00 1.881325284370847228e+01
-7.565413323273831203e+00 2.518614021100845424e+00 1.867849012198213998e+01
-8.950598433348510241e+00 2.261111915337099099e+00 1.858131925695425934e+01
-1.068466053989213727e+01 -1.258544578314116258e+00 1.828609183842664265e+01
-1.074177345941101969e+01 1.786585019337085523e-01 1.835583169128901559e+01
-4.400836932636140730e+00 3.007223512660465392e+00 1.901267649261326653e+01
-7.126996641302020485e+00 2.798024597502610789e+00 1.875978151066648891e+01
-9.516951360208340205e+00 1.776314758247526271e+00 1.846814315338268031e+01
-1.007325360298221639e+01 -2.507078432736137064e+00 1.831461492734455021e+01
-1.099280991915922279e+01 -1.256998736531563354e+00 1.838419161165777282e+01
-1.129736689297562258e+01 -5.536240939127363286e-02 1.838801501330251043e+01
-3.763707625203672524e+00 3.458252474251175546e+00 1.919889750585284105e+01
-5.544629144852385672e+00 3.042487593835577542e+00 1.892690528755380441e+01
-6.688569282698959562e+00 3.077434239314558173e+00 1.884108167998461880e+01
-8.397592277747257583e+00 2.696354000718225841e+00 1.868446763192306648e+01
-9.970655468830926793e+00 1.542682293945716765e+00 1.845179957536521798e+01
-1.074772441451688820e+01 -1.950615857644449669e+00 1.850874701769924613e+01
-1.051265601430680263e+01 1.190458344361851051e+00 1.844016905792991778e+01
-1.132598942440866807e+01 6.630506497984128833e-01 1.842288501940025824e+01
-6.184684986401214779e+00 3.313209679584252942e+00 1.894472224894973778e+01
-9.743795146146146280e+00 2.588405154471610459e+00 1.861762897515923143e+01
-1.160704747933203862e+01 -6.529850593611660203e-01 1.853344083969936662e+01
-5.118001911690390315e+00 3.340736037677785042e+00 1.904053546975595879e+01
-4.691356983072625830e+00 3.638986068908909743e+00 1.915418803591809294e+01
-2.761121479668628087e+00 3.182540335635636097e+00 1.922547372946144506e+01
-5.835223534663936285e+00 3.674051857596430715e+00 1.906834067025478419e+01
-7.406049324694906844e+00 3.410823583146900706e+00 1.886890888120908372e+01
-7.844550170902754971e+00 3.131596160681273666e+00 1.878764927194971079e+01
-1.028381424535916189e+01 2.203144437674094736e+00 1.852463557998103028e+01
-9.203824710134245635e+00 2.973615879039060328e+00 1.871062502811476946e+01
-1.154664003955192264e+01 -1.392333482503723019e+00 1.879479667775432361e+01
-1.160345012157018019e+01 5.457788379312950022e-01 1.843893874183468640e+01
-1.191346174832395910e+01 2.480586202819395625e-01 1.856069865509973127e+01
-4.114546140451650125e+00 4.073166493116976206e+00 1.932977434863335020e+01
-6.630191947682724241e+00 3.822493109882997508e+00 1.904122953101256854e+01
-1.082590645069301161e+01 1.850988187604576174e+00 1.851301243541584896e+01
-1.111813561598415490e+01 -2.041063891891891746e+00 1.878255290348356255e+01
-1.222051849948845081e+01 -4.961003936663668790e-02 1.868249818061987000e+01
-1.197572453774180445e+01 -7.431427598211822749e-01 1.880705254851762476e+01
-1.136782881173891369e+01 1.498903860006945310e+00 1.850142690334102369e+01
-3.194513368653888019e+00 4.018515607631055531e+00 1.940781357398352114e+01
-1.057072735910910311e+01 2.877457879275095110e+00 1.872000555381090336e+01
-8.663645298097828018e+00 3.358955622297407295e+00 1.880367520595613229e+01
-1.163726490964948290e+01 -1.544857106735320729e+00 1.901121201786458670e+01
-1.190952059437145039e+01 1.146940909090908844e+00 1.848986475973626398e+01
-5.344274279884431600e+00 3.901647373662009421e+00 1.916879785078312182e+01
-4.981822582466909566e+00 4.270668235471870133e+00 1.929567929376270286e+01
-2.278581384533620025e+00 3.798051451829697278e+00 1.944059338681385540e+01
-8.123521644354934068e+00 3.744235104578858220e+00 1.889674306969854811e+01
-7.482403956172642978e+00 4.191828047103875576e+00 1.906727706031611902e+01
-1.006680434172450056e+01 3.249558741567591724e+00 1.881021784810827668e+01
-1.087996132346339451e+01 2.608599869773270630e+00 1.870684942533662820e+01
-1.139769626851791351e+01 -2.225718531237338205e+00 1.933067267772699083e+01
-1.215619121348262333e+01 -1.048695941627044936e+00 1.923978572996466596e+01
-1.237381665761675364e+01 8.504098467951853868e-01 1.866064708216953605e+01
-1.240454513249305890e+01 -9.481821989281483121e-02 1.881929613375818988e+01
-3.811858383478934797e+00 4.497350382235691058e+00 1.947501062343565792e+01
-5.885818902360046678e+00 4.353706660658541061e+00 1.924231982081424519e+01
-9.382577007915163136e+00 3.725506004555843909e+00 1.892459867057717915e+01
-1.163869293333140043e+01 2.115429383340618141e+00 1.869055938702727815e+01
-1.191320324736836156e+01 -1.603181843962052211e+00 1.943585285147093700e+01
-1.283399418161854300e+01 5.539451411780926815e-01 1.883155178395977458e+01
-1.267509887390934153e+01 -5.522931608690604399e-01 1.946835529912094742e+01
-1.218047324394212616e+01 1.763388842146226931e+00 1.867899450487534807e+01
-4.497637474433376248e+00 4.639661473905583478e+00 1.944429979354949367e+01
-2.464670538860286531e+00 4.484874117699868101e+00 1.960755757761135953e+01
-6.842192214581904963e+00 4.638774251159432538e+00 1.923759842906718376e+01
