-1.261890828915905693e+01 4.288824509880981989e-02 1.800635888037930243e+01
-1.243436978629501510e+01 -6.787797422187112906e-01 1.815045019544159999e+01
-1.162062841367751176e+01 1.671298525824724379e+00 1.775574498095368270e+01
-3.163428933684245603e+00 4.330326678153113562e+00 1.860479741421575639e+01
-1.074826681417431473e+01 3.094351822593540913e+00 1.792314614801657768e+01
-8.772957755335067276e+00 3.613597049451204857e+00 1.797724584859634689e+01
-1.214909473846353194e+01 -1.507444112376952416e+00 1.837590836886484524e+01
-1.220149091105533046e+01 1.297918359374999886e+00 1.776349719466874788e+01
-5.359086577419231112e+00 4.198406996078702491e+00 1.832875956276891216e+01
-4.987414121885413998e+00 4.574952053840938504e+00 1.844398364266337254e+01
-2.228556231726745995e+00 4.112912907625272396e+00 1.866465501169780694e+01
-8.211116971032746292e+00 4.012019531249999993e+00 1.805627279851541545e+01
-7.553441530244102253e+00 4.470717758336111736e+00 1.821314892139328023e+01
-1.022388509789676903e+01 3.478599390013439319e+00 1.799999540090968608e+01
-1.107539914667797376e+01 2.812568490829102430e+00 1.793015108565244020e+01
-1.196056319127878176e+01 -2.218404233663012981e+00 1.871711862375613578e+01
-1.269799433679581746e+01 -1.019655038486462217e+00 1.861087089250174031e+01
-1.273166221792139829e+01 9.674153551862203493e-01 1.796173831102968776e+01
-1.285065068258164800e+01 -2.119165922212697117e-02 1.815522897888804721e+01
-3.794733239555270643e+00 4.809997785363886003e+00 1.864598105076382950e+01
-5.915091350188069974e+00 4.650017480027599071e+00 1.838602940791774287e+01
-9.512201747351937797e+00 3.970822220536235569e+00 1.809689766046961878e+01
-1.188884381796361112e+01 2.289409315175905846e+00 1.794090414929799238e+01
-1.248743644342946801e+01 -1.594368283349215876e+00 1.882154875428110330e+01
-1.326691589000260940e+01 6.367963431639555028e-01 1.816000066381958788e+01
-1.324687102886854895e+01 -5.318861887950779854e-01 1.884582133887558797e+01
-1.246977557566202677e+01 1.915933561583259115e+00 1.794863922813230062e+01
-4.494751971996539197e+00 4.949816810912736287e+00 1.859552570285767814e+01
-2.420626844088181517e+00 4.804753036022798796e+00 1.881102076130068212e+01
-6.896716176709764667e+00 4.928752933941949799e+00 1.836981185339526235e+01
-1.103788136360592453e+01 3.769881627463910867e+00 1.810587633658845164e+01
-8.950673554395358167e+00 4.369449310873918080e+00 1.817597915140018472e+01
-1.268963220389879254e+01 -1.842231808742519794e+00 1.924024587366179873e+01
-1.282160936110250127e+01 1.802728700274858653e+00 1.805316896110064917e+01
-3.211355502544573248e+00 5.064718021335428588e+00 1.877904433565511866e+01
-7.790698246597784760e+00 5.191984525091060121e+00 1.843153474266599900e+01
-8.513977296792125671e+00 4.688148387707030906e+00 1.825918722189449994e+01
-1.169201589991410195e+01 3.206575074273071646e+00 1.811991073605853941e+01
-1.221505530190255584e+01 2.870300682056627029e+00 1.812685110796859433e+01
-1.305860882611234430e+01 -1.242686421573942601e+00 1.918705048229256249e+01
-1.232064688663493079e+01 -2.441451953125000074e+00 1.929339648431050591e+01
-1.353192201341892087e+01 2.961034353375889272e-01 1.862060825817384924e+01
-1.328724133805747698e+01 1.636457386990119556e+00 1.823531557346641563e+01
-4.002089034237873655e+00 5.324682513931983330e+00 1.874706605901769052e+01
-5.285499416783947524e+00 5.209799330563091857e+00 1.856354715487001528e+01
-6.240139609370660700e+00 5.386686122314010561e+00 1.852645291942059202e+01
-1.045520324387019073e+01 4.309153972732230109e+00 1.821976609186241447e+01
-1.379553177765316363e+01 -4.430937034858521695e-02 1.908067714434382012e+01
-1.342724864887708236e+01 -6.433639827435477798e-01 1.913385986180782083e+01
-1.361781897653911244e+01 1.307587749953823986e+00 1.835093288200850736e+01
-1.273809535816953442e+01 2.534026420362253784e+00 1.813380670660988514e+01
-2.761871409747481465e+00 5.391243743498948859e+00 1.891738864636793949e+01
-7.134046952209645909e+00 5.649968712228330858e+00 1.858819327466367355e+01
-1.230887933181937477e+01 3.600738997056899926e+00 1.830974733474771554e+01
-9.689518646396242829e+00 4.726534176366575579e+00 1.829557458184241625e+01
-1.295447332052831868e+01 -1.866309750120168198e+00 1.960047343141282994e+01
-1.376956283941856185e+01 1.081304399090081025e+00 1.849276472582410946e+01
-1.344256889845847525e+01 2.308223509098180415e+00 1.834323196121207289e+01
-1.358845666364836724e+01 -9.072287036630992674e-01 1.957194356384287914e+01
-4.792828563381280382e+00 5.584647486341499878e+00 1.871508594328290442e+01
-8.816516292748957540e+00 5.363557225266184503e+00 1.846189562632020298e+01
-9.181861516101045950e+00 4.974099650186182942e+00 1.835658404727723081e+01
-1.212704660112627408e+01 4.220489012592373967e+00 1.839422939584787287e+01
-1.132757057144094404e+01 4.445577323522339697e+00 1.828865374474710492e+01
-1.358847706832678170e+01 -1.290164978918381777e+00 1.990765159428248410e+01
-1.271600533884890005e+01 -2.687168505463978896e+00 1.999145016781874773e+01
-1.416666321033896381e+01 5.707642495524309911e-01 1.918331913526318289e+01
-1.400923426109763348e+01 -3.785270708768861403e-01 1.964773059193307247e+01
-1.397336351921303610e+01 1.977897857111675428e+00 1.854172498262330393e+01
-1.300661878144991590e+01 3.152583134683017985e+00 1.831911563305762769e+01
-3.401114981493556844e+00 5.811325834547954372e+00 1.894472786788213625e+01
-1.966969291004968534e+00 5.291157120123055613e+00 1.899038478817673337e+01
-5.583570379659315464e+00 5.844612109375000308e+00 1.868310420955493711e+01
-8.108912297079955422e+00 5.983749569185596862e+00 1.866999267908796512e+01
-1.095175974756300619e+01 4.834933603438554606e+00 1.837264874564033335e+01
-1.328849670602752475e+01 -1.937216900481004922e+00 2.007621702469269209e+01
-1.427246637414769204e+01 1.526038433286757812e+00 1.882569174884240581e+01
-1.438627488906397467e+01 4.779644963459430684e-01 1.951127608511188782e+01
-4.349495036307563289e+00 6.060664253467419549e+00 1.889055348382646571e+01
-2.505780322258873927e+00 5.821488442554007214e+00 1.905808668935380368e+01
-6.411104283792047553e+00 6.153636987887077581e+00 1.876051051027215522e+01
-1.292652268635389134e+01 3.995401551978154941e+00 1.849982511721985290e+01
-1.042842776578642550e+01 5.083649488003418426e+00 1.841518469543254355e+01
-1.422254019543921899e+01 -7.124263445497297509e-01 2.021487204149917005e+01
-1.453699852181950902e+01 1.185050219047058429e+00 1.928582010686754344e+01
-1.406402998512008296e+01 2.814127281115579748e+00 1.863352761670050128e+01
-5.160820848077522172e+00 6.298608049973357659e+00 1.885044892430737562e+01
-7.239398402034728619e+00 6.462944145007377905e+00 1.883798627018977001e+01
-9.708413737226987195e+00 5.493285077032501462e+00 1.851870460059503998e+01
-1.217486414605767564e+01 4.787528631827064451e+00 1.851132868331509584e+01
-1.327505825498288061e+01 3.770945389956230631e+00 1.850436827099395032e+01
-1.161764345470318816e+01 5.122167026466359907e+00 1.847167499376103450e+01
-1.385209935073330278e+01 -1.452253770441355174e+00 2.037292558352170957e+01
-1.348160268675883700e+01 -2.191737477152709168e+00 2.053091034597752085e+01
-1.467083145853599824e+01 3.268359604772592963e-02 2.026712618748869588e+01
-1.366954248849219766e+01 3.292536210699612109e+00 1.856894458455125019e+01
-1.432930511522657291e+01 2.648952947768420607e+00 1.873272440749263978e+01
-1.477491760511825092e+01 1.970373592901011994e+00 1.915831101442182316e+01
-5.893017015100904032e+00 6.397270132623068761e+00 1.885796404469413190e+01
-2.974362684749404462e+00 6.427944426471632333e+00 1.915377270614710170e+01
-1.513313179079343929e+00 5.777560073772696647e+00 1.916975557417070419e+01
-8.068631899245403361e+00 6.772601423421224176e+00 1.891554856019488540e+01
-9.119188957501695114e+00 6.039258339125158415e+00 1.866470109680561151e+01
-1.299853629583522086e+01 4.859183275787827050e+00 1.867803784759703944e+01
-1.116803646225947588e+01 5.441102342329341646e+00 1.853491231941566753e+01
-1.497630199323892519e+01 9.996882523103481910e-01 1.994135354314790831e+01
-1.490732891777457425e+01 1.799836223623631604e+00 1.938839541593234372e+01
-1.442321462790583553e+01 -9.473247439594960628e-01 2.072827418263619847e+01
-3.906163212135894458e+00 6.536680916315229517e+00 1.906602657440824089e+01
-2.001863956230120589e+00 6.362113292905949180e+00 1.925742319365513566e+01
-8.677143270017696253e+00 6.478469834661291671e+00 1.881076409212564116e+01
-1.062220413325854196e+01 5.839279809811333877e+00 1.863882667850572972e+01
-1.354369540300968566e+01 4.389761476127795881e+00 1.868975901177196519e+01
-1.405290660711996509e+01 -1.687029686601207557e+00 2.088629173804458006e+01
-1.511894018973804776e+01 7.788667088611841427e-01 2.031938618750335834e+01
-1.476711795888776102e+01 -2.705967086862188231e-01 2.066524959169263909e+01
-1.468508480727032506e+01 3.319698437499999599e+00 1.892363137175228260e+01
-4.737406493671540098e+00 6.753317976137546808e+00 1.901806175836211921e+01
-5.479308615955119421e+00 6.770943961354559448e+00 1.899801103844484373e+01
-6.721181374242210183e+00 6.706884785576579411e+00 1.893554570974590590e+01
-7.237100063478347778e+00 6.977768118689830601e+00 1.900991664625188804e+01
-1.245283701391308284e+01 5.329074158092084623e+00 1.866632525105640994e+01
-1.190762595058873785e+01 5.798544140625000232e+00 1.865464067019543037e+01
-1.411418301101297246e+01 3.854923834869165677e+00 1.880664898295156817e+01
-1.497801393980501317e+01 2.867361943284604031e+00 1.920728921990959037e+01
-1.501583714299870564e+01 1.449854669793607442e+00 1.972752148942168304e+01
-1.527747185433526944e+01 2.414798828125000352e+00 1.949099034373316996e+01
-1.368262278893001849e+01 -2.426391959694725653e+00 2.104551355973262972e+01
-1.462389320964286732e+01 -1.182209684573654496e+00 2.124161867953431582e+01
-1.401789424413201424e+01 -2.592301017414764708e+00 2.162595707724952021e+01
-1.425372197652455242e+01 -1.921780266771003109e+00 2.140105126407675584e+01
-1.344617521709712094e+01 -3.096278485480910447e+00 2.126994127660360689e+01
-6.202967136126118497e+00 6.950825928455407698e+00 1.903312245626922206e+01
-3.442947725650739699e+00 7.034402256267238585e+00 1.924946553288388884e+01
-9.421969379029771829e+00 6.715199794205738648e+00 1.886758742987598225e+01
-1.002208627033008881e+01 6.277238830043648576e+00 1.875318108491907765e+01
-1.371047508594866748e+01 4.993852189637780548e+00 1.894011643214940221e+01
-1.136174684922436029e+01 6.196768503822291940e+00 1.875855305676043017e+01
-1.496789988035439656e+01 -5.052392346971723569e-01 2.117857388221707282e+01
-1.521539444557251031e+01 4.756638131682495163e-01 2.071756552411529739e+01
-1.542256902671465646e+01 1.969181622298306511e+00 1.993160974733138957e+01
-1.482451561012023333e+01 -1.417015760130870605e+00 2.175647678490026138e+01
-1.516869140598321941e+01 -7.398762420030098319e-01 2.169241446895952308e+01
-1.378179531489046816e+01 -3.262535988304191115e+00 2.185094532632745512e+01
-2.490602011783435099e+00 6.946884015139871416e+00 1.934512887072328269e+01
-8.896910914478475263e+00 7.081901310033130059e+00 1.899302017707369217e+01
-7.458181817965223281e+00 7.510630568252463668e+00 1.918093339095568339e+01
-1.319724604377488575e+01 5.350855035785890834e+00 1.890106357026638051e+01
-1.405505498155197408e+01 4.825191748276306924e+00 1.903568875524054604e+01
-1.556658566389216425e+01 1.523776816426604563e+00 2.037161782849258174e+01
-1.531172289680600507e+01 1.724667073192133748e-01 2.111569745099835771e+01
-1.491148739240136223e+01 4.023162558329676841e+00 1.921141445618185983e+01
-1.522546703830661841e+01 3.869989274461890449e+00 1.944787520212186394e+01
-1.458884391346435550e+01 -2.088523950553320851e+00 2.198144300664412043e+01
-1.435315063399922053e+01 -2.758201636657680034e+00 2.220640813531656477e+01
-4.314068999740955590e+00 7.207945607853682546e+00 1.918564892912455733e+01
-5.413427016612360809e+00 7.356050962731774057e+00 1.919693523473986119e+01
-6.512792005120576988e+00 7.504156748142393418e+00 1.920822298873541456e+01
-8.299826062356252976e+00 7.624287762242583533e+00 1.919266815202643173e+01
-1.081598122770298076e+01 6.594911348404408180e+00 1.886249052595124098e+01
-1.252512911844182675e+01 6.201767800042262024e+00 1.897649788900014300e+01
-1.448327032144360871e+01 4.424177060898436764e+00 1.912354883469579647e+01
-1.207605311348040900e+01 6.416078558464055170e+00 1.892178841411970325e+01
-1.553052372721437280e+01 3.053908116851655308e+00 1.974297145509019558e+01
-1.571156133436064906e+01 1.069745263056547380e+00 2.096892183982150470e+01
-1.551260629154853987e+01 -6.219709415254418700e-02 2.162897557156784600e+01
-1.574276550455249257e+01 2.880759063993701297e+00 2.005858287588463540e+01
-1.531768979984935619e+01 -9.919282386383455608e-01 2.225174285264751717e+01
-1.411719273009842368e+01 -3.428785626551027033e+00 2.243160241469010430e+01
-1.803361547016123501e+00 6.889214970786078140e+00 1.939241163908416610e+01
-9.724694747127074379e+00 7.391015409970817629e+00 1.907044419522637213e+01
-1.026993483985827638e+01 6.993256627076600118e+00 1.896652366876089957e+01
-1.320116821849321731e+01 5.899767320381623215e+00 1.908344888524930028e+01
-1.387720720512261252e+01 5.597765974395328747e+00 1.919041147135261127e+01
-1.456653151724125728e+01 5.261035481365810007e+00 1.938169904839871194e+01
-1.153014850639311817e+01 6.813958463961352408e+00 1.902559456842691077e+01
-1.585624983795955956e+01 6.157157670560312601e-01 2.156612568625713777e+01
-1.584351133191485417e+01 2.095570373662735353e+00 2.057689934275359533e+01
-1.518291452887114268e+01 -1.758992715604672075e+00 2.270467369759021636e+01
-1.477337421852331723e+01 -2.400923140837046166e+00 2.259981179875370572e+01
-1.459266017651994751e+01 -2.985182288268718231e+00 2.283924570225732964e+01
-4.761483654637258311e+00 7.856194249825431797e+00 1.938783027357935751e+01
-3.890859849755444522e+00 7.662436859681655221e+00 1.935319021055175881e+01
-2.100929528920520095e+00 7.414513336307391178e+00 1.948357553296785838e+01
-2.979733180505511836e+00 7.532121009214828966e+00 1.943290934799610881e+01
-7.703001057356776649e+00 8.166760878637985499e+00 1.939238520679340638e+01
-1.559898640597379682e+01 -3.972668225334914927e-01 2.215547655769292490e+01
-1.599977425128128594e+01 1.887125157980415580e+00 2.095028988317444529e+01
-1.578953294307842725e+01 3.690552371575597235e+00 1.999453567490643380e+01
-1.513774772135454505e+01 4.727103664552357642e+00 1.949901117037197551e+01
-1.612015301992857275e+01 2.667708576656124819e+00 2.078222008939323118e+01
-1.561419306455631606e+01 -1.137379237105247354e+00 2.291169428825287468e+01
-1.607983618047759933e+01 2.370553641733863237e-01 2.240340744912885995e+01
-5.781026406825326980e+00 8.061471534308434883e+00 1.942113207737964231e+01
-1.333743802125991085e+00 7.163623655625944053e+00 1.949475450405702404e+01
-6.822389670900620651e+00 8.057080796660608613e+00 1.938320700989984857e+01
-9.154146017227025922e+00 7.833734755741422084e+00 1.923599044165255734e+01
-8.583614786316942968e+00 8.276440594561547570e+00 1.940156733315962612e+01
-1.089788237265441495e+01 7.137506256172227559e+00 1.909038062868522445e+01
-1.314237404277775845e+01 6.604823531256099223e+00 1.929822061923185217e+01
-1.224431600086277250e+01 7.033007153273974410e+00 1.918870165067700739e+01
-1.615162219627031703e+01 1.658099182204255229e+00 2.140281781701281005e+01
-1.620789820635938483e+01 3.346921531710075559e+00 2.062597491664715932e+01
-1.581095267150351269e+01 -5.664437661857745221e-01 2.274735101080360877e+01
-1.450886956228611169e+01 -3.587856928165864101e+00 2.331611490186828917e+01
-1.506704103108509152e+01 -2.542299299067826812e+00 2.324627621320489723e+01
-1.579522537670531257e+01 -1.448376707154370280e+00 2.351644101124555775e+01
-3.468101967028243138e+00 8.116443747478447435e+00 1.952055712754359718e+01
-8.013059331997949286e+00 8.719166878400072207e+00 1.956718501736726878e+01
-1.048042232162677756e+01 7.764452383917791245e+00 1.930029116099645492e+01
-1.449558704222042671e+01 5.886532121062082012e+00 1.953764931686654904e+01
-1.404421662807015103e+01 6.202951162772981419e+00 1.944113179521554002e+01
-1.619335745623725131e+01 1.282029809471290083e+00 2.174678139478994865e+01
-1.576668534819835976e+01 4.419671490008569847e+00 1.997292693008611764e+01
-1.522058995887324073e+01 -2.922803596507716595e+00 2.392679701302767015e+01
-1.554125725742906639e+01 -2.099312311664641495e+00 2.365345710766625587e+01
-4.262254348775583068e+00 8.325560780859030174e+00 1.956304082475728379e+01
-1.599773705307751426e+00 8.015571096271553841e+00 1.966156164956476005e+01
-2.533932967754753296e+00 8.066007421874999750e+00 1.959104590870787277e+01
-9.924545586199599256e+00 7.988296970405875719e+00 1.933990255776352285e+01
-9.354144646870345525e+00 8.431424666874319129e+00 1.950566880926026414e+01
-1.152798584725683817e+01 7.500209272295804475e+00 1.930277734420286251e+01
-1.536394986481810143e+01 5.430188459067954554e+00 1.978652953802763648e+01
-1.507850964560949159e+01 5.698196034051650649e+00 1.972805169355697075e+01
-1.308650650154641326e+01 7.329465406481431522e+00 1.953808463268376983e+01
-1.643337905613613259e+01 2.251160402776816838e+00 2.152954541718357007e+01
-1.639660847148814682e+01 3.240302228426573894e+00 2.098765160837347921e+01
-1.604836484405252861e+01 4.326910249334851244e+00 2.024591777813857973e+01
-1.641015293051606960e+01 1.069326989747592327e+00 2.231068622711466176e+01
-1.604950665728282644e+01 -7.951573949216627080e-01 2.337927347359957864e+01
-1.630336025414372614e+01 -1.413591811454156244e-01 2.324234215605510911e+01
-1.663349469500211697e+01 6.938918445023616322e-01 2.314936731771170386e+01
-5.056416132964271171e+00 8.534678353640968496e+00 1.960552702918960577e+01
-6.416748119259318983e+00 8.462219040295188677e+00 1.953356536938949617e+01
-7.131748602418745975e+00 8.609576869629931295e+00 1.955806680194148939e+01
-8.948981587511607216e+00 9.012412108898571361e+00 1.973934370970060570e+01
-1.376023936947356852e+01 7.009321730239816972e+00 1.962026645750363585e+01
-1.241277223091347359e+01 7.650647832538097326e+00 1.945594913215562016e+01
-1.652999846673612083e+01 1.948384720922357927e+00 2.192735379617449709e+01
-1.677007851296464480e+01 3.213695630817891224e+00 2.165095715787962405e+01
-1.489978148698729754e+01 -3.746588027705388235e+00 2.420035048828168556e+01
-1.621167015686172164e+01 -1.007049351252734537e+00 2.413252198882094035e+01
-1.646563920461575137e+01 -3.540287146871631263e-01 2.399566078244186684e+01
-1.662752108041059174e+01 -5.660814767433756112e-01 2.474916971620106665e+01
-1.684075000829846758e+01 1.338580855560538019e-01 2.458374166365445745e+01
-1.667871606683385721e+01 3.469556510859126974e-01 2.382991177353666856e+01
-1.561893587347834966e+01 -2.341012540217790150e+00 2.442520384070527584e+01
-1.569604481016427400e+01 -2.582215974028809313e+00 2.519609869656147794e+01
-1.533687021276801765e+01 -3.284932897567047760e+00 2.508373937478579307e+01
-1.473538170288809113e+01 -4.250164158116560564e+00 2.518998754591063971e+01
-1.595769483567943325e+01 -1.658285761170191108e+00 2.426969159133115284e+01
-5.850796958088702482e+00 8.743854253159916823e+00 1.964802766881174634e+01
-4.556713126166986427e+00 8.845557080998242228e+00 1.975678856980120557e+01
-1.012467507425495761e+01 8.586410298203006164e+00 1.960977066463312468e+01
-1.421112396539496103e+01 6.808768197984918835e+00 1.969170998465053657e+01
-1.461517723215597186e+01 6.382599577601394181e+00 1.973567968802522898e+01
-1.309020696683633567e+01 7.894340637019873874e+00 1.973857623899036540e+01
-1.691533753687985708e+01 2.069212746792512547e+00 2.258183306129169310e+01
-1.667292173123656696e+01 3.813394255513029574e+00 2.119322435733877086e+01
-1.648919833033475157e+01 4.388937743415145754e+00 2.084556694145122790e+01
-1.630749010578663061e+01 4.964759933578550388e+00 2.049757360635152637e+01
-1.594904502793107248e+01 5.549597994292480685e+00 2.028603872654566942e+01
-1.637343481315410187e+01 -1.217432291915323539e+00 2.488595666004896501e+01
-1.603471898174068500e+01 -1.900019927578818324e+00 2.504113833327560457e+01
-1.644986855116027513e+01 -1.459568761620446242e+00 2.565807828815444225e+01
-3.849750794638285178e+00 8.694746098822580649e+00 1.973318021317780335e+01
-5.128446091277185204e+00 9.240076445124429938e+00 1.988554082186002603e+01
-3.120534920455366734e+00 8.692325075852673777e+00 1.975857481562350770e+01
-2.080295394018724764e+00 8.685459896357516030e+00 1.985460835547756631e+01
-9.641394123029890295e+00 8.943471383920597262e+00 1.974223999004053809e+01
-8.262868645579759530e+00 9.467152723132743475e+00 1.990473775321304473e+01
-7.441459989922411644e+00 9.162703125000000171e+00 1.973313643861083122e+01
-1.123642583650017812e+01 8.138027008376152338e+00 1.953022248996839849e+01
-1.055164824686093716e+01 8.245028034382549720e+00 1.950838056038111290e+01
-1.559037981956567620e+01 6.133258362560955135e+00 2.007433263297968296e+01
-1.518614092483402267e+01 6.560821476212765013e+00 2.003024321194696711e+01
-1.383510828555115957e+01 7.905402524298195566e+00 1.995826941748238781e+01
-1.195030580548193555e+01 8.013799543598929986e+00 1.955448933960145652e+01
-1.437800780327248340e+01 7.414118238493869306e+00 1.994226150892618321e+01
-1.686630277298081992e+01 2.614855855661192496e+00 2.210791247033774809e+01
-1.700240006647928226e+01 -7.861144203276405895e-02 2.533781135741824286e+01
-1.705405622425545786e+01 8.361350828078814024e-01 2.441807197967360210e+01
-1.696420911294649159e+01 1.523599120355793479e+00 2.305622365867605694e+01
-1.577271802493225117e+01 -2.823318127843400749e+00 2.596742560846438508e+01
-1.537188210746705863e+01 -3.466853630504096451e+00 2.603767216918233274e+01
-1.611128199763044222e+01 -2.141538059047848108e+00 2.581272977948670899e+01
-1.678907824358899603e+01 -7.761427970544150234e-01 2.550318877605382539e+01
-6.645894456542309925e+00 8.953217700397335221e+00 1.969056864647225780e+01
-1.478204284627566167e+01 6.987687476375306517e+00 1.998622453550364142e+01
-1.258119542225827026e+01 8.268164811529072011e+00 1.972316876555624887e+01
-1.711904130177002159e+01 3.345005745685174059e+00 2.253370308254061882e+01
-1.699113338126021233e+01 4.144310765575678346e+00 2.192399368310399055e+01
-1.719699487315333641e+01 1.424715815583954104e+00 2.403140605068878344e+01
-1.682776765748430492e+01 4.431425042026088335e+00 2.153739441585202030e+01
-1.721572201899185828e+01 6.220732388288766623e-01 2.517246313616421105e+01
-1.497118129785065577e+01 -4.110108437276763560e+00 2.610801176560561387e+01
-1.639754151514186020e+01 -1.673238420975792451e+00 2.657578913127330011e+01
-1.605905422762194235e+01 -2.354780019049159012e+00 2.673045547953080714e+01
-1.673648247017748503e+01 -9.906894911289486627e-01 2.642131383697201130e+01
-4.231631297056192231e+00 9.273398116391325274e+00 1.994596813678023750e+01
-6.078766768107755958e+00 9.461273820705201842e+00 1.992471506514701574e+01
-2.772783911755352992e+00 9.268515042996281039e+00 1.999672837372521172e+01
-9.704182890695921770e+00 9.477866340035772552e+00 1.997789472750256579e+01
-9.083612673154670247e+00 9.771356955812597889e+00 2.007620182677042209e+01
-1.099217419754990033e+01 8.747951019961790919e+00 1.976177191093175267e+01
-1.329247047467594811e+01 8.396234511543704926e+00 1.997433200405137654e+01
-1.521994433693580540e+01 -3.775565782713692364e+00 2.693291212422897374e+01
-1.562037596970187359e+01 -3.132366254890200263e+00 2.686322990317763271e+01
-1.641609273771332411e+01 5.635537505955102056e+00 2.086335537603328305e+01
-1.715710346134151365e+01 2.801000307070985684e+00 2.283376392132405996e+01
-1.709398266482073936e+01 3.818397118941845747e+00 2.230933943940464559e+01
-1.722268891677363101e+01 2.073222411236453677e+00 2.346708820756729708e+01
-1.663813944159142011e+01 5.405508762606097584e+00 2.118892817736727352e+01
-1.705656385006614428e+01 -1.803011215913178922e-01 2.623532151981529026e+01
-1.591795513526626316e+01 -2.663323050057447627e+00 2.762633114214753860e+01
-1.635726770446708755e+01 -1.886297950273372770e+00 2.749452101632921242e+01
-1.726992396913683336e+01 5.184336721836707573e-01 2.606978742523708803e+01
-1.742939689075049969e+01 1.326186258370535498e+00 2.500686867690848558e+01
-1.748354642879260723e+01 1.221939320677479790e+00 2.590402940212041472e+01
-3.513986840731869066e+00 9.188088783192155162e+00 1.993847086287197712e+01
-4.613655860262767305e+00 9.852268225668522561e+00 2.015886872906446925e+01
-5.511149821038605623e+00 9.969502296501580929e+00 2.015898632815953562e+01
-1.032475519748904880e+01 9.184375720462941928e+00 1.987960429638377846e+01
-7.664208244595768882e+00 9.711061321555170878e+00 2.000131567450860715e+01
-1.199314603547767355e+01 8.511953678426200653e+00 1.976037084395128574e+01
-1.597448133610842547e+01 6.638609629504424348e+00 2.070358716927259124e+01
-1.566847305412699498e+01 6.844476805325232505e+00 2.045752257975078336e+01
-1.443543629935206596e+01 7.995580156797476690e+00 2.025660336848262233e+01
-1.274964337499116951e+01 8.887090043999144484e+00 1.999045168771343128e+01
-1.547848867439286025e+01 -3.440584100409535218e+00 2.775862351967221286e+01
-1.488625733951866614e+01 7.937385785786707615e+00 2.049710836107205836e+01
-1.740988571026774423e+01 3.531492358098506479e+00 2.326017401906694104e+01
-1.740466088027224245e+01 2.093910993683633759e+00 2.413024801000066333e+01
-1.753265591280584346e+01 1.941134328907775597e+00 2.476793418467888230e+01
-1.622046293328841315e+01 -2.194047126784123947e+00 2.839185605339220331e+01
-1.669588520265395104e+01 -1.204561293953129830e+00 2.734048302957045351e+01
-1.701241114409406308e+01 -3.955016167138087346e-01 2.715440028602845146e+01
-1.732904523995026125e+01 4.159841804082982653e-01 2.696854483782878020e+01
-6.925312453517912026e+00 9.624486616175639497e+00 1.994600041048650141e+01
-8.485427100490774421e+00 1.022063759660439430e+01 2.027053920593594327e+01
-1.103117172176451888e+01 9.408373899452895373e+00 2.004207864432708419e+01
-1.392176590224733879e+01 8.716415951735106304e+00 2.039935736090214746e+01
-1.481980064120059382e+01 -4.418279154969355638e+00 2.700286079926875260e+01
-1.574644124819583446e+01 7.554089375529624562e+00 2.084009340308782399e+01
-1.698467480483939340e+01 5.049456205784373708e+00 2.188147715224808110e+01
-1.711289437484756704e+01 4.711715528830477950e+00 2.218835348686225473e+01
-1.737111211107752951e+01 4.075523601781934069e+00 2.295964836717476487e+01
-1.731149326474341521e+01 4.475413535541170162e+00 2.265482878512432663e+01
-1.744829017259770865e+01 2.987477979605848599e+00 2.356115146395937643e+01
-1.748096808973215488e+01 2.623083109893910692e+00 2.387807240965206645e+01
-1.578104119470244271e+01 -2.971093549681673718e+00 2.852271924732482589e+01
-1.665955091543077771e+01 -1.417581181754464792e+00 2.826146053442511530e+01
-1.697597820101707455e+01 -6.097575309771806618e-01 2.807572267642264308e+01
-1.729279878620032918e+01 2.003522663222884748e-01 2.788979224322434547e+01
-1.754201881716461742e+01 1.117473940305419688e+00 2.680271007290029317e+01
-6.408648115760512631e+00 1.008673643561142619e+01 2.015910319860683941e+01
-1.052478039586761049e+01 9.782176843432564439e+00 2.014939397883324546e+01
-9.904156109111342587e+00 1.007548499481060134e+01 2.024762432849804838e+01
-1.322870722759827622e+01 9.246879170451705932e+00 2.037164745348815131e+01
-1.652472710157924141e+01 6.306706831229361043e+00 2.122921699625827685e+01
-1.696835125455113058e+01 5.845953317664547733e+00 2.187936515165782225e+01
-1.507569720498144683e+01 -4.083367124039427587e+00 2.782775272055103599e+01
-1.725281348871747511e+01 5.174757553032408808e+00 2.249788315622436485e+01
-1.763598974797208641e+01 2.557139602965512015e+00 2.452895295276366383e+01
-1.764823754179875337e+01 1.986275234790036315e+00 2.565400429429722706e+01
-1.775158329338671237e+01 2.602755249299578910e+00 2.541516991903475642e+01
-1.592371247638519804e+01 -2.454314843645340360e+00 2.941104705474912606e+01
-1.760932777822100093e+01 1.013636706093519857e+00 2.770406612646286604e+01
-1.713713802238710215e+01 2.764277263643300647e-02 2.889817539991149431e+01
-5.892958841000002224e+00 1.054811470769110926e+01 2.037182623661140823e+01
-7.147846832593129918e+00 1.017318942283744754e+01 2.021437188912424787e+01
-7.887047863894548705e+00 1.025964266226896626e+01 2.026964211429459084e+01
-9.361695829337378427e+00 1.045683959696233778e+01 2.041145493389160492e+01
-1.162362953555777878e+01 9.110535856371834385e+00 1.997498682133118209e+01
-1.224360071629762814e+01 9.259112166761164886e+00 2.009747826203407328e+01
-1.635816957975948682e+01 7.141989573763135368e+00 2.133217915635653128e+01
-1.449290923271403919e+01 8.577238378394874019e+00 2.057121024826328792e+01
-1.714161022996130868e+01 5.667697207946337912e+00 2.222561300601792311e+01
-1.534169525972337844e+01 -3.748020350158145941e+00 2.865393886422572578e+01
-1.539465431494036807e+01 8.457932627044792540e+00 2.105211774849134798e+01
-1.770086757213702455e+01 3.718450678656212816e+00 2.398789925839894366e+01
-1.773943681134313621e+01 3.174015605534733719e+00 2.428981891879590194e+01
-1.636306168016828266e+01 -1.677132296790954324e+00 2.928133633952816339e+01
-1.682055232638216680e+01 -7.800887119636791267e-01 2.908490468295866904e+01
-1.745374673127110299e+01 8.367479811686141522e-01 2.871173091095222674e+01
-1.777083840334949727e+01 1.780674547394619722e+00 2.745091269924622068e+01
-1.770347487954080634e+01 1.883379850970151592e+00 2.655166605392451729e+01
-1.123109994860570104e+01 1.000601515254568241e+01 2.031178432049586036e+01
-1.173759024932808792e+01 9.632371243938335326e+00 2.020455489863881837e+01
-1.281095108215102130e+01 9.453363299910096273e+00 2.030994381034012264e+01
-1.582457474230099592e+01 8.264867703118273567e+00 2.122346590786297327e+01
-1.766269809066989538e+01 4.262271910624908955e+00 2.368669989840765666e+01
-1.763203131259034961e+01 4.806807102272727228e+00 2.338600447147150163e+01
-1.785491813836198460e+01 3.219314528011350429e+00 2.517648206362031615e+01
-1.786677783561351518e+01 2.648180727997581307e+00 2.630179216204961179e+01
-1.548445881340565933e+01 -3.231507553671296051e+00 2.953888569415414977e+01
-1.698169070060477637e+01 -1.446761179390343988e-01 2.989372706210826891e+01
-1.729824539002462558e+01 6.649723414412050948e-01 2.971080774314906137e+01
-1.774140291291445237e+01 1.737657641512776463e+00 2.843863475404620544e+01
-6.796711543825668222e+00 1.075209092182524806e+01 2.048674768191130724e+01
-1.072468069371976718e+01 1.037960546875000034e+01 2.041904380623588366e+01
-8.109688464460209190e+00 1.080773402509048076e+01 2.053776381419487151e+01
-8.874732853891419637e+00 1.097502854743447109e+01 2.064226450387441858e+01
-1.663332151448109997e+01 6.977765406174833096e+00 2.159491589715347359e+01
-1.370774957374077019e+01 9.605830446565967407e+00 2.075282601955860784e+01
-1.455034776700340160e+01 9.158317592478976366e+00 2.088564701127122802e+01
-1.729876061053698777e+01 6.286855575187330736e+00 2.257021083821081930e+01
-1.740991218510331962e+01 5.793217913266570207e+00 2.284241444739192417e+01
-1.752095103033862955e+01 5.300094776243886585e+00 2.311422369629343976e+01
-1.787534921982614478e+01 3.743088763991835322e+00 2.472861699942685121e+01
-1.562722127435461417e+01 -2.717801700763412764e+00 3.040538599943811704e+01
-1.606638529886861022e+01 -1.940742845803727246e+00 3.027512707305710293e+01
-1.640963109254541763e+01 -1.267276876057098045e+00 3.013184991289867654e+01
-1.018176015727333805e+01 1.076129352929585536e+01 2.058302575971019266e+01
-7.449932710030322980e+00 1.063340543314484954e+01 2.044162044698052227e+01
-1.702049769868718343e+01 6.968234710430754930e+00 2.226585789194815845e+01
-1.505824123604821807e+01 8.857885042769353845e+00 2.104384024895630390e+01
-1.590268460604730905e+01 8.975216351940865422e+00 2.160672885807844068e+01
-1.674208883517550817e+01 7.649991237477345329e+00 2.196116779283909892e+01
-1.632240026481617434e+01 8.310711618089143826e+00 2.178388850144228073e+01
-1.786477427170570564e+01 4.381863240792402969e+00 2.449986139591704770e+01
-1.801866415067194183e+01 3.882997832068928901e+00 2.568778731686943573e+01
-1.797053808774475669e+01 3.264733762478424506e+00 2.606281972481550113e+01
-1.793236279823222290e+01 2.545752827796628370e+00 2.719950376408929316e+01
-1.765780807590639512e+01 1.785062283681529305e+00 2.938052324785447311e+01
-1.645621091216754195e+01 -8.575469709875155333e-01 3.098745731986079477e+01
-1.790291588613595763e+01 2.503635248738175889e+00 2.818497239902505669e+01
-1.130749066340476539e+01 1.071302632590223602e+01 2.071140710583249245e+01
-9.639779175686747692e+00 1.114232258925883734e+01 2.074676499427148713e+01
-1.208988068785706282e+01 1.036578668154277949e+01 2.067044327397877623e+01
-1.234636144788275480e+01 9.753680761251166231e+00 2.038577516432296832e+01
-1.748573186887626107e+01 6.550943776591643619e+00 2.319936008949635209e+01
-1.785868910585471170e+01 5.020945813066394869e+00 2.427161605216595675e+01
-1.801783663728598839e+01 4.311689103774784648e+00 2.516702898453371873e+01
-1.809380587417505737e+01 3.310320809216050986e+00 2.694945699397493044e+01
-1.611283361632003519e+01 -1.531383629317155881e+00 3.113042240008529049e+01
-1.757425771003337189e+01 1.834650165561114488e+00 3.030651433920565907e+01
-1.714278456881098123e+01 4.896567294752527943e-01 3.070163742361461345e+01
-1.679939062738690581e+01 -1.841311159192033919e-01 3.084458473098336739e+01
-1.081549101077999708e+01 1.089857822025211043e+01 2.072622503182094178e+01
-1.027299302797412928e+01 1.127967465679496506e+01 2.088994794346735162e+01
-7.538259765177915739e+00 1.113248631285981460e+01 2.068367422423807511e+01
-1.287227285148351896e+01 1.001969639597882455e+01 2.062954648733606788e+01
-1.734982338397694690e+01 6.963005444157088775e+00 2.299263754051176889e+01
-1.460776969545927884e+01 9.739025642927471083e+00 2.120001184660309335e+01
-1.761073389953117996e+01 5.996103645961181172e+00 2.350546002054912975e+01
-1.773576227081572654e+01 5.441755777715752807e+00 2.381154567149578227e+01
-1.816638819405682881e+01 4.023286552927859638e+00 2.664707163527687328e+01
-1.823896533208693427e+01 4.736196440766176075e+00 2.634532879736291378e+01
-1.593753472671520832e+01 -1.003694978818787886e+00 3.173520037950173744e+01
-1.628055893667077214e+01 -3.302761423226424631e-01 3.159275238108268269e+01
-1.787353406219259000e+01 2.460525184942651045e+00 2.917403887383716921e+01
-1.778995759059948156e+01 2.508150459501567120e+00 3.011012497395465459e+01
-1.735846857567938173e+01 1.162541041448881041e+00 3.050393884021610091e+01
-1.662358977194238818e+01 3.430595375909797351e-01 3.145033393076705508e+01
-1.418633020389291133e+01 9.963422175471677633e+00 2.113363694030057260e+01
-1.549051652500666698e+01 9.424184699411695121e+00 2.157596810454120373e+01
-1.798053690811385152e+01 5.908431407263143420e+00 2.477713451833756153e+01
-1.620164978401996336e+01 9.468917025033993795e+00 2.229098401442927013e+01
-1.675660757769310294e+01 8.354498424516297206e+00 2.238664998272604123e+01
-1.699578575591173646e+01 8.096542907576644410e+00 2.272701208764525660e+01
-1.808511460061667009e+01 5.234975627669768983e+00 2.515784968277241518e+01
-1.806432183368360711e+01 3.268071860616291513e+00 2.793378671789225010e+01
-1.816468861209614616e+01 4.880369035765442121e+00 2.560552765922105678e+01
-1.718586651400746845e+01 1.736807900677231675e+00 3.105941764660352078e+01
-1.697004285513661159e+01 1.064820750159430895e+00 3.125773114528997354e+01
-1.803492126764889392e+01 3.226542080370479848e+00 2.891919835398413952e+01
-9.842305883796568011e+00 1.180095006189062623e+01 2.114556745524416925e+01
-1.189059904093233655e+01 1.104771189495135530e+01 2.100392009381511471e+01
-1.350038807541468699e+01 1.046469742154983784e+01 2.111587495402934778e+01
-1.293360866597777736e+01 1.058608674366045754e+01 2.094925995353831283e+01
-1.767275487579273729e+01 6.815187030818215419e+00 2.382872998788285201e+01
-1.783929963863048584e+01 6.075637834414444605e+00 2.423636078143404049e+01
-1.819290553140710642e+01 3.923702753508411689e+00 2.745969841861352378e+01
-1.833146844505978734e+01 5.045051034260731981e+00 2.749792596196239458e+01
-1.576197026781704480e+01 -4.767639034860009506e-01 3.234102803876274379e+01
-1.740153247289266147e+01 2.409639947982193497e+00 3.086166864542433075e+01
-1.610508317389511390e+01 1.963915673652433247e-01 3.219858187706003605e+01
-1.701313102813927358e+01 2.313098059110962890e+00 3.161552541470688382e+01
-1.679749797711288650e+01 1.638258831487530820e+00 3.181347056734034595e+01
-1.090620929727323585e+01 1.141702470055129126e+01 2.103312983063274544e+01
-1.042467287412323884e+01 1.180323098626212897e+01 2.120601262498126260e+01
-1.246014717239305725e+01 1.088437635599975017e+01 2.102225525516320559e+01
-1.466524779004887513e+01 1.032014549451872121e+01 2.151471478225705170e+01
-1.590004844863078759e+01 9.543185202231624586e+00 2.195052204290563935e+01
-1.829192618237912882e+01 4.536659886155910648e+00 2.796975817870977465e+01
-1.831154337024030809e+01 5.449108376691157218e+00 2.604413565607160308e+01
-1.800559131215679187e+01 3.182920703125000195e+00 2.991068823805689192e+01
-1.761724336744140729e+01 3.084542986959701860e+00 3.066407044435931084e+01
-1.645129085741321617e+01 9.175226720316056461e-01 3.200600443917273452e+01
-1.722881195019051148e+01 2.986423026511134005e+00 3.141748906531639562e+01
-1.299493637595708684e+01 1.115232685732996565e+01 2.126896723718833826e+01
-1.740081942212464128e+01 7.638341527624963767e+00 2.341444430899322882e+01
-1.507803689455240814e+01 9.872432395564587182e+00 2.154530447591183773e+01
-1.412885776415802930e+01 1.078705502542469041e+01 2.153929391356591339e+01
-1.822312868452036483e+01 6.080454673205761829e+00 2.572460697280657627e+01
-1.794279859773638819e+01 6.709365715767351190e+00 2.466111010808380044e+01
-1.677109043235422803e+01 9.057226381054965358e+00 2.281093753820220726e+01
-1.817300584018109788e+01 3.954004814906636689e+00 2.859927073226377559e+01
-1.837101396761518401e+01 5.553503752340496646e+00 2.702645420442096125e+01
-1.558675020920069976e+01 4.956852131376379700e-02 3.294683755117591062e+01
-1.167027860378129844e+01 1.182989564550794093e+01 2.140284680753709168e+01
-1.043215974780745015e+01 1.218721946101414488e+01 2.142730544738662957e+01
-1.247311613244202455e+01 1.138324350341716418e+01 2.129613513467313624e+01
-1.359267786753787810e+01 1.125296892209436805e+01 2.156394123008563568e+01
-1.813471414799284176e+01 6.711806491241688377e+00 2.540512162987099387e+01
-1.589741150800087510e+01 1.011140292662364359e+01 2.229452477600662874e+01
-1.724913239050560776e+01 8.542634138440311276e+00 2.349190335094455051e+01
-1.839091965326931799e+01 5.149470315712309620e+00 2.848007401540746386e+01
-1.812668694844501971e+01 3.829480221616977431e+00 2.967515112293336799e+01
-1.627885741811701692e+01 1.491231669551866146e+00 3.256223635024493746e+01
-1.593273712659511787e+01 7.709208348746756645e-01 3.275476142888471287e+01
-1.662491950398432650e+01 2.215043734768606498e+00 3.236950464384540993e+01
-1.684039782240271776e+01 2.890961906136075843e+00 3.217187153941523547e+01
-1.749836915624561229e+01 3.692570514614391008e+00 3.118832555561472830e+01
-1.099690868869459770e+01 1.193536289484556079e+01 2.134000332058937843e+01
-1.507316347075892438e+01 1.082140166334867359e+01 2.211876311576896015e+01
-1.785961421729837895e+01 7.079268394901745864e+00 2.445761152687803275e+01
-1.765572522091889240e+01 7.696358564794398838e+00 2.414701302192002785e+01
-1.788672890963718132e+01 3.791591164658761226e+00 3.043743997125763912e+01
-1.835329390069372835e+01 6.116213874987394661e+00 2.653373919076177145e+01
-1.650065200524822728e+01 9.966612575120210593e+00 2.297532045928594258e+01
-1.828664012251481452e+01 4.601417949922311124e+00 2.873087910413716273e+01
-1.843050296243484709e+01 5.658137110138272696e+00 2.800883056357665524e+01
-1.710990838026612337e+01 3.593910966022711317e+00 3.194207971763654896e+01
-1.541383604075264735e+01 6.232109519155798472e-01 3.350378292356699461e+01
-1.305625498794370110e+01 1.171840674022784512e+01 2.158866169948952773e+01
-1.417394470540737039e+01 1.126965849710081180e+01 2.186739382139750987e+01
-1.243015629031943092e+01 1.213650385662804787e+01 2.171053807774616828e+01
-1.745180387536609601e+01 8.313567965154053496e+00 2.383607980444335794e+01
-1.465818236528979313e+01 1.087037886636694850e+01 2.185936270569231965e+01
-1.706950045183576492e+01 9.288506293123697688e+00 2.354637426226093311e+01
-1.829171015620259411e+01 6.930081258351652451e+00 2.644279849296933804e+01
-1.804629889402915310e+01 7.343160614139388365e+00 2.508599073522904632e+01
-1.678559443853045252e+01 9.760967470389358525e+00 2.323572055572865835e+01
-1.824772621361091041e+01 4.473575717361903514e+00 2.944488966257735996e+01
-1.841974050443726796e+01 6.332070895298555158e+00 2.759809525174935274e+01
-1.800785561872257645e+01 4.437089588674528073e+00 3.020795377049747543e+01
-1.737950236139679916e+01 4.300599575077313830e+00 3.171595371124064044e+01
-1.672151115658433795e+01 3.496591298223765243e+00 3.269862161054250294e+01
-1.576039426659890097e+01 1.344204534905814930e+00 3.331101882070331044e+01
-1.610643037543970379e+01 2.070627857681698547e+00 3.311855680797220458e+01
-1.108767971063240765e+01 1.245411016797258164e+01 2.164714975970098010e+01
-1.405042211684981091e+01 1.173999740706117834e+01 2.210269778179111810e+01
-1.344973062902796990e+01 1.205808529261936890e+01 2.200132022471752791e+01
-1.786522160122959590e+01 7.891688469499639424e+00 2.481037436991466194e+01
-1.768414265487802695e+01 8.440232139399201472e+00 2.453448923889008171e+01
-1.776801894729331011e+01 4.399511300606440578e+00 3.096016416791194814e+01
-1.839505118748153478e+01 6.783476850205468089e+00 2.702405749942854030e+01
-1.819038398535372991e+01 7.601354911293382699e+00 2.605853523102159741e+01
-1.623696641804980700e+01 1.038905986079970489e+01 2.289693569639556969e+01
-1.836885387158550031e+01 5.118136838345646922e+00 2.921744558481341514e+01
-1.812896635959550551e+01 5.081205281043023270e+00 2.997864469132763077e+01
-1.849003632514961026e+01 5.763043519498106448e+00 2.899178444065089977e+01
-1.645215158249117238e+01 2.794427600569751480e+00 3.292628343820070569e+01
-1.699100988650926070e+01 4.201685854787333696e+00 3.247463575522158408e+01
-1.180427206808610840e+01 1.255352170752129126e+01 2.183244576279113147e+01
-1.052293850724366209e+01 1.270602778313458003e+01 2.173451102822353675e+01
-1.465111542729241734e+01 1.142069172541560107e+01 2.220411901254310294e+01
-1.304208966998328023e+01 1.222266001998700524e+01 2.193591817625947016e+01
-1.750283540857016717e+01 8.989472909944280943e+00 2.425803220792717951e+01
-1.589477068196051945e+01 1.068094573150931836e+01 2.263910732947191207e+01
-1.786631085056643187e+01 8.584054210219420611e+00 2.528825406224069994e+01
-1.594374929469244506e+01 2.657630795657621725e+00 3.368817577281741649e+01
-1.559771915741792370e+01 1.933380784086172088e+00 3.388082121999821794e+01
-1.764926349692321139e+01 5.007692200904908297e+00 3.149170897598880359e+01
-1.525144301201819985e+01 1.205921223562880451e+00 3.407367994034866143e+01
-1.680010831489546064e+01 1.046521671926761599e+01 2.366069422055329952e+01
-1.825023214492837909e+01 5.725855748984988836e+00 2.975090199015791015e+01
-1.726071819921498474e+01 4.908557805344570646e+00 3.224947464903014094e+01
-1.632077821281592733e+01 3.416637598900245099e+00 3.347098126671043872e+01
-1.548135274201552747e+01 1.132056487311949233e+01 2.272318915301521258e+01
-1.804738573236526733e+01 8.035504903517619368e+00 2.556428175542546199e+01
-1.703412949483123029e+01 9.973762041377266740e+00 2.385949053870721315e+01
-1.726846024331724649e+01 9.481661461339797370e+00 2.405866912538385449e+01
-1.788908304199621213e+01 5.044553944056311856e+00 3.073598714814673727e+01
-1.659012343140791756e+01 4.118765126448422187e+00 3.324673344173008616e+01
-1.685967073936818039e+01 4.824932508040494561e+00 3.302114045371805418e+01
-1.848240067078537052e+01 7.333246759107383106e+00 2.832616450181706114e+01
-1.508868439065284583e+01 1.796113939021219963e+00 3.464393865532562700e+01
-1.833447953446456324e+01 7.859734287787593310e+00 2.702736673780570698e+01
-1.843681464984141627e+01 7.450834244218419222e+00 2.750909535496069580e+01
-1.848621738376471413e+01 6.548250422374620960e+00 2.866068591421353773e+01
-1.117847252934797098e+01 1.297298075565168141e+01 2.195439812593889073e+01
-1.464404302490510013e+01 1.197148689253485898e+01 2.254923578420192953e+01
-1.384320289511883217e+01 1.239702703339774104e+01 2.241397082644831684e+01
-1.240669590223392227e+01 1.297687015877908046e+01 2.228929844218298584e+01
-1.513512252500780875e+01 1.169445999021574956e+01 2.271731694841771798e+01
-1.763991936639078162e+01 9.270519781195382336e+00 2.494321933759374588e+01
-1.747117802677064091e+01 9.687927628104768374e+00 2.473683495990994530e+01
-1.817485243464575717e+01 8.568583873535372319e+00 2.662819466660975110e+01
-1.581216807399455249e+01 3.281239986194147473e+00 3.423586643574171262e+01
-1.777031744364478527e+01 5.652032856554666473e+00 3.126502191078770210e+01
-1.801021222220116869e+01 5.688835148720960966e+00 3.050730131219149399e+01
-1.543506002997086313e+01 2.520656324832402539e+00 3.445131464905099250e+01
-1.474251617232582667e+01 1.069253483683553441e+00 3.483657465721670121e+01
-1.634481705047333833e+01 1.114307633412332876e+01 2.349390484356799291e+01
-1.843411548173889969e+01 6.389883057667375077e+00 2.951935656165850830e+01
-1.302792344636374189e+01 1.272698821091828769e+01 2.228326203724658328e+01
-1.804848159287155696e+01 8.728038221431919652e+00 2.604287200048946715e+01
-1.791268742901720401e+01 9.139765754314101542e+00 2.583570631900965253e+01
-1.720760995017069916e+01 1.024127672876829109e+01 2.451214316650552405e+01
-1.645890271390593185e+01 4.741625645492972829e+00 3.379337131970153507e+01
-1.618927949172610070e+01 4.037707516032245536e+00 3.401954690016683713e+01
-1.753054408581424539e+01 5.615442407238350420e+00 3.202294877766472325e+01
-1.712911765645957018e+01 5.531886789856883091e+00 3.279517153840071586e+01
-1.843066142575484534e+01 7.093531325812354460e+00 2.921989048223112206e+01
-1.492593902053430455e+01 2.383519706671316296e+00 3.521724576500667325e+01
-1.458004033966594548e+01 1.658937979228314097e+00 3.540669114610045654e+01
-1.589213424301262911e+01 1.125077326477967787e+01 2.298319965630353323e+01
-1.694404468100187700e+01 1.079462555147655323e+01 2.428772487808392810e+01
-1.819417076800175792e+01 6.353132068107656849e+00 3.027569703269877976e+01
-1.795424585865595191e+01 6.316054706733756241e+00 3.103449540637408788e+01
-1.463697847049876977e+01 1.252159499589755853e+01 2.289397857491981370e+01
-1.588949672586216266e+01 1.182098837581409967e+01 2.332751281060945203e+01
-1.777689394611130069e+01 9.551493006624266258e+00 2.562840493570768530e+01
-1.672834972868450265e+01 5.448177923892260743e+00 3.356715360446964524e+01
-1.568079970692773450e+01 3.902238692156259070e+00 3.478385306220910422e+01
-1.771435906661772819e+01 6.278997332425058531e+00 3.179375977030719014e+01
-1.742113633042143306e+01 6.258827691748985345e+00 3.253930944149372095e+01
-1.847858504380870670e+01 8.118253451593389514e+00 2.799164335937500070e+01
-1.842035972323386162e+01 7.673775243230551268e+00 2.908450552753527063e+01
