6.238567876676170521e+00 1.061076677790181577e+01 4.460386807071066073e+01
6.155958144244747743e+00 1.081413775351961881e+01 4.442315265668132440e+01
2.206803257618826564e+00 1.186016389031336438e+01 4.248629638724360547e+01
5.318399999999999572e+00 1.136919999999999931e+01 4.378520000000000323e+01
4.617646793107299530e+00 1.203420522098006273e+01 4.328614860591844860e+01
1.215853578697103643e+00 1.149844228582256633e+01 4.214662692472772676e+01
3.033905778631419636e+00 1.223333066310568462e+01 4.269573613547593993e+01
3.492373686333391181e+00 1.202147918692497797e+01 4.291805382497442167e+01
5.987489875251588600e+00 1.131932311805339886e+01 4.404592915141824960e+01
7.914791335798598837e-01 1.179444383540409547e+01 4.186179270228424087e+01
4.354340279487015408e+00 1.227297464472849597e+01 4.318880083333183251e+01
3.869190090642192548e+00 1.282271006935810931e+01 4.287977964699177846e+01
3.222665364247958131e+00 1.263406291179715524e+01 4.267670610597965464e+01
8.034875459641110496e+00 9.963118398694409406e-01 4.716914989033196548e+01
7.986199893028658181e+00 1.444233232975702830e+00 4.721443334222751531e+01
7.652716132845533537e+00 2.352037927664848205e+00 4.735513778155329589e+01
7.408467178058982583e+00 2.723297109398767013e+00 4.743410454127239717e+01
7.903847166541434710e+00 1.935460909317237688e+00 4.727389597979212965e+01
8.615950820766176577e+00 1.047875062441786742e+00 4.707959987293533999e+01
7.864383541399263322e+00 3.140332291695555167e+00 4.739829755812237266e+01
8.518600195092060900e+00 1.943716849696780269e+00 4.717016665044563695e+01
8.857812882048170522e+00 1.521577061007396203e+00 4.708010826975806395e+01
8.351967476242098343e+00 2.397626131034608754e+00 4.724050095704748031e+01
7.457190538009282221e+00 3.865265885102981080e+00 4.756136835032895505e+01
9.051000000000000156e+00 2.443200000000000038e+00 4.712590000000000146e+01
8.116457579117843935e+00 3.919722278029389884e+00 4.744405876375260078e+01
8.320272151592703835e+00 3.557338866026606983e+00 4.736249236981952038e+01
9.414549530938774780e+00 1.797100242609242393e+00 4.701320009603336558e+01
8.913506058719157465e+00 3.208663965376899796e+00 4.722629534440106625e+01
7.409761021337216924e+00 4.625992985904907151e+00 4.766487511336973881e+01
7.904241907613079654e+00 4.666785876186477111e+00 4.757688102083472614e+01
9.624127518535120274e+00 2.556542158630467299e+00 4.703338721161520652e+01
8.775999999999999801e+00 3.974200000000000177e+00 4.732670000000000243e+01
8.340100191607005442e+00 4.320509433043249636e+00 4.745179646884587754e+01
7.468314090164716035e+00 5.013117561591159621e+00 4.770198552784408719e+01
9.539953632873366729e+00 2.794278192878433487e+00 4.706925002661002821e+01
1.005635013648862142e+01 2.131891941754671116e+00 4.692524077420360129e+01
8.904790464371657777e+00 4.506918136515051465e+00 4.735844788218990686e+01
8.396307877058896807e+00 4.911215066169433818e+00 4.750440938843116356e+01
9.456135596731039428e+00 4.030382070651225668e+00 4.720565976679012721e+01
9.742519849262169629e+00 3.587869079193592103e+00 4.710913018974953559e+01
1.019725569894743344e+01 2.669884128471557982e+00 4.694087429234131292e+01
7.742351585560975025e+00 5.430535219673259029e+00 4.769205993658855647e+01
1.002890663574244634e+01 3.145355521173324398e+00 4.701260008592105777e+01
9.033675686757829837e+00 5.040031168593386290e+00 4.739021944178109180e+01
1.084784435168972117e+01 2.080377896570808183e+00 4.678182836023778890e+01
1.013604107562118273e+01 4.086545132597632524e+00 4.708466048646856450e+01
1.051787800293462638e+01 3.496445998562236479e+00 4.695594801641887983e+01
1.077070122012712972e+01 2.783289892152980283e+00 4.684831023158433538e+01
7.944770846520357921e+00 5.922193081351830202e+00 4.770374623585465912e+01
8.452515086674194933e+00 5.501920953350163401e+00 4.755702243115960925e+01
9.601199237817519716e+00 4.629963866557115004e+00 4.724137227437844189e+01
9.162600240364103144e+00 5.573300414299373173e+00 4.742199998917200787e+01
9.746262038575219222e+00 5.229545669430158306e+00 4.727708493951384838e+01
1.138313600048016738e+01 2.545430999967181585e+00 4.672244600407136517e+01
8.147190278129848195e+00 6.413849852577372168e+00 4.771543238475452142e+01
1.032947753441641403e+01 4.886054732302794079e+00 4.713228078743041749e+01
1.081594796627114263e+01 4.142708311161357848e+00 4.696366095490336789e+01
1.099731481492329088e+01 3.258345090674745759e+00 4.684940596451846773e+01
1.134447467986848501e+01 2.896760156842230760e+00 4.675569320890337366e+01
8.654930080589643637e+00 5.993546398545128717e+00 4.756870613722616525e+01
1.100687027835284049e+01 3.847551863626421209e+00 4.689929355735007022e+01
1.140133498458179240e+01 1.687846001053798561e+00 4.671338686926814887e+01
8.670829304505851098e+00 6.498406861261599943e+00 4.761363745115111357e+01
8.230049980340664817e+00 6.880146006182723539e+00 4.774262590523214556e+01
9.442280889478906758e+00 6.055367060485453479e+00 4.740940086089583616e+01
9.732938865210403634e+00 5.554867108998884362e+00 4.731088229007796286e+01
1.191810000000000080e+01 3.010200000000000209e+00 4.666310000000000002e+01
1.165961384448890392e+01 2.348757004373393187e+00 4.668825351691852177e+01
1.030287001554031967e+01 5.536447395013066597e+00 4.719984401423729281e+01
1.091269310775965273e+01 4.542562955388726564e+00 4.698747653983718209e+01
1.149620001634860778e+01 4.198899953937925034e+00 4.684259999304438082e+01
1.170723921300196402e+01 3.604299901765637415e+00 4.675281215117946942e+01
9.131198359925019048e+00 6.490979836011620208e+00 4.751632471525633861e+01
8.820116658824725064e+00 6.926592275426818546e+00 4.762324836364209801e+01
1.001240371815912766e+01 6.036921125164694146e+00 4.729832353261959099e+01
1.210874682960193205e+01 1.665265004792054970e+00 4.663914337494414752e+01
9.721938373722910143e+00 6.537393829725050232e+00 4.739680278101148048e+01
1.242180537770355286e+01 2.771152532269585578e+00 4.660957817734431075e+01
1.251709710682177423e+01 2.098966996995882628e+00 4.659760401874012814e+01
9.410998564017935664e+00 6.973103198641352307e+00 4.750370592228669864e+01
1.215572227592791421e+01 4.253373872744823814e+00 4.672521749126582336e+01
1.243728323417182580e+01 3.461232007497902607e+00 4.660552417035308537e+01
1.292509927720725571e+01 2.532300343021502975e+00 4.655610007680121498e+01
1.273635408534540581e+01 1.903586958506006788e+00 4.657866255770890973e+01
1.310826033477023422e+01 3.142389939260151088e+00 4.653423010928116810e+01
1.295593008296286541e+01 3.911799881247808752e+00 4.654800781783642094e+01
1.281509801731880316e+01 4.307835991269581832e+00 4.660786109325542270e+01
1.305171506365231693e+01 1.944210033737481691e+00 4.654614881608735999e+01
1.343782101145778363e+01 2.674820000279203747e+00 4.649909210374770652e+01
1.347450000000000081e+01 4.362300000000000288e+00 4.649049999999999727e+01
1.317832669968389858e+01 1.356135987771518447e+00 4.653619790156513147e+01
1.379176704746138427e+01 3.332300006318455132e+00 4.645823326497643535e+01
1.329138867308612681e+01 3.752372992033742083e+00 4.651236403986684564e+01
1.363313328392734469e+01 3.847300160395573876e+00 4.647436667169135660e+01
-9.504475729309922016e+00 -3.279360898149956682e+00 2.930989295604855016e+01
-9.459661994041432820e+00 -3.612150997758026172e+00 2.881470899903251848e+01
-9.245064748407735067e+00 -3.927638062838586741e+00 2.940529188884581302e+01
-9.718908171979897759e+00 -2.964305867379981141e+00 2.871932389544613784e+01
-9.563409831953004314e+00 -2.828016851766947504e+00 2.977626199188918932e+01
-9.763600000000000279e+00 -2.631800000000000139e+00 2.921460000000000079e+01
-9.200335400833303368e+00 -4.260177249676604383e+00 2.891016964913502818e+01
-9.740266585451195169e+00 -2.169863186302847691e+00 2.972047019712708860e+01
-9.513283489474488874e+00 -2.361699120303521138e+00 3.038513913243267694e+01
-9.362916691780158729e+00 -3.024530662357033606e+00 3.033877401517278116e+01
-9.263694247729391762e+00 -3.539657090804696260e+00 2.994644705657419692e+01
-8.900813710483921781e+00 -4.816111509530245804e+00 2.890209984381472452e+01
-9.115231597841480848e+00 -4.501090782890213582e+00 2.831116896981728459e+01
-8.985899840021115637e+00 -4.575300168878840168e+00 2.950060005740911251e+01
-9.716933235363660160e+00 -1.707931393813726384e+00 3.022633545731583737e+01
-8.980051552058098352e+00 -4.285801826875842657e+00 2.999086989242885792e+01
-8.502135057790470185e+00 -5.085978050614782475e+00 2.967420001214944492e+01
-9.317300789284306717e+00 -2.733329948210089899e+00 3.077190194298856341e+01
-9.153485804116616720e+00 -3.501705928199351003e+00 3.048994595526592377e+01
-9.968485303487824467e+00 -1.044426330367578259e+00 3.010631858769447078e+01
-9.693600453919346549e+00 -1.245999826225684393e+00 3.073219881612935467e+01
-8.516418351650790086e+00 -5.259814307987265458e+00 2.888205507392849825e+01
-8.738075416870703549e+00 -4.724482365378614546e+00 3.001155709551244755e+01
-8.974202510360157703e+00 -3.996274262827778756e+00 3.048118955886819492e+01
-9.162636613614761671e+00 -3.220835858371288829e+00 3.090068791176083352e+01
-9.328156088627578058e+00 -2.331185021782973266e+00 3.109709402397916023e+01
-9.510978845954420891e+00 -1.788293154743471280e+00 3.091454638551945422e+01
-9.855239245660404990e+00 -6.795388382768232649e-01 3.062360772078139703e+01
-8.132024471666825960e+00 -5.703515777777577789e+00 2.886200880494440568e+01
-8.259700652373766161e+00 -5.451589695537573554e+00 2.930422792691759426e+01
-8.490204445896983643e+00 -4.873692654735830132e+00 3.052260983205434641e+01
-8.242379862767686305e+00 -5.022875020114444311e+00 3.103356692756679536e+01
-8.574171633227484435e+00 -4.383591803370021189e+00 3.106685087951724000e+01
-8.749523131649020513e+00 -4.451079070578200181e+00 3.042290704324598138e+01
-8.088608651457072085e+00 -5.335079697243674701e+00 3.052614991934430222e+01
-7.832612828270870686e+00 -5.906108983678350022e+00 2.944219391707638778e+01
-8.017706566270783597e+00 -5.597355623247946887e+00 2.984804189963149312e+01
-8.968351609635996979e+00 -3.706673790722417650e+00 3.097163387176756899e+01
-9.145276193165585710e+00 -2.874246456897158630e+00 3.127969880862962881e+01
-9.292462390165754371e+00 -1.986298850436108099e+00 3.153908183404574572e+01
-8.962500000000000355e+00 -3.416999999999999815e+00 3.146219999999999928e+01
-9.574944174466651248e+00 -8.174980333868770987e-01 3.114148708553367229e+01
-9.475258879587578065e+00 -1.443639591991319637e+00 3.135642108706480258e+01
-9.356535422652688894e+00 -1.015007018558257590e+00 3.176592614196030340e+01
-7.533500159978885335e+00 -6.108499831121160462e+00 3.002179994259088502e+01
-7.775758931542268826e+00 -6.094098937097063740e+00 2.884856198663644733e+01
-7.481232017137683599e+00 -6.310000245354977721e+00 2.934108207131196977e+01
-8.658138947351819326e+00 -3.893491274006949610e+00 3.161109101548138156e+01
-7.674986964249070454e+00 -5.584205158856600626e+00 3.137842206512203447e+01
-8.256379346950266651e+00 -4.743567186003096126e+00 3.144678511397125575e+01
-8.354039931521544560e+00 -4.369572317282617746e+00 3.175985384462758176e+01
-7.604238904828364731e+00 -5.846370917330658834e+00 3.070006197797649961e+01
-9.109776455500185222e+00 -2.528956111712946875e+00 3.172133812395531294e+01
-8.926946656272416902e+00 -3.071839915699658530e+00 3.190391890646137796e+01
-9.736653122909450175e+00 -2.504160235206136509e-01 3.103299506025734189e+01
-9.456182415810017616e+00 -3.886170627799149235e-01 3.155113818627417999e+01
-9.617932769806042614e+00 1.784500440511544994e-01 3.144255588714556993e+01
-9.256768260316297514e+00 -1.641414508439214881e+00 3.198106958029119440e+01
-6.983050041238428207e+00 -6.585312060612796614e+00 3.010390892447567168e+01
-7.215246147493594719e+00 -6.267357158282537810e+00 3.049781204578894744e+01
-7.994137825556312471e+00 -5.172308679317968227e+00 3.154538471705315672e+01
-9.074106971323042004e+00 -2.183999992966880299e+00 3.216329999219613711e+01
-8.772513300502239986e+00 -3.597225322915036827e+00 3.199127435700210853e+01
-9.337528784063831466e+00 3.987520600237859369e-02 3.196041701163411020e+01
-9.499401003568657131e+00 6.073608079517009983e-01 3.185174949200756345e+01
-7.055303420269201098e+00 -6.717845466930260301e+00 2.923319210594687689e+01
-8.505727004993893559e+00 -4.023748002942755697e+00 3.208882900079083811e+01
-8.050106508930005234e+00 -4.845394116701014831e+00 3.190853566687339793e+01
-9.138103867286785587e+00 -1.212772994172695240e+00 3.239039995542437111e+01
-9.038436866547414184e+00 -1.839045295997101093e+00 3.260526285960273896e+01
-8.891397550400355954e+00 -2.726726218900785703e+00 3.234558043395000482e+01
-9.237811039241869082e+00 -5.863740017230709700e-01 3.217543401318053498e+01
-9.218700000000000117e+00 4.689999999999998614e-01 3.237030000000000030e+01
-6.684795234151049925e+00 -6.950731260148045543e+00 2.967654405902781534e+01
-7.003208515226536868e+00 -6.919078196431229344e+00 2.855296661244939926e+01
-6.629374509068202137e+00 -7.125690430655571284e+00 2.912530452387268909e+01
-6.577090325072163068e+00 -7.319870348915648250e+00 2.853764308636993263e+01
-6.200486052048957752e+00 -7.589693055866659321e+00 2.886505101382913097e+01
-6.256028686150432172e+00 -7.332032651304781545e+00 2.969689592088075614e+01
-8.754036619468507752e+00 -3.272314153814188664e+00 3.235247017005088566e+01
-8.582331265660792852e+00 -3.777635817663388629e+00 3.252089279841584357e+01
-7.745800000000000018e+00 -5.321799999999999642e+00 3.205740000000000123e+01
-6.432955881182891744e+00 -7.061815868983391198e+00 3.018596496428435572e+01
-6.897000282544111016e+00 -6.426210350585440878e+00 3.097381207190520414e+01
-7.095757761994631707e+00 -6.071732744584884323e+00 3.155893492611194162e+01
-8.855848033777995454e+00 -2.381613008387085451e+00 3.278724300927243007e+01
-9.119008393967259707e+00 -1.579511016943586643e-01 3.258514742203742998e+01
-9.019439200237734156e+00 -7.841323639667565626e-01 3.279973103081295704e+01
-9.394980556467491084e+00 1.062979077963723373e+00 3.222249978432144246e+01
-5.894550554877108439e+00 -7.940519327018253470e+00 2.859924483467018774e+01
-5.890695973453807355e+00 -7.806230971506689542e+00 2.915624799294682035e+01
-5.886845829907668026e+00 -7.672162743520796191e+00 2.971234493698823798e+01
-8.221278931342986596e+00 -4.401576959542424561e+00 3.247910298912735527e+01
-7.294517283317094147e+00 -5.717254304041328616e+00 3.214405408795494878e+01
-6.452551783105018757e+00 -6.850066760835409774e+00 3.089753893480279245e+01
-6.578523447140292468e+00 -6.585179493050250521e+00 3.145015513440743504e+01
-8.919869284467342396e+00 -1.410312973112888724e+00 3.301431674644472736e+01
-8.600404942368458094e+00 -3.192143737389820046e+00 3.298464170966855846e+01
-8.881125003636009652e+00 -3.615970377129862356e-01 3.323485935564721672e+01
-8.980748025701377202e+00 2.649629987384857777e-01 3.302016400901465687e+01
-9.096187307334595573e+00 9.084261217560669621e-01 3.278108566317446559e+01
-5.883000000000000007e+00 -7.538199999999999790e+00 3.026800000000000068e+01
-5.542299361562626814e+00 -8.084091545193855310e+00 2.896571513394312092e+01
-5.292399632748309379e+00 -8.108709446227706508e+00 2.954008486394933186e+01
-7.812498272289451151e+00 -5.070950521827834123e+00 3.256964473038185304e+01
-5.902262871556219537e+00 -7.326676858368304401e+00 3.097985296139064104e+01
-5.921520781676315792e+00 -7.115204496021503289e+00 3.169153615329772933e+01
-6.654250711823983089e+00 -6.389717690744324941e+00 3.188189491053661229e+01
-8.820299892996093405e+00 -2.036500302290010556e+00 3.322890011637139196e+01
-8.781380738593714597e+00 -9.880400277536618425e-01 3.344990926172715717e+01
-9.272597712073221032e+00 1.502595874832445499e+00 3.263308734626306773e+01
-8.973746061595212709e+00 1.347596637614751014e+00 3.319163200250121548e+01
-5.262817284223430647e+00 -7.950500427299123096e+00 3.026390297684942610e+01
-5.471383230986237578e+00 -7.684262077537255209e+00 3.068609420031982182e+01
-5.522538331302305536e+00 -8.215030072137944117e+00 2.848609340976962301e+01
-5.147372186870272870e+00 -8.355200281323810430e+00 2.892826706937134773e+01
-8.392451555048149103e+00 -3.957760327073676088e+00 3.304966708789842755e+01
-7.439808809201662321e+00 -5.489175827961005893e+00 3.255546194059485288e+01
-7.879200622088132988e+00 -4.820085708309975736e+00 3.308192077615681370e+01
-6.259415291405876047e+00 -6.744462418115356961e+00 3.192744738670994309e+01
-6.843136845345110686e+00 -6.112792970480686705e+00 3.223073132930935714e+01
-5.235591329816872808e+00 -7.537604516061630733e+00 3.174863814441989618e+01
-8.618478745530548935e+00 -2.606652540951031494e+00 3.344838936082283709e+01
-8.858255121698293877e+00 7.043349449430889031e-01 3.343088539343104770e+01
-8.742809684913481760e+00 6.093767238244396367e-02 3.366999078176731786e+01
-4.772368775687485964e+00 -8.495309697578560915e+00 2.937024890554845769e+01
-4.641737246610166956e+00 -8.363397372072205016e+00 3.025980011280529780e+01
-4.850369816195239103e+00 -8.658482752191712706e+00 2.866254592260510492e+01
-8.129036051963847598e+00 -4.378439030620778993e+00 3.314768200822908994e+01
-8.375394762450707020e+00 -3.623231941016450186e+00 3.341439093479012001e+01
-7.045000009803294994e+00 -5.842698010651923290e+00 3.259833100244316739e+01
-7.522227218308731977e+00 -5.250167196844558681e+00 3.298292506797051971e+01
-7.134188029559749289e+00 -5.656349026653426648e+00 3.305292100920343756e+01
-5.059505944332753913e+00 -7.830416916012243433e+00 3.110445197453648802e+01
-5.940800341360670700e+00 -6.903499081330952691e+00 3.240400263557037164e+01
-8.416473949501259710e+00 -3.177323593626644183e+00 3.366807833104636671e+01
-8.681845293133692465e+00 -1.614329377021644252e+00 3.366438617133504607e+01
-8.569512402487767133e+00 -2.198541935305826200e+00 3.378044074731606372e+01
-8.643009912051972776e+00 -5.656629591188755413e-01 3.388518061447608432e+01
-8.735761082529524657e+00 1.143706995949159921e+00 3.384161002894689574e+01
-4.644685754012685130e+00 -8.169983628867520054e+00 3.089130188747961014e+01
-4.242972531351891341e+00 -9.130755944616753439e+00 2.859289405908377901e+01
-4.169023639698407280e+00 -9.012517514236080274e+00 2.914709884828737074e+01
-6.391762531489121102e+00 -6.508326905231943016e+00 3.231740520032458619e+01
-6.610342341586351367e+00 -6.165827284590388757e+00 3.293360483591098387e+01
-5.411675340380929455e+00 -7.244792529776500345e+00 3.239282606307697421e+01
-8.401844319060643329e+00 -2.713631862619987345e+00 3.394165373073651182e+01
-8.620293590302626541e+00 5.003780201093932511e-01 3.408078785630033281e+01
-8.504641173856800407e+00 -1.432860065329055743e-01 3.432044606160767586e+01
-8.543321454053071307e+00 -1.191947958826237830e+00 3.410008978651153910e+01
-3.955410468379162658e+00 -8.606874464781276046e+00 3.095714415592686564e+01
-4.396910862497311001e+00 -8.635588792662138857e+00 2.981276694906127744e+01
-7.945875633390269144e+00 -4.569322669435437412e+00 3.359398988585589763e+01
-8.202695231909727269e+00 -4.137766578278939456e+00 3.357810188629056114e+01
-7.349115208190585058e+00 -5.217102286041501280e+00 3.363468575346980316e+01
-8.214593871416147053e+00 -3.747642313477044240e+00 3.388763166510054248e+01
-8.141558661259219676e+00 -3.134944729908069050e+00 3.438493247062243086e+01
-6.010091954742640574e+00 -6.717021651378032310e+00 3.293898788434415081e+01
-4.647634693265943362e+00 -7.976568980086407024e+00 3.152280570497495304e+01
-8.497776289062327848e+00 9.398176778039362134e-01 3.449158827445137376e+01
-8.404855877349518778e+00 -7.697441919695284795e-01 3.453561014710538046e+01
-4.021099999999999675e+00 -8.775999999999999801e+00 3.025570000000000093e+01
-4.094994934877846049e+00 -8.894152871517434278e+00 2.970189696389911305e+01
-3.452574013137717390e+00 -9.254343025920020338e+00 2.957884400728297791e+01
-5.516424837208613319e+00 -7.055320734970988994e+00 3.280862392870485422e+01
-6.828922825060546486e+00 -5.823327853840097212e+00 3.354980094164120175e+01
-4.882646951896779441e+00 -7.586022963374747796e+00 3.238165415918636825e+01
-4.696149565878237730e+00 -7.817042320733403216e+00 3.198205380990717828e+01
-8.318960312240564647e+00 -2.360433062994762299e+00 3.433146312346912055e+01
-8.431140414960356821e+00 -1.776189936656265012e+00 3.421577775259063969e+01
-8.266399936973705564e+00 -3.475702251725683034e-01 3.497110009138542353e+01
-8.382017035019574180e+00 2.957281825044732471e-01 3.473149150688376352e+01
-4.286727560530704473e+00 -8.275739336952277370e+00 3.132503479897639309e+01
-4.236124607451165147e+00 -8.122593201124960416e+00 3.194079154326940184e+01
-3.366549001999035617e+00 -9.116320003943990002e+00 3.022524600110817516e+01
-3.412737865182130736e+00 -9.468235767203028175e+00 2.888946291669274302e+01
-8.012699884590768207e+00 -4.318000118290122202e+00 3.410720002810153773e+01
-6.079379234428764711e+00 -6.530556254722228005e+00 3.347393805842403935e+01
-5.591128433108696782e+00 -6.859545705113287539e+00 3.336581418968170709e+01
-6.439581751880942839e+00 -6.171348816967958228e+00 3.359471518738281759e+01
-5.055833644927176351e+00 -7.361138444146819282e+00 3.276927883615881143e+01
-8.068524974762562252e+00 -2.522247994908328295e+00 3.488222899002037991e+01
-7.901163984566274223e+00 -3.949707996886234973e+00 3.457716799389704931e+01
-8.230053240682780213e+00 -1.394287917786787068e+00 3.478905867888981618e+01
-8.613368271615463811e+00 1.582976467301807633e+00 3.425203170087908688e+01
-6.916214336973718346e+00 -5.577036303842370479e+00 3.398270410491691251e+01
-4.353559823576418353e+00 -7.927290723815504592e+00 3.237048291859289861e+01
-3.526986916492404589e+00 -8.899807825317301635e+00 3.064888795006176991e+01
-3.889749960288233055e+00 -8.437824916930207308e+00 3.165827397625203332e+01
-2.960500062357509066e+00 -9.578003674803410306e+00 2.931458915030041723e+01
-7.564043697299077884e+00 -4.777855835971664966e+00 3.421644544730612125e+01
-5.091649395773321096e+00 -7.207285258797635485e+00 3.321362731798858903e+01
-5.731556055158669949e+00 -6.640554089799884707e+00 3.385923802415695860e+01
-7.901483772387143389e+00 -3.029363155829671417e+00 3.504592530542463891e+01
-7.672982560695653653e+00 -4.482365203476088134e+00 3.460609932514981324e+01
-7.789723422129003261e+00 -3.581732040267563200e+00 3.504673334808556007e+01
-8.081692719000770353e+00 -2.063633969575496607e+00 3.496850988116730008e+01
-8.091649265181331430e+00 -9.718978576114567502e-01 3.522448106974493953e+01
-8.170786165808642920e+00 7.425539868333765892e-01 3.520976652718195510e+01
-8.080349031608555777e+00 1.140277483371383571e-01 3.539406119720783295e+01
-7.115265497158637764e+00 -5.237837448277865349e+00 3.432571815479055743e+01
-4.510223284815986666e+00 -7.643268445868738326e+00 3.299454913142258761e+01
-3.824099951472912817e+00 -8.268800024039414609e+00 3.235929999705857085e+01
-2.711639058352363296e+00 -9.456826115537907640e+00 3.019477703694969506e+01
-3.032373048609446897e+00 -9.023742096246897049e+00 3.104247103078031600e+01
-6.523603455391651096e+00 -5.990336494812897428e+00 3.404676811349212784e+01
-6.148693122088348062e+00 -6.344018198763306415e+00 3.400909805346908854e+01
-8.220944684713625605e+00 1.346691980972872793e+00 3.511393476183224749e+01
-8.245896564722990263e+00 1.935549998986525022e+00 3.507346325683703725e+01
-8.487522338784691200e+00 2.080749999392003335e+00 3.454275915407988862e+01
-6.666711677476353515e+00 -5.697587406966205137e+00 3.443494106922763365e+01
-3.822099473756462196e+00 -8.066780191506746078e+00 3.304901476456370091e+01
-3.144122050855544082e+00 -8.787016106380548308e+00 3.168366403041203583e+01
-2.561901813780266934e+00 -9.357102631284197614e+00 3.074307288208253652e+01
-7.282135147998946678e+00 -4.896502130681392728e+00 3.467063105772376730e+01
-7.596358240753414037e+00 -4.137347095947411901e+00 3.499567413232673374e+01
-5.292832304542409716e+00 -6.892778495803712602e+00 3.392338913337557926e+01
-7.817610984718927014e+00 -2.684371670449702929e+00 3.543404779607374167e+01
-7.916785788646893529e+00 -1.596628504910422075e+00 3.547802561014181322e+01
-7.987926238694038616e+00 -5.013600104242517119e-01 3.552850711637253767e+01
-4.666885243206714939e+00 -7.359245449808649475e+00 3.361862103748713082e+01
-6.830426214351392744e+00 -5.254197306281181312e+00 3.501898569357485513e+01
-7.333628295816844833e+00 -4.646554692574742518e+00 3.510446530271468646e+01
-6.218000037898184118e+00 -6.157499603004827904e+00 3.454420080159336948e+01
-6.242296153536210035e+00 -5.902990292895378133e+00 3.505809364254211857e+01
-5.617720900026381692e+00 -6.534040837240102206e+00 3.451510995621615052e+01
-4.842422066128062141e+00 -7.134751107658367175e+00 3.405233402896105588e+01
-7.678351039063120886e+00 -3.213983015567818846e+00 3.551601002147049968e+01
-7.741894044101854000e+00 -2.221460144668822689e+00 3.573161113794153465e+01
-3.820099760761908936e+00 -7.864842507606775612e+00 3.373844914798584682e+01
-3.399151243994803284e+00 -8.160429530811306620e+00 3.339147615618414733e+01
-8.310080976266116082e+00 2.549690001837234821e+00 3.493476053440396356e+01
-7.949420232525363339e+00 1.183209997373862565e+00 3.571030010514861885e+01
-8.004633304240615033e+00 1.790567996563911413e+00 3.560337113757846339e+01
-7.801684633777274058e+00 -3.972902767833597082e-02 3.595186230899083313e+01
-7.894208286986122758e+00 5.758519854648000980e-01 3.581722658197875120e+01
-7.712026564730336986e+00 -1.117017962186360736e+00 3.599613979297748756e+01
-7.709162671107534059e+00 -6.553100293086238093e-01 3.608649432719077765e+01
-3.255871152700217763e+00 -8.550289983209736988e+00 3.232485734355682183e+01
-2.538254086843328761e+00 -9.147552171950131594e+00 3.143566105499065344e+01
-3.303942942636690638e+00 -8.399473875205977436e+00 3.272779096328102355e+01
-7.293954751553838101e+00 -4.032839900986799009e+00 3.562163886344505670e+01
-5.017958978142254445e+00 -6.910256964243819411e+00 3.448604598821196987e+01
-4.242578944561609333e+00 -7.511041913213279742e+00 3.402317797441907743e+01
-8.038569367811170707e+00 2.386320001134552005e+00 3.553110471247936886e+01
-7.763072111665969111e+00 1.645407278235451631e+00 3.613393339807450388e+01
-2.537994902252005858e+00 -9.018287795528976858e+00 3.188825794154589488e+01
-7.254282502701576263e+00 -3.419126200341563226e+00 3.613880927630286521e+01
-5.762200629902337390e+00 -6.309713295089691698e+00 3.492765502855818482e+01
-6.266586583865731086e+00 -5.648544515546825018e+00 3.557185722772412362e+01
-5.162404980955316525e+00 -6.686016968845592601e+00 3.489838798972906631e+01
-7.568300728751076178e+00 -1.789082976435506733e+00 3.617557087098886370e+01
-7.566999679409949664e+00 -2.846300587244755320e+00 3.598520015747789103e+01
-3.422148419462078817e+00 -8.001302737038301416e+00 3.389636162839035194e+01
-7.707839623346933067e+00 1.038233016449201518e+00 3.624090981636712172e+01
-7.646123879995708528e+00 2.150057941987298715e+00 3.639306534683311156e+01
-7.454673674324173049e+00 -1.631829857770777936e-01 3.665256484122048874e+01
-7.430181662460972447e+00 -8.093802175087274620e-01 3.664491677135843872e+01
-2.687342169797108049e+00 -8.831928648004970128e+00 3.229039649467671325e+01
-6.994142266045798806e+00 -4.810808234915425530e+00 3.560302410376537097e+01
-6.941239016809568341e+00 -3.992545354254401602e+00 3.629258171318404891e+01
-6.608694456410673546e+00 -5.217242520016784013e+00 3.567114978798480962e+01
-5.787776099566979582e+00 -6.042509137926225904e+00 3.546707506360161943e+01
-5.306849609202473950e+00 -6.461776458643540444e+00 3.531073375036546480e+01
-4.418498927258440290e+00 -7.286284080547165587e+00 3.445699554366438377e+01
-7.393469633451037915e+00 -2.414073902621995060e+00 3.642899978791562177e+01
-2.783629443647206436e+00 -8.530186789653109614e+00 3.309639364387155069e+01
-4.634714986589295371e+00 -6.950156978061984070e+00 3.507564199276751538e+01
-3.818099860217096797e+00 -7.662900067826237560e+00 3.442789998785644201e+01
-2.924709696934021608e+00 -8.275240340679207662e+00 3.374246180600364653e+01
-8.072506561506452627e+00 2.982072000786938126e+00 3.545883580057233786e+01
-7.596767699503055304e+00 4.687670131233094839e-01 3.641772085349616361e+01
-7.324999472857345317e+00 -1.395459127953085465e+00 3.675901470051889675e+01
-2.118643982023082017e+00 -9.113651133740479082e+00 3.225592538960270161e+01
-6.918680092680467020e+00 -4.457118638406119437e+00 3.599677250130456230e+01
-5.813351754193985421e+00 -5.775302659494585100e+00 3.600649984298348016e+01
-4.850932040157247549e+00 -6.614030065691574478e+00 3.569428602165707787e+01
-7.188604009662966199e+00 -3.001567003009471435e+00 3.646053300670930497e+01
-3.858863185592568801e+00 -7.414654532875344373e+00 3.510530881764789513e+01
-7.770744984268144862e+00 2.800312933562877582e+00 3.612161983362459949e+01
-7.391915674200795650e+00 9.771052978122414245e-01 3.688343213066224990e+01
-7.521600184471078698e+00 1.500299542322002910e+00 3.666429958063046257e+01
-7.250154539320440961e+00 -4.912079798811914699e-01 3.704267477540096820e+01
-3.168775895232061046e+00 -7.977968772077089099e+00 3.437148993293672561e+01
-2.263281119257287699e+00 -8.660910250468424110e+00 3.346501507952120136e+01
-2.190961913487301960e+00 -8.887279818302936008e+00 3.286047394231301411e+01
-1.441310575018280860e+00 -9.237529874363811899e+00 3.288153506532527359e+01
-6.290872924233587682e+00 -5.394133627009885856e+00 3.608555231411350661e+01
-6.655060981360248817e+00 -4.974865346691504264e+00 3.610098987308808915e+01
-6.927334872395800147e+00 -3.520240682231654539e+00 3.656729626769861596e+01
-5.335830437984762753e+00 -6.156474606723086218e+00 3.592744127977690027e+01
-4.436335438157780864e+00 -6.910369080905626404e+00 3.556417069699459432e+01
-7.219815387614696434e+00 -1.981539249099064648e+00 3.687311639416431319e+01
-7.014922915788261548e+00 -2.569223285216590824e+00 3.690460263586133038e+01
-7.262231516272550813e+00 4.539112728782379591e-01 3.710256397766708147e+01
-7.281435518853920819e+00 1.983377026875001725e+00 3.703321130258651550e+01
-7.151629957720802899e+00 -9.632132747124990679e-01 3.720247990308396879e+01
-7.132534580421286741e+00 -6.933430293970599401e-02 3.732171741597432657e+01
-3.279604064900428106e+00 -7.792333444618874339e+00 3.478237682051238977e+01
-2.519847454911372520e+00 -8.292844806403657287e+00 3.431511660776920536e+01
-1.550699999999999967e+00 -9.394999999999999574e+00 3.222149999999999892e+01
-1.783444065546411439e+00 -8.948400137662918752e+00 3.327911404370659199e+01
-6.628214472697520954e+00 -4.565931901345730459e+00 3.644634333019515537e+01
-7.895453761790917291e+00 3.451029000427499938e+00 3.584998289166207996e+01
-7.375489132932727010e+00 2.619746006885497636e+00 3.681541407752403927e+01
-7.233577453694093329e+00 1.348385047562616013e+00 3.720712325404144849e+01
-7.135654829772644980e+00 8.766469759034896114e-01 3.736832443353450373e+01
-7.046345233616234438e+00 -1.549463127983047528e+00 3.731676218991318450e+01
-2.708927258146174299e+00 -8.077546565270148804e+00 3.470752318575489426e+01
-1.871137885760080444e+00 -8.607614749845541979e+00 3.425876191779609314e+01
-2.128629981424122075e+00 -8.291488959323864094e+00 3.486292298663330769e+01
-3.303982245397430795e+00 -7.566251529737169079e+00 3.541674417936239649e+01
-3.899648283738677002e+00 -7.166278464156327743e+00 3.578307315302223657e+01
-3.266658085293768110e+00 -7.404186184122867331e+00 3.594646106234170446e+01
-2.777882962869174577e+00 -7.698315919846029587e+00 3.574648997286086427e+01
-2.741238742601844081e+00 -7.921735444356977851e+00 3.513676781186619991e+01
-6.529736245116023241e+00 -3.939130089311197125e+00 3.692911916595489430e+01
-5.364810274396326406e+00 -5.851172380110451599e+00 3.654415117527950940e+01
-4.889888858592266629e+00 -6.206902938494220479e+00 3.651619461951793255e+01
-6.810030294295227549e+00 -3.156907024362382685e+00 3.693608922632020608e+01
-4.395505120033935675e+00 -6.766119196358534538e+00 3.607742706473513294e+01
-5.839783846094057651e+00 -5.495401786800146127e+00 3.657211290168761764e+01
-7.420873663783975616e+00 3.233977034381922522e+00 3.668303738710718420e+01
-7.041144860634464209e+00 2.466705190909300960e+00 3.740231665928326521e+01
-6.926329924459222909e+00 5.496160312335913734e-01 3.775078943805807796e+01
-7.002659330190211584e+00 -5.932990095886890858e-01 3.754117217251575056e+01
-1.331889320783446351e+00 -9.080014819549464988e+00 3.354175924869114311e+01
-1.742599203107043193e+00 -8.791715371045560445e+00 3.383387974353438210e+01
-1.222399999999999931e+00 -8.922399999999999665e+00 3.420239999999999725e+01
-9.659501861606476503e-01 -9.515239593175261135e+00 3.257951744068759581e+01
-6.315199805535653965e+00 -5.139299540654490350e+00 3.660010053442849909e+01
-6.746384433135848013e+00 -2.176047134897481250e+00 3.746772030074019000e+01
-6.482101223832824388e+00 -2.849090069711349038e+00 3.754645515541434975e+01
-6.945269492499893005e+00 1.196319555559021142e+00 3.775048441680011990e+01
-6.872799910479784558e+00 -1.117200187049033566e+00 3.776060004502880219e+01
-9.315669365077186015e-01 -9.361011837787559742e+00 3.313211795077685906e+01
-2.202852607880380731e+00 -8.051142547894141188e+00 3.549117220426208519e+01
-1.608626805370395818e+00 -8.553200573813921181e+00 3.478916485994988506e+01
-3.377234357603941639e+00 -7.196611771956327175e+00 3.640823426137478691e+01
-2.814526226579657120e+00 -7.474896489115415044e+00 3.635621316560837357e+01
-4.415172576818474859e+00 -6.562479408133517822e+00 3.648825065779247723e+01
-6.431257420743926367e+00 -3.312328788940548829e+00 3.741189560781683099e+01
-6.154723987898368165e+00 -4.760236359953562868e+00 3.704112266885292115e+01
-5.823596703883603176e+00 -5.288983630877096331e+00 3.694914174123398709e+01
-6.052267497994657575e+00 -3.467840181450801307e+00 3.788797433716543139e+01
-6.170664651518443122e+00 -3.822038873026232686e+00 3.752248376406186026e+01
-5.994361821734696782e+00 -4.381446029526022024e+00 3.748183010100395762e+01
-5.973294190905145129e+00 -2.996682664809583674e+00 3.821305277190839433e+01
-6.272953328240340909e+00 -2.370554789810195295e+00 3.806232453762329726e+01
-6.572611534599050565e+00 -1.744434166497568217e+00 3.791159437118937348e+01
-7.435800052721130982e+00 3.834445291817746515e+00 3.660411053614281229e+01
-7.092611120135018155e+00 3.084048006222616323e+00 3.725923507006063318e+01
-6.993206961787811871e+00 1.831511997105034650e+00 3.757640097891438558e+01
-6.784716623707323535e+00 -8.251701811239509077e-02 3.798669832587076201e+01
-5.737169613742574281e-01 -9.190850901317517696e+00 3.415446097005493442e+01
-1.597520432022056402e+00 -8.421685946011198354e+00 3.520481131087119309e+01
-1.190237150716319192e+00 -8.718290892214238141e+00 3.486822097423843303e+01
-3.940399999999999903e+00 -6.918099999999999916e+00 3.646029999999999660e+01
-4.475713194851592469e+00 -6.280545272521647959e+00 3.690100515756756039e+01
-5.111029731150713573e+00 -5.822759022595683120e+00 3.690712459124810607e+01
-5.663265174411582059e+00 -4.910029330632302624e+00 3.738994512426347683e+01
-5.833939751284260566e+00 -4.002512798347121148e+00 3.792270273617670284e+01
-7.144077344215334691e+00 3.701389966032415657e+00 3.711615361755787035e+01
-6.728570627419870220e+00 2.363674971773231270e+00 3.798292179440905869e+01
-6.657042231238498253e+00 1.044296628023420048e+00 3.829369348799273354e+01
-6.674644747141334378e+00 -6.525150216969057837e-01 3.816569139036180758e+01
-4.775941696157870453e-01 -9.413137433340715177e+00 3.354591413149663737e+01
-3.814716543754494982e-01 -9.635423116985558423e+00 3.293736973205049878e+01
-7.145348559475372952e-01 -9.023959625994901756e+00 3.449164587838925655e+01
-2.252015668893684097e+00 -7.753083276375472010e+00 3.630421071055243942e+01
-5.332169321855273481e+00 -5.438613699339879481e+00 3.729805858224844428e+01
-5.486782669065846996e+00 -4.493191731686360768e+00 3.787493064896415973e+01
-5.673399995883174007e+00 -3.623300005134297397e+00 3.836389999995668632e+01
-5.820745848708191339e+00 -2.579847265556001634e+00 3.862416858417156362e+01
-5.520905702657187497e+00 -3.206046219857467072e+00 3.877512748364367923e+01
-7.178346028687731639e+00 4.278049000170151217e+00 3.705017901638827027e+01
-6.800458539290658244e+00 2.950829965096538832e+00 3.777202974577906502e+01
-6.566867855676641774e+00 4.279900332310302424e-01 3.843202940212097474e+01
-6.628573435905593669e+00 1.712777033024322382e+00 3.825350624053415061e+01
-6.510646588775492738e+00 -1.284795783572806993e+00 3.821056455448664479e+01
-1.158044150797420624e+00 -8.513992391517112068e+00 3.553466012730491741e+01
-6.251086508039391809e-01 -8.892582093378168295e+00 3.500161670520467538e+01
-2.074501573397311560e-01 -9.125363293546865151e+00 3.478044692901732304e+01
-3.379020563825579693e+00 -7.041691069629080424e+00 3.679349592412461334e+01
-2.254133179864033831e+00 -7.520980393088323446e+00 3.688205015723410440e+01
-4.415972953906175391e+00 -6.046013935532652539e+00 3.738051596272603661e+01
-3.912889679425735512e+00 -6.574437551641197253e+00 3.708870274076627283e+01
-5.071883650569269264e+00 -5.038702527466282888e+00 3.784911069008632012e+01
-6.029848796182221804e+00 -1.995257249120922394e+00 3.858612154801758720e+01
-6.148387414884963320e+00 -1.452440511533090284e+00 3.866066051585618624e+01
-5.209630133033333443e+00 -3.790431668710940727e+00 3.868473436487906980e+01
-5.310258154010403686e+00 -4.076193935644529809e+00 3.836007822410759616e+01
-6.852126196914193557e+00 3.568230061996392699e+00 3.762859769801939080e+01
-6.435459317814700597e+00 1.378627948317462604e+00 3.864935262356789991e+01
-6.476695073124366431e+00 -1.883170151913882151e-01 3.857036205319580802e+01
7.449083808256107275e-02 -9.459105413672688201e+00 3.410655612552839955e+01
-1.664170606913483175e+00 -8.180620715498955420e+00 3.584577150673349877e+01
-2.736942578739447463e-01 -8.880480669521148229e+00 3.545509721770014977e+01
-2.817317017678461877e+00 -7.165353494023978698e+00 3.712688421746496914e+01
-4.840804952577582476e+00 -5.588224581647113887e+00 3.764693068377401630e+01
-5.786748718717720230e+00 -1.619798224882717630e+00 3.910998549469825747e+01
-5.368537060802130334e+00 -2.789138214570577201e+00 3.918601522560868489e+01
-5.042116084168419832e+00 -3.331442058905691894e+00 3.913687909098081263e+01
-6.292811412322673270e+00 -7.739360856589108106e-01 3.865589529995249052e+01
-6.703690906192996124e+00 4.061163991927395855e+00 3.788331592819388760e+01
-6.559799778013883476e+00 3.434900370654836887e+00 3.814170024833125439e+01
-6.369067652614618602e+00 8.924069757169710293e-01 3.883642633948208811e+01
-1.688803981327405612e+00 -8.031618031050056672e+00 3.625214036807297191e+01
-5.366400466894458710e-01 -8.554128835240387474e+00 3.614729971715094337e+01
-3.339832026277659516e+00 -6.727411046984826726e+00 3.738190502684556549e+01
-1.772115004609310818e+00 -7.818142010073533044e+00 3.669053300402938333e+01
-4.349707274343918684e+00 -5.737754383700517380e+00 3.799561322184936074e+01
-4.947081113488088988e+00 -4.529129092013477020e+00 3.835625812038161087e+01
-5.864481035216075888e+00 -9.534892150633169638e-01 3.919341375308894015e+01
-5.577643006458457009e+00 -2.204469314915169509e+00 3.914799969275213698e+01
-4.889669423498890666e+00 -2.914321596532799319e+00 3.954797637683827816e+01
-6.463916962567794577e+00 2.895626997164126415e+00 3.838950297934478328e+01
-6.368098963646898980e+00 2.356718997245879077e+00 3.863713797994024191e+01
-6.272364560291875613e+00 1.818291812959235809e+00 3.888455503588892270e+01
-1.125900000000000123e+00 -8.310000000000000497e+00 3.620009999999999906e+01
2.996370269336436909e-01 -9.226767930810959584e+00 3.506924797700280294e+01
-3.885398508422333919e+00 -6.231003711085244312e+00 3.771668641113786435e+01
-2.256249419952128576e+00 -7.288875910537417901e+00 3.745989505590030433e+01
-4.649129871743719278e+00 -5.329721706789331215e+00 3.802521592469540224e+01
-6.278784689649379303e+00 2.757892722217683001e-01 3.897495204675885105e+01
-4.583949146037037181e+00 -4.982008137451357399e+00 3.835243841293820566e+01
-4.746247548623871104e+00 -3.957422684102146704e+00 3.900530151209056839e+01
-4.444661861240152945e+00 -4.584977077079749996e+00 3.880299683468436456e+01
-6.176583722838740798e+00 1.279588963992386530e+00 3.913209481439693604e+01
-5.389154875399655431e-01 -8.408340651755356276e+00 3.657542615564213406e+01
5.340382323469250458e-02 -8.798582458937842077e+00 3.609442914922730239e+01
2.614458952524727486e-01 -9.040723271957233464e+00 3.559617608842906833e+01
7.649470912632980735e-01 -9.527862765556411873e+00 3.470833592207514329e+01
-3.251500928967628212e+00 -6.495939872993120368e+00 3.787348592743249753e+01
-2.792866799438328940e+00 -6.856038641392910193e+00 3.769217679510384755e+01
-1.692308485485522151e+00 -7.670456061016402316e+00 3.715104342440326235e+01
-1.128366859923873866e+00 -8.052035693867146904e+00 3.684219387754781394e+01
-4.220885202791047064e+00 -5.434803169286979596e+00 3.834861879227392478e+01
-6.094884459814971400e+00 -3.097843032725799972e-01 3.906052106197201113e+01
-6.080700000000000216e+00 7.403100000000000236e-01 3.937989999999999924e+01
-4.167720413221658760e+00 -5.050369334899968976e+00 3.870504042285795521e+01
-5.584797990240869758e+00 -1.303041997972567367e+00 3.947804999290053019e+01
-5.425249786688707943e+00 -1.787092559044810347e+00 3.955913622978987831e+01
-5.216013299820922100e+00 -2.371804406706628843e+00 3.959732189467550967e+01
-4.505927706529124777e+00 -3.504496494467960410e+00 3.952087476371389130e+01
-3.313071013764770534e+00 -6.217164929423548259e+00 3.830112729553190576e+01
-3.857899999999999885e+00 -5.887500000000000178e+00 3.834479999999999933e+01
-5.876947106843331881e+00 2.005179778035888205e-01 3.950583307772535591e+01
-4.283093561335528321e+00 -4.124333490238078603e+00 3.932570911052648199e+01
-4.721828017143089085e+00 -2.455562011997676652e+00 4.000027501853060841e+01
-4.380407727161515830e+00 -2.956255508907642771e+00 3.999195578601622003e+01
-6.241162178922141202e+00 3.296627879234341307e+00 3.864434744628191254e+01
-6.177582040729375557e+00 2.809908005291387845e+00 3.883371702727472297e+01
-5.972892286068471890e+00 2.475178037164800671e+00 3.920431919156784772e+01
-5.870830230112635384e+00 1.830333899979503354e+00 3.948183048443929266e+01
-1.130833740649356489e+00 -7.794024069116625597e+00 3.748440602876423355e+01
8.067231726977884820e-01 -9.328171556361759542e+00 3.535805085254257563e+01
-2.768417016468884384e+00 -6.546723976601849238e+00 3.825746861792439546e+01
-1.694390335426732896e+00 -7.412572577644644056e+00 3.779337566604164778e+01
-2.223237874609706566e+00 -6.876600773278614298e+00 3.821376785286408762e+01
-5.802775636400562043e+00 1.241151145441954595e+00 3.969775990294229473e+01
-3.690739901605044615e+00 -5.411436834164546461e+00 3.888518882346810557e+01
-3.986916558376215836e+00 -4.767884642081220647e+00 3.910544954807757989e+01
-5.470164934937220558e+00 -8.771457596164271564e-01 3.975725292509336128e+01
-5.063499116587077964e+00 -1.954499546383887232e+00 4.000860088246688662e+01
-5.673570812262673790e+00 -3.382741588737958605e-01 3.963153401526785302e+01
-5.990312416719008048e-01 -8.139871570811605395e+00 3.718277422839782531e+01
4.785908720004927730e-02 -8.506645794039771502e+00 3.695061891758950878e+01
6.433081321632270200e-01 -9.042977655795867875e+00 3.604157288349197330e+01
-3.287724584543321171e+00 -6.009607620266098849e+00 3.864255227508894563e+01
-5.628987594847622233e+00 5.256071592631959000e-01 3.987956260619768045e+01
-5.266822650114529658e+00 -1.415848888364986236e+00 3.988293253035095631e+01
-4.102837757387520767e+00 -3.838945530061463884e+00 3.967724281868864722e+01
-4.038937172472504500e+00 -3.457018420088486366e+00 3.998363805961556494e+01
-4.502565112813029735e+00 -2.192657969171097676e+00 4.035535020367085934e+01
-5.323910803033130357e+00 -2.829999635391036161e-01 4.006803483760217688e+01
-5.069655118372636160e+00 -9.567032070239960273e-01 4.022515592209052215e+01
-5.923271109383646760e+00 3.158679016088350000e+00 3.914581707376608932e+01
6.391322740758311749e-01 -8.823991286200591588e+00 3.668379575838942230e+01
-6.844852197849227160e-01 -7.902382519116143200e+00 3.768588620771301834e+01
-6.685886211468572426e-02 -8.183073674324829128e+00 3.763790486968818527e+01
-1.133299999999999752e+00 -7.536100000000000243e+00 3.812639999999999674e+01
-3.819872194649360342e+00 -4.291267492447382814e+00 3.964616402483822100e+01
-3.523409455288774250e+00 -4.934888368993718188e+00 3.942612846590606779e+01
-4.866396017137866181e+00 -1.495552859988378280e+00 4.035070173974892072e+01
-4.160802137898773623e+00 -2.693626395860041711e+00 4.034716302032671820e+01
-4.923411562258002583e+00 -3.625821040806029849e-01 4.053591946357784792e+01
-5.524409227159789104e+00 1.742788891234007043e+00 4.001612536999861902e+01
-1.678226625530472527e+00 -7.206375322912100145e+00 3.817008156058866319e+01
-2.173738723100150594e+00 -6.561796307455817434e+00 3.874103284850269802e+01
-3.118917792650806931e+00 -5.572961985761597958e+00 3.914922111361365609e+01
-5.365528809625525142e+00 1.086379017614154563e+00 4.018229593142872602e+01
-3.697555622613267978e+00 -3.957655749407660295e+00 3.997531940605640699e+01
-3.356099999999999639e+00 -4.458400000000000141e+00 3.996699999999999875e+01
-2.927427933331840926e+00 -5.246953917089706820e+00 3.957409990633635033e+01
-2.886043040174731011e+00 -4.866379293588925847e+00 3.994043846136581521e+01
-4.669143101338564250e+00 -1.036258936798791108e+00 4.069306197359913568e+01
-5.445853658457853186e-01 -7.789298864101366959e+00 3.811653534575133051e+01
-2.717577448127282747e+00 -6.131709184349727337e+00 3.894028978253189877e+01
-5.177677881882719824e+00 3.110957216306835527e-01 4.037877977360378878e+01
-3.627839691456649529e+00 -3.535006783780185735e+00 4.029730564937797510e+01
-3.709654838064800231e+00 -3.063066587295805387e+00 4.051634295235880501e+01
-3.941200045501846105e+00 -2.430999031886607042e+00 4.070236605170731536e+01
-4.452149222853140742e+00 -1.536470114430945166e+00 4.066155628191319948e+01
-3.968621890464866464e+00 -1.783823457237155408e+00 4.094338312645395206e+01
-2.566621748838733286e+00 -5.703171931275740292e+00 3.942707505206104912e+01
6.349568872255344498e-01 -8.605006293708301612e+00 3.732601509941592610e+01
4.436284478469776360e-02 -8.042596266486796708e+00 3.810667157625203316e+01
-5.423372544982596466e-01 -7.628939283118055137e+00 3.846997136124813466e+01
-1.090772443801477865e+00 -7.189941994323271857e+00 3.869603634734358621e+01
-1.574342574677291662e+00 -6.917555230963166935e+00 3.870365450091633619e+01
-2.146769674401376005e+00 -6.253952229190996803e+00 3.923837228250993547e+01
-2.827125311101722716e+00 -4.612668521129729804e+00 4.023932687556376919e+01
-3.177238043951410962e+00 -3.941250575540407475e+00 4.044330955565073538e+01
-2.415664191326757138e+00 -5.274634100375504175e+00 3.991386215572828888e+01
-4.471953213040340991e+00 -5.771117701127608246e-01 4.103531281433888012e+01
-4.726042325462708860e+00 9.642893975300514953e-02 4.087835726834175887e+01
6.329068554849601735e-01 -8.295720342095837196e+00 3.809681315613371311e+01
-1.702900269667101174e+00 -6.600715487591960695e+00 3.908231431643370968e+01
-2.298523258602247488e+00 -4.766828296885743832e+00 4.051146195819225682e+01
-2.627861050854316538e+00 -4.289483099865275761e+00 4.059924966626608978e+01
-2.552735736798775079e+00 -3.860752750389674581e+00 4.094206163015118705e+01
-2.998457401186777282e+00 -3.424332981918243313e+00 4.091940459227849658e+01
