-1.889399999999999968e+00 -1.184900000000000064e+00 4.285110099999999989e+01
1.693252304473926939e+00 1.687659008548574757e+00 4.428786602930305349e+01
-8.209272265622014064e-01 2.016704281103345320e+00 4.338459409602648265e+01
-1.416678106157813311e+00 2.052063065840431744e+00 4.321147787967113629e+01
2.704112121054154549e+00 1.468680691376650138e+00 4.469046863191555019e+01
3.943160788793243832e+00 8.736919470244675079e-01 4.519878356382577778e+01
1.092381824799503409e+00 2.076840898620713638e+00 4.401365246962668465e+01
4.926030234469887858e+00 5.292225984161897934e-01 4.549442966873594685e+01
6.628214191724447701e+00 -2.354541796288889266e+00 4.535226000457514317e+01
5.606772724648252826e+00 -4.778503924278440507e-01 4.551938084040318699e+01
5.281494730556222095e+00 -2.383747680705494698e-02 4.552627341596685540e+01
6.406310571241037088e+00 -1.402449604274343509e+00 4.552963051556726271e+01
-1.843872505166160636e+00 1.746704954742684723e+00 4.308393158291712410e+01
-2.569352688095983162e+00 1.476526864660276939e-01 4.262626209845596748e+01
-1.147229947473142886e-01 2.694579557808506998e+00 4.358554537084464187e+01
1.493589478516709868e+00 2.363784734631552364e+00 4.418496029990484431e+01
-2.144582987011477648e+00 1.428472419227475587e+00 4.293116809245695009e+01
-2.541260794951933466e+00 1.210142753907660573e+00 4.273788089388245481e+01
-2.795961322958087969e+00 -2.778360695367944055e-01 4.254846867748727846e+01
-1.105718885980940591e+00 2.594428437792030362e+00 4.327034908559951987e+01
-5.833797427882756459e-01 3.125772553521320773e+00 4.340864229202166769e+01
4.284758353133303999e+00 1.270620753258671298e+00 4.537417949601528022e+01
8.929661807444522204e-01 2.752931777562617199e+00 4.391085692661084749e+01
2.094214388717023478e+00 1.974638725623363067e+00 4.445906444662818302e+01
3.736224691300114031e+00 1.657666480183873858e+00 4.514221696980884957e+01
3.131484594477808692e+00 1.858256724499113055e+00 4.487551900947740791e+01
4.776359887943939064e+00 1.098581580014978520e+00 4.552208842884798656e+01
6.735305600215923505e+00 -1.820082137499857033e+00 4.550544543458261870e+01
6.564900233640742933e+00 -8.061196533051774304e-01 4.570959932873319076e+01
-2.909805963194910916e+00 8.148604219300332741e-01 4.251368464090926835e+01
2.894756007567464984e-01 3.061589704322789096e+00 4.369683534878908659e+01
-8.209797221898071928e-01 2.957193580325844007e+00 4.333177266382580228e+01
1.474600061830221964e+00 2.923029998963177167e+00 4.416450373773507465e+01
2.495102776500135899e+00 2.261565696091759392e+00 4.463023139784265680e+01
5.914112963359921871e+00 1.016289282250244508e-01 4.572326399462370716e+01
6.239598611102432635e+00 -3.523740424185001219e-01 4.571642956281102244e+01
-1.922666886949756071e+00 2.548319410390355255e+00 4.303826768786085921e+01
-3.280924344344643195e+00 2.076890602798677765e-01 4.238657713501729773e+01
-1.685576123998251408e-01 3.341567759950771155e+00 4.353184460168093750e+01
-1.573205346713400621e+00 2.789643206713746437e+00 4.312510158501192592e+01
2.014940382577033340e+00 2.573009984152246687e+00 4.441109465684948532e+01
5.381633114801942064e+00 1.059350127087267612e+00 4.572846507057762722e+01
5.588600563381587172e+00 5.556705592479452838e-01 4.573009961403376877e+01
7.166504275977227501e+00 -2.115216612135155660e+00 4.553434472191496951e+01
7.135004666692736919e+00 -1.341009793730781219e+00 4.571305025935890143e+01
-2.353700632756010158e+00 1.999863058839230767e+00 4.285731128795693223e+01
-2.136644919194908621e+00 2.395836359365942858e+00 4.297436856953021334e+01
-2.644796095027455607e+00 1.750503365607323225e+00 4.271182975121084269e+01
-3.249695223709676117e+00 1.480961965774301392e+00 4.240129387573944797e+01
-1.511610837827345399e+00 3.386692454397683960e+00 4.310927178467144216e+01
-1.052400002808602686e+00 3.557300038684924282e+00 4.323160199560560102e+01
-1.970241375265856743e+00 3.216299904361040518e+00 4.298709620150454214e+01
4.626691695561946815e+00 1.667941217165474832e+00 4.554974803525121274e+01
4.174350358287849616e+00 1.808465547008226260e+00 4.534979833903648938e+01
3.414568469755530078e+00 2.428012469415124830e+00 4.503255076479266705e+01
2.896700009978279144e+00 2.548999970643605728e+00 4.480170100313724646e+01
5.174865173074372215e+00 1.562544360362208895e+00 4.572683213380107503e+01
6.724038398288752383e+00 -1.330922002063731902e-01 4.616907838868694114e+01
-3.065460035619111956e+00 1.678647857944890909e+00 4.251337675317669351e+01
-3.458638093271142466e+00 9.563882858622785310e-01 4.232913008599395965e+01
-3.157646492206237276e+00 -5.681819505221086253e-01 4.242558357365334132e+01
6.936769713230610535e-01 3.428598797864838232e+00 4.380812629041241735e+01
-2.163740222929622092e-02 3.922259005909244145e+00 4.354730686892291658e+01
-5.368122517723047382e-01 3.739852599850954196e+00 4.338951766634696128e+01
3.932093658085276111e+00 2.307106919139799928e+00 4.526324757891399031e+01
7.163464614183044255e+00 -6.687257672750872572e-01 4.614694334684354260e+01
-2.429699999999999971e+00 3.045599999999999863e+00 4.286469999999999914e+01
-3.791177917356939986e+00 -2.601107142104571723e-01 4.221302342608225899e+01
2.415689286602203723e+00 2.860511547609855487e+00 4.458218748357988659e+01
1.935666499521907280e+00 3.171381695481317209e+00 4.436312491176225592e+01
1.455609654490592098e+00 3.482274700760910502e+00 4.414404674942883844e+01
4.450247221113081686e+00 2.186054014378865595e+00 4.549422446860214109e+01
5.922999552992558314e+00 1.191920830170577483e+00 4.621446337531783399e+01
6.236125924156349143e+00 5.476942676586328274e-01 4.617943860478114004e+01
-3.203070509559529100e+00 2.446519559583380410e+00 4.248078044991344626e+01
-2.816592489880578754e+00 2.745899248075092558e+00 4.267263734851434265e+01
-3.589599999999999902e+00 2.147100000000000009e+00 4.228889800000000321e+01
-3.798581580002306168e+00 1.622397931255056713e+00 4.221672052913817197e+01
-4.216346833684387008e+00 5.734810851426310752e-01 4.207243453441238756e+01
-1.486867024581339791e+00 4.115832553482575484e+00 4.306227744621401143e+01
-1.099032767646150877e+00 4.199613425774970210e+00 4.315863877329583431e+01
9.748258796136815008e-01 3.793639482696518073e+00 4.392463678622974754e+01
4.968399999999999928e+00 2.064999999999999947e+00 4.572520099999999843e+01
3.361502371125041133e+00 2.861301200582751392e+00 4.501174242944300374e+01
2.811037575235648678e+00 3.129986054254390471e+00 4.473119807760771494e+01
5.612639416570579520e+00 1.946766342705221309e+00 4.621186197531696394e+01
6.883126999999999995e+00 5.397250000000000103e-01 4.662841399999999936e+01
7.322527394019758162e+00 4.184437089843617841e-03 4.660631343560071116e+01
-4.007472784335019966e+00 1.097916811336238530e+00 4.214457464118890329e+01
4.941999999999999726e-01 4.104899999999999771e+00 4.370529899999999657e+01
-5.413414260803266487e-01 4.479771109710187993e+00 4.332208430916274011e+01
-2.040491778333913153e+00 4.012699298728412245e+00 4.290716317068183372e+01
-2.519593111476050140e+00 3.732170210165812740e+00 4.278716575276189360e+01
1.415397426799297254e+00 3.995031454555499018e+00 4.409660418404720161e+01
1.987104040256196580e+00 3.926987417634097088e+00 4.433944458944955613e+01
4.370626839792137730e+00 2.835945193830216926e+00 4.546300213714751948e+01
3.825980282031547830e+00 3.173383692100344433e+00 4.522163723248020517e+01
-2.862966642541568962e+00 3.541222609292470125e+00 4.267220374199858668e+01
-4.425500000000000433e+00 4.834500000000008235e-02 4.200019799999999748e+01
6.022693735292672379e-02 4.611014104334581809e+00 4.351361592026814407e+01
2.278621567431828865e+00 3.378763533351869519e+00 4.449396475270788898e+01
1.008974644923681385e+00 4.297462460038457444e+00 4.390878508048376005e+01
4.897667668305863309e+00 2.642800103228999831e+00 4.569746765150473067e+01
3.275697261053143627e+00 3.442789546641096265e+00 4.494114524634318286e+01
6.570444481700866923e+00 1.183827996334574584e+00 4.666370024218254287e+01
6.257526344827595288e+00 1.828415120239482272e+00 4.669901250507999180e+01
-3.346129672600617333e+00 3.166284229514798376e+00 4.243233208372814147e+01
-4.082002430889681399e+00 2.371698780365166570e+00 4.202837051744850783e+01
-3.732603818649768534e+00 2.866741792261635613e+00 4.224047260414697291e+01
-4.451956847697312369e+00 1.734133616137547351e+00 4.188255859182399377e+01
-4.441841432674378254e+00 1.089388663219061693e+00 4.192754921256241118e+01
-3.727768277372520700e-01 5.115997780983517096e+00 4.332236097296402733e+01
-1.920630380625649725e+00 4.673460938781892615e+00 4.289322709145734791e+01
-1.500039509839287355e+00 4.671708147679007439e+00 4.300643986894525739e+01
2.725299683271897422e+00 3.711478297167877471e+00 4.466063332462877611e+01
5.301032413359312301e+00 2.467684204588294961e+00 4.607858131962650106e+01
4.290848630020675181e+00 3.485729809570595528e+00 4.543170848044617571e+01
-4.652276451070760821e+00 6.479581420942903680e-01 4.184948739231128911e+01
4.970541609725501186e-01 4.689524765929072636e+00 4.364341399892571616e+01
-1.145666942609380845e+00 4.841933362868513058e+00 4.308567449122089954e+01
-2.609452053010477890e+00 4.418472169744823930e+00 4.270966144607758253e+01
1.523666916655232795e+00 4.489994106623544923e+00 4.411223859953861393e+01
1.011786109444405835e+00 4.881889408376324901e+00 4.384690283782813225e+01
3.740232979035461369e+00 3.755230603768480613e+00 4.515105029298661776e+01
4.826933344995564035e+00 3.220599904734629426e+00 4.566973233790606201e+01
6.112353090827517654e+00 2.550487843489007922e+00 4.674247425172122661e+01
-2.913920663378700482e+00 4.142424918054137706e+00 4.261459908329223367e+01
-5.019418723931536874e+00 2.782122315063118023e-01 4.157139452383722045e+01
6.356281628946486295e-02 5.194891654983997853e+00 4.345196344309241709e+01
-7.932682178808210249e-01 5.063271317991523190e+00 4.318500726174352167e+01
-2.301125901782921979e+00 4.631680619533040222e+00 4.278445406801479578e+01
2.038543654839210184e+00 4.682594415568324564e+00 4.431576505702550861e+01
2.639512536738774173e+00 4.293299664838265528e+00 4.459002829113531874e+01
5.210506698692086047e+00 2.971449386235715195e+00 4.602624158183690639e+01
3.189891858818244330e+00 4.024277554476919150e+00 4.487054793828263399e+01
-3.875664357540122396e+00 3.586669019247862966e+00 4.219202800111382601e+01
-3.585724138484519319e+00 3.811500678030783185e+00 4.233596758272092586e+01
-4.574342942016786928e+00 2.596269587089305997e+00 4.176787577960873676e+01
-4.225023353087774325e+00 3.091470880145759992e+00 4.197994115702512374e+01
-4.878843545968559070e+00 1.247017731506658844e+00 4.169891591809918907e+01
-2.244661018742196701e-01 5.726026154884671371e+00 4.330377585592331968e+01
-1.753550447711701654e+00 5.282420522623866965e+00 4.288084421868769169e+01
1.526195152648821773e+00 5.074450795859504204e+00 4.405022974720915840e+01
4.999038327235749146e-01 5.273785439369792272e+00 4.358156635713093152e+01
5.633692367632307629e+00 2.870401988538312299e+00 4.643199091506334497e+01
4.756200002777175584e+00 3.798399977314056652e+00 4.564199800108892191e+01
4.205261251258540334e+00 4.067778405684303600e+00 4.536118908486621137e+01
-3.295783938330012930e+00 4.036333246285856546e+00 4.247990703173951488e+01
-4.900048523122201516e+00 2.282342648672078145e+00 4.162418534457766839e+01
-5.105331176522170722e+00 1.845868022602846326e+00 4.154839720390585001e+01
-8.056664756701530372e-01 5.620848370333225930e+00 4.313115643046619851e+01
-1.192292415853792198e+00 5.484134431838534773e+00 4.301272376345143300e+01
-2.354395454746894600e+00 5.231090655719476068e+00 4.272417614962886034e+01
-3.174276605467932111e+00 4.747774262332631778e+00 4.247911949453855840e+01
2.553700000000000081e+00 4.875300000000000189e+00 4.451940199999999948e+01
1.014422339910665771e+00 5.465986052637792802e+00 4.378497991509888010e+01
1.528723309172554501e+00 5.658908467602955739e+00 4.398822075416354949e+01
3.654485441161948067e+00 4.337077625948916548e+00 4.508046316627376626e+01
-4.717439963731051122e+00 3.316198877440925230e+00 4.171941126698281721e+01
-5.387993830063922296e+00 1.252402857361229804e+00 4.132643890267625153e+01
-2.699260119338969588e+00 5.104400109908153738e+00 4.263220008320794108e+01
5.027508747709573678e-01 5.857474561170818994e+00 4.351977942920798625e+01
2.041368505055778382e+00 5.266984565624625247e+00 4.425389262580083738e+01
5.361240536706965543e+00 3.536247433857159006e+00 4.621369933276927355e+01
3.104320775331940840e+00 4.606076212966561556e+00 4.480004888917508055e+01
-4.368100352053070345e+00 3.811398313897689683e+00 4.193148754117545707e+01
-3.728602655352701856e+00 4.531443283967812263e+00 4.228760981387048190e+01
-5.066903045826160579e+00 2.820940421481486382e+00 4.150726486480765232e+01
-5.332074312394822435e+00 2.445394200133314211e+00 4.139770866720851217e+01
-7.615217638296845060e-02 6.336054465141510050e+00 4.328519175821057274e+01
-6.575557020881689363e-01 6.231071885263529175e+00 4.311248708236050931e+01
-2.272173761463598840e+00 5.901927387923224799e+00 4.268316335416359664e+01
-1.755923103096081350e+00 6.013929901573310310e+00 4.281138575012050751e+01
2.647844177355110684e+00 5.546752819853406180e+00 4.445624967215627521e+01
1.017060690316340832e+00 6.050081422343964732e+00 4.372305805362196196e+01
5.966927019847534375e+00 3.273815273820464888e+00 4.678601100828778669e+01
4.806597564716692084e+00 4.423324567082435266e+00 4.559776928839715282e+01
5.196160017620762517e+00 4.130924062298508836e+00 4.603832790801440922e+01
3.692447257289489748e+00 4.805665142575485049e+00 4.504737742469043127e+01
-4.018774559753616415e+00 4.306846168251641238e+00 4.214356658058513005e+01
-5.642882463037757645e+00 1.926580949991301583e+00 4.115705152211657492e+01
-1.238899999999999890e+00 6.126100000000000101e+00 4.293979999999999819e+01
-3.246855160724760658e+00 5.535443432817557685e+00 4.240149105726938927e+01
3.142036961166532638e+00 5.074770831804060300e+00 4.476683936408247177e+01
2.078870476110588061e+00 6.048735947697783999e+00 4.415129846030060889e+01
1.523834859395319707e+00 6.182192850159025532e+00 4.390745671690095975e+01
4.268502667082375801e+00 4.848788233981277784e+00 4.530602996020068929e+01
-5.209694550688152681e+00 3.540867366712141973e+00 4.145896770196251424e+01
-4.860535879166861584e+00 4.036128185709706884e+00 4.167094736143067024e+01
-5.869696995847188070e+00 2.526378094704718080e+00 4.100631772534608643e+01
-2.789000000000000146e+00 5.789799999999999613e+00 4.255479799999999813e+01
5.056000350172676905e-01 6.441100049214318446e+00 4.345800000135361785e+01
-3.704318674554373025e+00 5.281304440904202480e+00 4.224831525249086184e+01
1.087700212766202323e+00 6.552733946309579949e+00 4.367584756368433574e+01
6.022141265759819007e+00 4.035561813213583093e+00 4.680906695698847386e+01
-4.511061881484682345e+00 4.531835451622507449e+00 4.188311842599872392e+01
-4.161899558192679649e+00 5.027099897847266519e+00 4.209510017032023654e+01
-5.559000000000000163e+00 3.045399999999999885e+00 4.124689899999999909e+01
-5.920779960009450171e+00 1.320020467432578393e+00 4.093824735330784392e+01
-3.156166865555182222e-01 6.777592699362012141e+00 4.311902529026372832e+01
-8.274148256041015115e-01 6.721606033541840830e+00 4.295985564375899912e+01
-2.157640693785284114e+00 6.718667702460359159e+00 4.258594425095239444e+01
-2.473308478569756552e+00 6.254250745757694574e+00 4.257037184841883715e+01
3.236118887952363465e+00 5.745661628795778242e+00 4.470374775847063376e+01
1.670414138367890544e+00 6.664486083454129073e+00 4.389392466909372814e+01
3.730410665298173001e+00 5.274252707973444032e+00 4.501429240544891996e+01
4.856994622274770634e+00 5.048266648829153880e+00 4.555353738633189664e+01
5.636243371702390981e+00 4.463541462361032330e+00 4.643476891699038589e+01
5.209169479137159442e+00 4.682893833957630036e+00 4.596724544482800212e+01
-6.002656205986430571e+00 3.204264580728260814e+00 4.082739605339518363e+01
-6.180430800333136077e+00 2.007294700273474675e+00 4.076570794874542258e+01
-1.382529582340996654e+00 6.887106739026096491e+00 4.277841676106741176e+01
-2.847117025606889396e+00 6.470655210916032019e+00 4.236594227808479474e+01
-3.219328971817185803e+00 6.620176340514841939e+00 4.215667835229336902e+01
-3.533541276765891581e+00 6.089114743494267401e+00 4.213615056988741969e+01
2.509625960422404711e-01 7.177220069489687937e+00 4.322904062130578495e+01
2.741829253490410512e+00 6.217070901843193553e+00 4.439320407010989555e+01
9.084111523984536030e-01 7.007224413237742588e+00 4.347357065697063661e+01
1.432507288399470724e+00 7.059983982801737668e+00 4.368291396078674182e+01
4.319333466792523168e+00 5.473921534817705492e+00 4.526197626074308289e+01
-5.360745211843442881e+00 4.147173022961586852e+00 4.129312240197769057e+01
-5.744893732353354210e+00 3.602222618926206099e+00 4.105990527210853713e+01
-4.976642856434016160e+00 4.691938042182650648e+00 4.152632233785024596e+01
-1.841627235373888505e+00 7.183590954687873342e+00 4.260153425622118561e+01
-3.847687065646310245e+00 5.558164114400602429e+00 4.211562747824496000e+01
-2.518380365085512107e+00 6.783691001399522413e+00 4.242356461171473825e+01
2.253195513599239863e+00 6.776249933761349098e+00 4.411202732565583773e+01
6.077327020309226668e+00 4.796915061707690775e+00 4.683211099886505480e+01
3.801040135493954253e+00 5.777446030251277342e+00 4.496700196615540790e+01
-4.627538084000613061e+00 5.187497126949399018e+00 4.173823530870943443e+01
-6.344407129752969610e+00 2.633181780303931241e+00 4.056278448369121037e+01
-8.589452632491952899e-01 7.276873151311760601e+00 4.286256974985421664e+01
-4.154832318230112786e-01 7.317757261549202141e+00 4.297993321615073370e+01
-4.419878708060450023e+00 5.678993923796358700e+00 4.184011954035789671e+01
-4.105536659551836998e+00 6.210102447045152907e+00 4.186069349828752451e+01
-2.905199999999999783e+00 7.151099999999999568e+00 4.217719999999999914e+01
8.086128192283206229e-01 7.543963709216099822e+00 4.333411683772298773e+01
1.879020221503445276e+00 7.193321947963934093e+00 4.383682736298666072e+01
1.311073098190641995e+00 7.573133838466346468e+00 4.348913677541273870e+01
5.491909122431162693e+00 5.235448068154768819e+00 4.617019168352926073e+01
4.907399999999999984e+00 5.673300000000000232e+00 4.550930000000000319e+01
-6.139925286316107567e+00 3.705901445247115511e+00 4.068724441541702674e+01
-6.446296760174748286e+00 3.363123266202762363e+00 4.040790793101649570e+01
-6.655387227421975638e+00 2.113682756687941922e+00 4.032198434951213528e+01
-1.985645039863667360e+00 7.482289946740116271e+00 4.247051568545803946e+01
-1.526100022587791427e+00 7.647800582208803100e+00 4.261709969136993692e+01
-5.092751151384377728e+00 5.347747896571048543e+00 4.138169634506372319e+01
-4.797437523245085877e+00 5.727188464426458125e+00 4.155908499567146919e+01
-3.791194009562570688e+00 6.741211687857644463e+00 4.188126756096313130e+01
-3.765999999999936065e-03 7.913599999999999746e+00 4.300000000000000000e+01
2.835900001132483972e+00 6.888000001447989185e+00 4.433010099998176656e+01
3.354008061860390910e+00 6.584187895286449432e+00 4.462503349094183847e+01
5.688311882191863234e-01 7.988747575686857338e+00 4.316826522382056908e+01
4.389475764551930226e+00 5.977004057520049152e+00 4.521447218056336226e+01
-5.511797786829034429e+00 4.753480714076715685e+00 4.112727540222989830e+01
-5.930844359958795664e+00 4.159214239213213204e+00 4.087285444074399976e+01
-1.018985428650496239e+00 7.736342365252761866e+00 4.274465030720573111e+01
-2.445491371947055459e+00 7.316669774167135820e+00 4.232383608547638687e+01
-3.476954596827123378e+00 7.272189788315988501e+00 4.190182539219486557e+01
2.461921091064522837e+00 7.304902169914704757e+00 4.405503188093543798e+01
3.871671988375657847e+00 6.280637106309480799e+00 4.491971301685763507e+01
5.461495549578666342e+00 5.879603891280059003e+00 4.594113778628162947e+01
6.241436404234251611e+00 5.295546134344752964e+00 4.682294008226693194e+01
-6.871532102512275308e+00 2.800247092486059852e+00 4.006618756904529732e+01
-6.116795686296462087e+00 4.716205505287970112e+00 4.068580312762284734e+01
-5.116440965464492674e-01 7.824924828582862091e+00 4.287225747888584948e+01
-1.909401350494741578e+00 7.875261174772626660e+00 4.230820846969153592e+01
-9.356997525483228273e-01 8.000383358743405893e+00 4.268132417554605240e+01
-4.677786092484102376e+00 6.330707516051520045e+00 4.158520959769794700e+01
-5.557890654290414290e+00 5.507973734918923725e+00 4.102521371955182872e+01
-5.169230252833285633e+00 6.090993614723347882e+00 4.125016671274478597e+01
-2.407377201687759705e+00 7.513125770785049617e+00 4.224269377763319255e+01
5.463562248246308650e-01 8.256487985895203607e+00 4.306069837325118499e+01
1.141401668467095343e+00 8.063891646223263265e+00 4.333652259915209015e+01
2.087625755339861833e+00 7.722157084360927293e+00 4.377973002351031795e+01
5.096611125718840896e+00 6.218943737129644767e+00 4.546839581367169814e+01
-6.451149393757508399e+00 4.059878317442156437e+00 4.038741308085290882e+01
-5.889561211168784283e+00 5.169527070836442029e+00 4.081192412781862799e+01
-1.412064780298971423e+00 8.236934404429558043e+00 4.237363770456082790e+01
-9.706138588676669343e-01 8.305026059993153353e+00 4.256086387827895834e+01
-5.692162007410406233e+00 6.139750048978881658e+00 4.086275451271195180e+01
-4.363314736131721716e+00 6.862006924610536629e+00 4.160579805830303002e+01
-3.245591255120757967e+00 7.803312862168549913e+00 4.201618803119285417e+01
4.165514235496219353e-01 8.486435415781979685e+00 4.293701861946821197e+01
2.458197119082763393e-01 8.705978900234418560e+00 4.280985092187994212e+01
-3.447489226730493517e-01 8.353295432901143514e+00 4.274560827574994448e+01
3.225430760112172557e+00 7.386053731165635128e+00 4.432382974615311610e+01
3.495786321411916031e+00 6.993213414281864715e+00 4.459434510879023605e+01
1.096222893907939255e+00 8.599216685381909642e+00 4.312136854946346887e+01
2.660182750732225543e+00 7.782532969018381763e+00 4.398145260140771740e+01
1.713700000000000001e+00 8.138999999999999346e+00 4.350469999999999970e+01
5.907541818670380529e+00 5.642672295999858534e+00 4.641502179863952193e+01
5.650727118366446255e+00 6.424929549771808190e+00 4.590037863560593223e+01
4.602122651436021172e+00 6.590258361044851299e+00 4.516849504943331084e+01
-6.889191909114733114e+00 3.521715851704098288e+00 3.998912457857415603e+01
-6.656546142659580667e+00 4.725041509501592962e+00 4.017965854081013788e+01
-9.135870837325774652e-01 8.599436044932128098e+00 4.243921780011056910e+01
-6.022923083297786029e+00 5.668162133035801631e+00 4.066881321202733091e+01
-4.935939608731851891e+00 6.983040733911645148e+00 4.133005674469250579e+01
-4.048845331013111171e+00 7.393308554360531026e+00 4.162638521718462670e+01
-3.713313032534371505e+00 7.808324149102956468e+00 4.179044368620292005e+01
-2.581813240844331947e+00 8.285998046128934647e+00 4.210351845881363175e+01
2.286124800659839362e+00 8.199586335029422912e+00 4.370630553524662787e+01
4.154967888410817878e+00 7.098313330778177388e+00 4.485830742731492649e+01
-6.302430558619650292e+00 5.272250979053371367e+00 4.049906995060354120e+01
-1.953905404624197928e+00 8.481725397810116363e+00 4.221982913993297615e+01
-4.158503878828077038e-01 8.961397923027879742e+00 4.250470061920392340e+01
-5.423771960450209484e+00 6.636089393664619251e+00 4.100856245107989650e+01
8.364505414651985937e-01 9.058700548604251779e+00 4.287409994822697001e+01
3.101485479983404847e+00 7.876226455979436381e+00 4.412212214772792862e+01
1.646567767215775024e+00 8.942243293005432747e+00 4.318209154624918256e+01
1.955368029125954754e+00 8.712380035156632729e+00 4.337368701409226190e+01
2.221650902514574533e+00 8.473367050756996477e+00 4.355575260338311239e+01
2.858445552316544624e+00 8.260162484447441500e+00 4.390787416514165642e+01
6.015894233887133069e+00 6.086020149330179763e+00 4.637321197850519638e+01
6.405431771004086450e+00 5.793830776478986699e+00 4.681377553728385976e+01
5.285561363044490868e+00 6.763836331649433653e+00 4.542754755014026813e+01
-6.978432425785678461e+00 4.227945981602916348e+00 3.988931077740038944e+01
-1.000801524592228153e+00 8.985761943071587154e+00 4.236964491394150656e+01
-1.585594596537331924e+00 9.010117317920766311e+00 4.223462640485056596e+01
1.514430318287462995e-03 8.993827979773191927e+00 4.262781300851199973e+01
-5.841446258499221500e+00 6.731805965189873397e+00 4.069335538735428059e+01
-6.164946713577869275e+00 6.279860492695600982e+00 4.050272640494307552e+01
-4.621755046951598445e+00 7.514643357279859437e+00 4.135045427037093901e+01
4.189230456740142272e-01 9.026259392592894670e+00 4.275093905060447241e+01
3.898003017221792987e+00 7.589649120678352290e+00 4.455728980969202979e+01
2.729633858377494171e+00 8.807755201158665059e+00 4.360680842835098048e+01
4.814769997872322627e+00 7.203511877567413180e+00 4.512251829703923534e+01
-7.332125763970064547e+00 3.680322055831165340e+00 3.957030465082211634e+01
-6.810101700105823497e+00 5.331122374471667591e+00 4.002185021647154883e+01
-7.131812591103865451e+00 4.834293854841072324e+00 3.973166074840290207e+01
-7.844956189785918799e-01 9.378157363564785243e+00 4.232915162617385363e+01
-6.488099567351576447e+00 5.828400604430380660e+00 4.031230225494656594e+01
-5.518066315917467435e+00 7.183582175526844971e+00 4.088391344782710490e+01
-5.194300176577570483e+00 7.635900387922966104e+00 4.107469886846826057e+01
-4.198865969871753201e+00 8.005216038277195523e+00 4.155706165843523081e+01
-2.170889431133336434e+00 9.034492271598139723e+00 4.209949234457889844e+01
1.290100878478654733e+00 9.134233446521420774e+00 4.299705511169686645e+01
3.614631088061985853e+00 7.883682368931309803e+00 4.431756462958148290e+01
3.431364912819323543e+00 8.320801578406864962e+00 4.410965375222698270e+01
6.204320959264358670e+00 6.631098048699501035e+00 4.633180498254065327e+01
5.839409612177613340e+00 6.969899661625315268e+00 4.585925146061095603e+01
4.396612954965346987e+00 7.538836122866412026e+00 4.480545341829381556e+01
-7.453869914363139948e+00 4.336931332967854935e+00 3.944115880130776475e+01
1.144422308694197921e-01 9.264398419470992962e+00 4.255181644421421083e+01
6.447068943220446435e-01 9.567381087469058798e+00 4.259893043906449606e+01
1.459429758908819652e+00 9.362599878781825424e+00 4.292227570204684639e+01
2.196800212241625694e+00 9.285201317377174135e+00 4.324280128465334627e+01
1.743615755886833485e+00 9.209744480033192460e+00 4.311997322292686619e+01
2.712600392458964116e+00 9.348883883490131552e+00 4.339804776791876151e+01
3.334481780846662691e+00 8.731466582020875222e+00 4.388375804622404530e+01
6.569427000000000127e+00 6.292114999999999903e+00 4.680461100000000130e+01
5.474499296801695003e+00 7.308700870158690854e+00 4.538669932763404802e+01
4.984070142894910127e+00 7.666434331372657063e+00 4.502806457963379927e+01
4.493759846428393878e+00 8.024080904639834699e+00 4.466951679365418215e+01
-7.273643430475548399e+00 5.474626207685259871e+00 3.961193902431097769e+01
-1.153041670929239260e+00 9.794801780582291784e+00 4.215365075274210227e+01
-1.195527414186903226e-01 9.679455491450084992e+00 4.240612946885491397e+01
-6.430862151136141236e+00 6.914442380221437645e+00 4.029667338904469176e+01
-6.754012626920962603e+00 6.462323618633268651e+00 4.010628312693043540e+01
-4.771625373505221646e+00 8.126475990395098492e+00 4.128120288238773128e+01
-3.585876109235072828e+00 8.455323687903653962e+00 4.185522640149186913e+01
1.174919657522363492e+00 9.870332300101271272e+00 4.264604057438121032e+01
1.536074755679178505e+00 9.767549087425269505e+00 4.280720430609657257e+01
3.237598711787183170e+00 9.142130488215688189e+00 4.365786286540484440e+01
6.477444066630670960e+00 7.088417976244103968e+00 4.629358167948726788e+01
4.648534363331753738e+00 8.431683515039630095e+00 4.455227820013003281e+01
-7.663053159112774182e+00 4.998306218256570510e+00 3.926187899492291677e+01
-7.776099752858399050e+00 3.839300381668756756e+00 3.915050122292652190e+01
-6.951653351723438234e+00 5.971637568451319211e+00 3.990237795213178629e+01
-1.777788516149757969e+00 9.539377680634444800e+00 4.207281556632618447e+01
-5.956093704891300966e-01 9.864101387349082373e+00 4.225989763252520248e+01
-4.348887754109902026e+00 8.617124718624276980e+00 4.148773755285494502e+01
2.082867293194041292e+00 9.666723067999356545e+00 4.297048680436123647e+01
4.003899999999999793e+00 8.381399999999999295e+00 4.431129800000000074e+01
2.783373198808865023e+00 9.572099119018476543e+00 4.329895132758218068e+01
3.229318407568666061e+00 9.412682328032147439e+00 4.355356905339924367e+01
3.874656180725906118e+00 8.928875976913051460e+00 4.401011239178684775e+01
6.112358843227054805e+00 7.427185673537925581e+00 4.582091068598634109e+01
5.844287122188021044e+00 7.733586637463083058e+00 4.534961155569568803e+01
5.293549508959412897e+00 8.481999961696054413e+00 4.479339931643747974e+01
5.568917414996700010e+00 8.107793724520414358e+00 4.507150488019349410e+01
-8.033209150303907364e+00 4.515486072065074907e+00 3.892883994080886367e+01
-1.521900450285162076e+00 1.021179979321041564e+01 4.197800094685084105e+01
-2.686834125958210140e-01 1.030007891347008986e+01 4.223223222403602506e+01
3.577234312761623514e-01 1.034420484471219304e+01 4.235930674946529706e+01
-8.952103913704242411e-01 1.025594528552152873e+01 4.210513308486018502e+01
9.841631364485192712e-01 1.038833216388160885e+01 4.248638828924300270e+01
1.705493427246380866e+00 1.017349338586200780e+01 4.269318128150993630e+01
2.763275968786263359e+00 9.780116197556965929e+00 4.315483831729862629e+01
2.706257019893386406e+00 9.970822935882051041e+00 4.301869420966303892e+01
3.745399559315138127e+00 9.476399945590245011e+00 4.370889986736256105e+01
6.978958422841464504e+00 6.977850727167818512e+00 4.674729064427790348e+01
1.610019546290267112e+00 1.043241896873447594e+01 4.261335126084368596e+01
2.235799999999999788e+00 1.047649999999999970e+01 4.274029900000000026e+01
2.782598771496327394e+00 1.037571698909465567e+01 4.290356882332038424e+01
3.369665303764645348e+00 9.858860827833701990e+00 4.335507369819703172e+01
4.604696724231538418e+00 8.775033871540433239e+00 4.433415808340541986e+01
6.213533506603172718e+00 8.157851965420565676e+00 4.531257734562932171e+01
5.938170439184156102e+00 8.532284043098457005e+00 4.503437378035617655e+01
4.330827689402196867e-01 1.094798321329749236e+01 4.212529743631358770e+01
-2.187282456190482449e-01 1.070253287839043388e+01 4.207618707027608451e+01
-8.705660003811334091e-01 1.045707159014304644e+01 4.202707505769407703e+01
3.329600000000000115e+00 1.027490000000000059e+01 4.306689800000000190e+01
2.847958954372134421e+00 1.080402836713006920e+01 4.274469693801916748e+01
3.460517614474964532e+00 1.113177216065272113e+01 4.274909711221271635e+01
1.468601875053202388e+00 1.095434911883089413e+01 4.236309947636032547e+01
4.260844417686022290e+00 9.497977373685595026e+00 4.387667334439219502e+01
3.955893183193611051e+00 1.014559028396543816e+01 4.341119040585292765e+01
3.936112783443464380e+00 1.035381832729587259e+01 4.326707123556217027e+01
5.205455881299585030e+00 9.168639692523711915e+00 4.435701864908690339e+01
-1.175942584059699758e+00 1.088491726888515565e+01 4.179910378963347029e+01
1.084799999999999986e+00 1.119340000000000046e+01 4.217439999999999856e+01
2.658546841483247825e+00 1.110572010564877665e+01 4.256495973066785155e+01
1.852495512219909823e+00 1.071524112299548115e+01 4.255184405146007975e+01
4.290026137260177563e+00 9.746560000329804296e+00 4.376067353156167172e+01
4.144445895370028055e+00 9.954834868160830297e+00 4.358809069357921118e+01
3.943935388421962340e+00 1.059276992269164275e+01 4.309979217964033893e+01
4.776203172037364553e+00 9.519552225926181777e+00 4.404441830707902739e+01
-1.850589193967913104e+00 1.066103131448287478e+01 4.173688394282044101e+01
-7.118422068157541638e-01 1.137642976805593698e+01 4.171447519759276901e+01
3.781625286780528228e+00 1.077898334900504906e+01 4.296391568814819095e+01
3.081265268102263200e+00 1.173489764155292825e+01 4.238963236925010136e+01
4.543099999999999916e+00 1.043280000000000030e+01 4.346739999999999782e+01
4.559387187182757373e+00 1.091121727923673568e+01 4.313274629386145875e+01
6.195353820569046377e+00 9.072266839051396303e+00 4.482805174249239855e+01
5.291174970012082923e+00 9.541110346792162744e+00 4.421203756799808104e+01
5.806899999999999729e+00 9.562699999999999534e+00 4.437990200000000129e+01
-1.310269305963856601e+00 1.143739347732423361e+01 4.156128305711722248e+01
-1.132816712670308146e-01 1.131545322637227891e+01 4.186770108339769791e+01
2.294691169324118540e+00 1.177889090274791073e+01 4.219435380203112373e+01
1.689817124372657631e+00 1.148617972157294886e+01 4.218437823083716864e+01
4.833793040697807797e+00 1.001629501110842391e+01 4.381236468575832532e+01
5.863840188449486845e+00 1.005900968637957860e+01 4.414784288131623669e+01
5.377144855075833618e+00 1.028582165721813624e+01 4.386401777341400532e+01
6.451264709129260311e+00 9.870043693026515186e+00 4.440617676796757962e+01
5.920799959673560764e+00 1.055550059679824670e+01 4.391569859271352527e+01
4.859226515153688419e-01 1.125440957762835126e+01 4.202109259960438692e+01
4.072888024194006640e+00 1.145941544235322063e+01 4.275349581192241288e+01
4.233456858265062905e+00 1.128284848261903051e+01 4.286097854049886990e+01
2.899631319980770172e+00 1.207163372449631744e+01 4.220433061342782111e+01
4.094619235495160936e+00 1.207591139427188409e+01 4.248594686847756918e+01
1.470311922846184949e+00 1.183663255720118102e+01 4.196592315059872647e+01
6.383695410898376998e+00 9.575096982430062909e+00 4.457345985636245445e+01
5.461436281512136226e+00 1.051458838770526150e+01 4.376622357310416334e+01
5.002453796709251499e+00 1.047371072864645924e+01 4.361687219838205465e+01
6.883862001904887951e-01 1.153507004933220337e+01 4.190935968513556986e+01
2.917796258528390085e-01 1.187690453264307244e+01 4.164419140551568432e+01
-1.050105296299976843e-01 1.221889985463713124e+01 4.137889897262483174e+01
-7.052721014125609145e-01 1.205415019774687835e+01 4.134787367857557427e+01
3.504000000000000004e+00 1.236410000000000053e+01 4.221429799999999943e+01
5.174282911295091658e+00 1.122937735138645365e+01 4.316567031917156072e+01
5.725413821746128562e+00 1.097758743787850655e+01 4.356359033857295771e+01
5.134625551834059998e+00 1.070536324187784594e+01 4.351552539370729988e+01
5.166458012868542227e+00 1.099042961262925289e+01 4.333294566642841517e+01
1.855774610599990160e+00 1.247978010570834684e+01 4.175747429301843283e+01
4.685900000000000176e+00 1.178739999999999988e+01 4.275789999999999935e+01
4.168199002566822742e+00 1.260184382710056106e+01 4.225401380820846242e+01
8.783616646624448077e-01 1.210299198346394256e+01 4.168668960921186084e+01
2.662071972252722851e+00 1.286983014636874323e+01 4.177083479457640180e+01
3.083009208588219252e+00 1.261698158898016331e+01 4.199255208744062884e+01
5.237344404207203041e+00 1.166755554818842811e+01 4.297814841433616095e+01
4.815684276592176460e-01 1.244486961903678868e+01 4.142145269457851242e+01
3.937140790849729122e+00 1.287964220957995387e+01 4.207262922751242940e+01
3.523132009121666908e+00 1.351697163731338946e+01 4.166928153873264762e+01
2.882482954138967379e+00 1.331994847514401314e+01 4.160922474077359112e+01
7.502202274735491727e+00 6.320743841876483859e-01 4.658018872312848657e+01
7.422826891561920881e+00 1.066021560921623923e+00 4.658854667467692678e+01
7.006383799601592521e+00 1.925228869385911645e+00 4.663555983740559441e+01
6.717168686510643916e+00 2.267959236219445618e+00 4.666864135316814810e+01
7.302838810082628029e+00 1.538290867464568556e+00 4.660497840137410464e+01
8.121277374960028439e+00 7.244251202326621453e-01 4.653196343204916730e+01
7.176960695028919979e+00 2.707648908166393920e+00 4.663825983988629531e+01
7.962527197767063747e+00 1.592318526188894801e+00 4.654867931872438902e+01
8.351439535453611285e+00 1.204546672470531821e+00 4.651620875942239053e+01
7.754422441033521629e+00 2.021937099607042487e+00 4.657217600183542316e+01
6.676716814799801725e+00 3.378146836213176130e+00 4.671651199728291459e+01
8.502226999999999535e+00 2.118615000000000137e+00 4.650881199999999893e+01
7.386373627415993681e+00 3.482459820921715909e+00 4.664702604384051199e+01
7.636724977485145338e+00 3.147308693501130517e+00 4.660788002596236623e+01
8.930825982970088006e+00 1.513870203048967245e+00 4.647216254164286653e+01
8.299286108846198218e+00 2.852680412479154270e+00 4.654315992133224711e+01
6.554421420346371541e+00 4.113750920296532776e+00 4.675694688389805975e+01
7.086701812981591964e+00 4.191940031605238204e+00 4.670482678633723594e+01
9.112695462507202748e+00 2.272776327576395694e+00 4.645326014951399429e+01
8.096327000000000496e+00 3.586815000000000087e+00 4.657751100000000122e+01
7.591490360783884839e+00 3.889391927744141775e+00 4.664117192538109435e+01
6.581832735124512723e+00 4.494536401647264867e+00 4.676849180229682901e+01
9.006557702138739074e+00 2.498268139922536157e+00 4.646520010872608708e+01
9.602466641857731133e+00 1.889895558438469347e+00 4.641036302382698153e+01
8.180643445271604364e+00 4.117967396260144852e+00 4.657980997308492022e+01
7.591712237551039522e+00 4.471242450403168256e+00 4.665408196427693355e+01
8.828418885557271167e+00 3.694428543428071254e+00 4.650580272533796489e+01
9.169651943388391402e+00 3.286174643493542380e+00 4.646369563771806099e+01
9.723164648431502854e+00 2.426937520387984826e+00 4.639770823424539259e+01
6.834357191568104284e+00 4.924958370484818104e+00 4.674958131623598234e+01
9.510887783616631452e+00 2.877920389588012551e+00 4.642158826311052167e+01
8.265021625799304772e+00 4.649513468869479027e+00 4.658211073558337745e+01
1.045751407808465494e+01 1.899233383153416943e+00 4.633323644212877213e+01
9.560263074324589994e+00 3.802005676769118825e+00 4.643411871253402978e+01
1.001523680811754957e+01 3.257586861973551962e+00 4.637797478115721361e+01
1.033397178826140994e+01 2.581185085098509191e+00 4.634212556706797415e+01
6.998357962713467550e+00 5.423511971677994481e+00 4.674042114589029495e+01
7.591933575888446306e+00 5.053093182205887324e+00 4.666699206854516291e+01
8.923435580488890295e+00 4.292256448391392532e+00 4.650837857762052607e+01
8.349426214153789161e+00 5.181215428306719772e+00 4.658441197863019312e+01
9.018451362952028205e+00 4.890084295122748337e+00 4.651095452082385151e+01
1.100698871729476913e+01 2.394675543710256704e+00 4.628205807611526978e+01
7.162359037946846030e+00 5.922064517862260402e+00 4.673126092190391745e+01
9.686964831565591183e+00 4.599176715901034385e+00 4.643755325093836461e+01
1.029210878269757323e+01 3.909583033483971626e+00 4.636243455088498422e+01
1.054747761419364949e+01 3.061810751526496510e+00 4.632655563363184825e+01
1.094512825335031891e+01 2.735520514876782716e+00 4.628651111249222794e+01
7.755933323735376028e+00 5.551614654192148279e+00 4.665783141979787274e+01
1.051960737408163915e+01 3.637269934716017783e+00 4.633435943988512662e+01
1.106655485398835559e+01 1.537993698317834390e+00 4.633733416274220218e+01
7.718057814516793513e+00 6.049932844268973930e+00 4.666684388631801284e+01
7.200925575660277467e+00 6.388129248519821779e+00 4.673095781093012846e+01
8.598609306703993482e+00 5.679580613476312934e+00 4.655954669903943000e+01
8.969099367184071525e+00 5.208614161542373999e+00 4.651992670235124194e+01
1.155612700000000004e+01 2.889815000000000023e+00 4.623091099999999898e+01
1.131124276971251774e+01 2.213632441282208152e+00 4.628414398025730492e+01
9.588329752014576712e+00 5.235993736402943632e+00 4.645548750293816909e+01
1.035547847426563983e+01 4.308268317864142993e+00 4.636415195304988401e+01
1.102432602060726730e+01 4.017214956313297947e+00 4.629071399768263717e+01
1.129033887224473176e+01 3.453277833736573932e+00 4.626079987011541306e+01
8.215525260422946729e+00 6.081863021725705032e+00 4.660842467538738276e+01
7.832442144533758643e+00 6.484145169737766778e+00 4.665730253955983642e+01
9.218050180291188056e+00 5.706949622010379031e+00 4.649508555200601023e+01
1.182385320406804574e+01 1.550338260658044920e+00 4.632363503874456256e+01
8.847771754844030667e+00 6.177904570959922737e+00 4.653468348005277733e+01
1.210595118189845465e+01 2.674977403452159397e+00 4.623721356977066677e+01
1.223976701029298475e+01 2.005520261519421865e+00 4.628355597033432645e+01
8.464831150054083153e+00 6.580294226777196442e+00 4.658354550530111027e+01
1.173422207819648477e+01 4.121562268662633421e+00 4.622120462426897092e+01
1.208905375688556383e+01 3.370302077093897175e+00 4.618130879363329200e+01
1.265532621102900990e+01 2.460315308281513680e+00 4.624351099095611772e+01
1.248409642637967387e+01 1.817861785627040705e+00 4.629893093826080985e+01
1.282148482826626257e+01 3.083706900230904768e+00 4.618973740604762668e+01
1.262142984023481951e+01 3.850294601323380750e+00 4.613175768475563387e+01
1.244396040444130236e+01 4.225886694225705398e+00 4.615171069727489339e+01
1.282877263518090771e+01 1.866470099061167343e+00 4.629979319600762722e+01
1.321785489340789610e+01 2.616236860406116360e+00 4.623586141668113214e+01
1.315372699999999995e+01 4.330214999999999925e+00 4.608221400000000045e+01
1.300221357498167407e+01 1.272641274211833595e+00 4.635607386838911026e+01
1.357139411578156007e+01 3.291481690489377332e+00 4.617954730539645425e+01
1.298761364950811448e+01 3.706989585533489340e+00 4.613597323408750839e+01
1.336256026829266830e+01 3.810848495088895227e+00 4.613088065150954264e+01
-1.248538737133691079e+01 -3.789407013716371342e+00 2.933871375127767678e+01
-1.239776675049392551e+01 -4.145281189549254286e+00 2.870724800773966479e+01
-1.211896979056949419e+01 -4.486584324743467356e+00 2.946296551714397083e+01
-1.276394932384433467e+01 -3.448568317036886377e+00 2.858301548634679534e+01
-1.250594638833083394e+01 -3.279445992235506591e+00 2.988271713079592828e+01
-1.285139999999999993e+01 -3.092999999999999972e+00 2.921460000000000079e+01
-1.203147277600485410e+01 -4.842189027140094026e+00 2.883157771271877579e+01
-1.281856654125600059e+01 -2.576362778909889961e+00 2.986853755988930814e+01
-1.242734805893577921e+01 -2.753734818305472842e+00 3.066248362450907905e+01
-1.215996995970152383e+01 -3.466174155864216733e+00 3.055184540449366892e+01
-1.207489663674403602e+01 -4.041746858223954852e+00 3.009658188602846352e+01
-1.163106282487134457e+01 -5.432566609402773139e+00 2.885244746505073365e+01
-1.190960540209332130e+01 -5.091758726971179705e+00 2.809630625881487731e+01
-1.175289979704138510e+01 -5.183100181259469252e+00 2.958709905332262124e+01
-1.278573319547600917e+01 -2.059731164144822380e+00 3.052246874566865742e+01
-1.168194383031170780e+01 -4.847189143849720772e+00 3.016222187418832945e+01
-1.113916733784240520e+01 -5.731216211500181679e+00 2.974834151657000803e+01
-1.208640292440305686e+01 -3.135635514912741506e+00 3.110322562834298310e+01
-1.185462470445086680e+01 -3.975609750285338251e+00 3.073910288707541838e+01
-1.310616210477323662e+01 -1.331929171026507319e+00 3.035547565140386794e+01
-1.275290058428879370e+01 -1.543099828813661034e+00 3.117639745038254517e+01
-1.113990727100699196e+01 -5.906537420592070653e+00 2.878893412929515705e+01
-1.139298380435782221e+01 -5.331882680541699671e+00 3.015151414229227811e+01
-1.161098045689096558e+01 -4.511244184788512968e+00 3.073740313697528492e+01
-1.181436124175485425e+01 -3.652704138184371452e+00 3.122026219096170863e+01
-1.211113630366431160e+01 -2.690766888971700688e+00 3.153219665017739004e+01
-1.243219517209804614e+01 -2.116616850894062818e+00 3.135419971493906388e+01
-1.299833087250091346e+01 -9.235641730225343515e-01 3.102232712749903953e+01
-1.064875357191112570e+01 -6.380506791855106385e+00 2.872541912595636049e+01
-1.082150896963837816e+01 -6.117093680528522093e+00 2.927484647895561309e+01
-1.103300023954557396e+01 -5.480693210248928082e+00 3.071603493189961043e+01
-1.067308404390339760e+01 -5.629475890790628156e+00 3.128045007419189005e+01
-1.106124649096914681e+01 -4.921118594799930079e+00 3.136755836988699997e+01
-1.135279727220408574e+01 -5.016292256401778893e+00 3.063642441290237528e+01
-1.053867183654116957e+01 -5.979680956468515163e+00 3.068940142687506878e+01
-1.027934244838299449e+01 -6.604715276824570047e+00 2.939864500528332769e+01
-1.052459274445417670e+01 -6.280083218958923297e+00 2.990980965129143598e+01
-1.153999860332751304e+01 -4.175214591532848907e+00 3.131273056544590361e+01
-1.178997709534303873e+01 -3.265096252895382634e+00 3.171024933832902448e+01
-1.197892998957150290e+01 -2.285152439592980755e+00 3.206579368157996157e+01
-1.146899999999999942e+01 -3.839100000000000179e+00 3.188820099999999869e+01
-1.255101764852043367e+01 -1.052918779667257665e+00 3.167148692528532550e+01
-1.229996655932767347e+01 -1.711262415652576196e+00 3.188765126269109729e+01
-1.209795994658661655e+01 -1.220925174446187311e+00 3.238299791518225845e+01
-9.910300202958614690e+00 -6.828699818740531668e+00 3.007119894667737725e+01
-1.018077829135000023e+01 -6.789691163010093788e+00 2.869341655766309884e+01
-9.814236317394083642e+00 -7.026064170131667730e+00 2.926309695907753650e+01
-1.108949301144690125e+01 -4.361544364638552551e+00 3.201908075539120091e+01
-9.938024247351677332e+00 -6.228163478639485717e+00 3.163082186963089271e+01
-1.063567223344288060e+01 -5.307293241986424270e+00 3.176792436218465099e+01
-1.071031275590641485e+01 -4.883538935659779590e+00 3.214984783107409783e+01
-9.924161783864700936e+00 -6.528452783406880400e+00 3.085095408100573167e+01
-1.165813788086145486e+01 -2.859069928982290065e+00 3.224346745587197915e+01
-1.133706218708901936e+01 -3.433208815314511053e+00 3.242150330774448719e+01
-1.279654472344299698e+01 -4.326943376111664907e-01 3.151751911657468241e+01
-1.234895515261001364e+01 -5.623039129944045200e-01 3.216701524621014840e+01
-1.259454921273155215e+01 5.790014942293941758e-02 3.201293558042264920e+01
-1.184672299368945936e+01 -1.879539972645434487e+00 3.259939052206625121e+01
-9.232050935393267821e+00 -7.329657820694189141e+00 3.014226924335780211e+01
-9.507102518251652867e+00 -6.994410994183333230e+00 3.059620739754352314e+01
-1.031256157876535617e+01 -5.778509191898496766e+00 3.184581595915126329e+01
-1.152597438294969301e+01 -2.453381680263098108e+00 3.277703874285655417e+01
-1.109446736483347351e+01 -3.997722286248958756e+00 3.247160239279876492e+01
-1.214707657932949125e+01 -7.213374247940151918e-02 3.266209321476345906e+01
-1.239285589913386509e+01 5.485278072259247573e-01 3.250789350721586857e+01
-9.281536246311729244e+00 -7.450992327044488661e+00 2.911521068928924905e+01
-1.077221247047624075e+01 -4.468324763545324707e+00 3.254841476601913541e+01
-1.033133897813570456e+01 -5.405249261198062705e+00 3.228054369921454025e+01
-1.164483522770649415e+01 -1.389205557960697224e+00 3.309453575287621874e+01
-1.139380973026141852e+01 -2.047694897011575144e+00 3.331061109994593039e+01
-1.120514090960807252e+01 -3.027372034598721839e+00 3.295473624394297474e+01
-1.189595151782028815e+01 -7.305872555274599556e-01 3.287834784540618926e+01
-1.194490000000000052e+01 4.187600000000000211e-01 3.315790199999999999e+01
-8.842852012583600541e+00 -7.703754288229347935e+00 2.962234232586856209e+01
-9.185709656601261486e+00 -7.648086228235213113e+00 2.830769964892615675e+01
-8.748835895354371672e+00 -7.875920261711279124e+00 2.896732722519616487e+01
-8.641327777490218409e+00 -8.059896281396765616e+00 2.828176745293170669e+01
-8.183898632798635830e+00 -8.346182617056467024e+00 2.865602299196858027e+01
