1.430445518065798538e+01 5.334620353469531340e-01 2.748484000391844972e+01
1.394753989900754476e+01 -8.462061095772853703e-01 2.708625230933558825e+01
1.425314014555837971e+01 1.732662163721127691e+00 2.743731361586889861e+01
1.423784439564242099e+01 3.107561165151128790e+00 2.752765409599838264e+01
1.166269251676260055e+01 8.748275820430926331e+00 2.623114455783993648e+01
1.335526457800972011e+01 5.455228452531581951e+00 2.693230763100138603e+01
5.833343484085379060e+00 1.323337746001082493e+01 2.541751851642293758e+01
1.394099337664235883e+01 -1.935708713959502836e+00 2.710535554652622281e+01
1.365701665736203374e+01 5.024909670767708114e+00 2.714151563367811448e+01
1.350650277533223331e+01 6.059762705100734337e+00 2.721055970208206531e+01
1.257856760972074284e+01 7.965758587970040772e+00 2.676730294519375875e+01
1.207343119827097055e+01 8.514737296772931785e+00 2.649405561167094802e+01
1.169966358184912103e+01 9.379259552936716204e+00 2.651033845771233288e+01
1.044498191357304151e+01 1.067487815380494176e+01 2.617942572727773154e+01
1.099631007354515333e+01 1.022001994180259032e+01 2.635490936084980618e+01
9.908526282160652343e+00 1.106845776098615453e+01 2.603968956636272836e+01
7.348370062289909299e+00 1.299731516958572364e+01 2.589539267155178592e+01
6.434162048269655543e+00 1.347647606388674824e+01 2.586911062165580688e+01
9.777572186772960805e+00 1.176763493006894024e+01 2.633825307993495102e+01
8.474045627260302638e+00 1.241094566473801741e+01 2.610214813299596415e+01
1.457458693963021901e+01 -6.634690652784366871e-02 2.777501222554740323e+01
1.441006238493679525e+01 -7.862680920198231727e-01 2.759069261161597097e+01
1.424825149889187514e+01 -1.471791324390625544e+00 2.743023827315365892e+01
1.443054753546945790e+01 2.296111867837448361e+00 2.766648646922514487e+01
1.452327526586302220e+01 1.132895293449607932e+00 2.772748676277923607e+01
1.395876674005920748e+01 4.594587826414297638e+00 2.735072274515571422e+01
1.441527138791265195e+01 4.010288156373492896e+00 2.778309517091317105e+01
1.308369945107426524e+01 7.416779929735662691e+00 2.704054076318293909e+01
1.365757291773631543e+01 6.663625462474047190e+00 2.748850383266445263e+01
1.154763066720176035e+01 9.765158501288182080e+00 2.653037622086534242e+01
7.937048657960670717e+00 1.277296631840827779e+01 2.606292892997684163e+01
5.699089868418871774e+00 1.371763121356136317e+01 2.575713776847551983e+01
9.588614320126547241e+00 1.219383667325140941e+01 2.654418750591084120e+01
1.478538704744756238e+01 3.423071181615072955e+00 2.812486775548180518e+01
1.479340721613297305e+01 5.331128295263056760e-01 2.801765793256594250e+01
1.341361203760871490e+01 7.100751519074495199e+00 2.732139990958179254e+01
1.217492621719632062e+01 9.108662981786169510e+00 2.681441333913319269e+01
1.373557887605998573e+01 5.577622009787594592e+00 2.733651364580932253e+01
1.049267373780316248e+01 1.124284932106102097e+01 2.652445916286968242e+01
9.150113026859196808e+00 1.262043682160159719e+01 2.661637439621229362e+01
1.487198947139341243e+01 -7.264083701714508789e-01 2.809448327097178932e+01
1.464575624954994915e+01 -1.201527670438734541e+00 2.785849502517822884e+01
1.471162268984351051e+01 1.871373661997430826e+00 2.793570606379843113e+01
1.406149578474614437e+01 5.274434735332213187e+00 2.759663632670409328e+01
1.460796263116590765e+01 2.859579619867384626e+00 2.789567055684201691e+01
1.409761366987124198e+01 6.073764175237873708e+00 2.780154806293495540e+01
1.261977968717480891e+01 8.804263462920804528e+00 2.712255376020738851e+01
1.196253497568530122e+01 1.002987575748184312e+01 2.699215765822078339e+01
1.100391658729940225e+01 1.089689272974801959e+01 2.672838356288355754e+01
1.151515270255446843e+01 1.055093233218220306e+01 2.693229792205817930e+01
7.694250261116137857e+00 1.332162798476119114e+01 2.632350843988921696e+01
7.095048736181569282e+00 1.347746706251560056e+01 2.617503007841074236e+01
6.322379518278006039e+00 1.404133996645844462e+01 2.628452219510462484e+01
1.018253101442435593e+01 1.207280711700353848e+01 2.677595275850875112e+01
8.444674582196540769e+00 1.293045754609686604e+01 2.646115841032192506e+01
1.506353987745546874e+01 -6.670415788286837566e-02 2.830783164137297447e+01
1.500878079295530476e+01 1.211604704700789181e+00 2.825490647998608296e+01
1.441187854891396114e+01 4.768195438163818523e+00 2.783817306770100686e+01
1.488903393274262221e+01 2.434834093293168245e+00 2.816488420036202811e+01
1.496298296529011296e+01 3.987103177634795159e+00 2.835428752887752069e+01
1.312625705999026060e+01 8.249227402955311206e+00 2.739479599757948591e+01
1.352147240489791713e+01 7.643241214461723665e+00 2.754205927667856812e+01
1.380848630440878289e+01 7.266863150804903526e+00 2.776616064694643882e+01
1.227624062273193140e+01 9.701542119687930565e+00 2.713419770431713474e+01
1.054034019869206773e+01 1.181056156402654089e+01 2.686931678215416142e+01
9.777326610591410727e+00 1.247832126227265448e+01 2.685078050422506735e+01
1.473571327937464659e+01 4.427486405117522672e+00 2.815059565967563060e+01
1.529242672037351802e+01 5.818208964273805517e-01 2.855959421756652006e+01
1.517010495180848828e+01 2.010083884880716987e+00 2.843409827109453403e+01
1.506067793531861732e+01 3.206846372686275259e+00 2.840277989448883034e+01
1.094557394390564475e+01 1.141251959198004329e+01 2.696371650897171435e+01
5.341933487895087040e+00 1.436376870500514968e+01 2.613560854163922542e+01
7.154042529158513020e+00 1.394746445667783341e+01 2.659080423611888477e+01
8.919844015756222433e+00 1.312527576661000950e+01 2.685688777337293942e+01
8.415266033247229771e+00 1.345023539233953080e+01 2.682036743519572397e+01
1.450238304002428258e+01 6.769077484299471870e+00 2.835120087875035466e+01
1.237759800143220801e+01 1.029469102273189485e+01 2.745411553716875375e+01
1.193033140386208757e+01 1.081547253439794609e+01 2.739418673508991731e+01
1.450281390773320567e+01 5.540398208671841296e+00 2.809187914140120057e+01
1.103501496181456076e+01 1.185791654619541902e+01 2.727415704374624994e+01
1.148266817510674009e+01 1.133670565338265313e+01 2.733418088615045605e+01
8.039912801222302008e+00 1.364566812655551153e+01 2.675136274526877855e+01
9.487375606906988779e+00 1.317394593315731122e+01 2.719683057422302142e+01
1.058800993418465275e+01 1.237836082797074866e+01 2.721420713283837500e+01
1.486523771811449990e+01 4.941896914142922093e+00 2.832588937975366150e+01
1.554628096366330503e+01 1.340110778052097107e+00 2.883902068994365209e+01
1.535097304483240954e+01 2.698417436753404175e+00 2.867585784552485606e+01
1.514056284611782388e+01 4.551083949682015017e+00 2.858368780414622989e+01
1.549549705798006194e+01 3.468736071621934425e+00 2.888473759745125946e+01
1.395930689725122598e+01 7.869732263130464034e+00 2.804364764246058073e+01
1.423078515994034277e+01 7.319528080831774197e+00 2.819739013201408184e+01
1.277291877005675502e+01 9.688622856365931568e+00 2.760147196482210674e+01
1.316881057129449140e+01 9.081672961552795798e+00 2.774903296022869981e+01
1.356421366689592389e+01 8.475467385316095559e+00 2.789640294685373334e+01
5.719831028088419700e+00 1.476743583889838263e+01 2.662516094609354766e+01
6.210051517910313734e+00 1.460645950101798718e+01 2.669975548622206318e+01
1.003787504017209109e+01 1.277604258690685235e+01 2.720551240272942550e+01
8.936436018571829010e+00 1.357210520899087136e+01 2.718817225094131729e+01
1.562858762194860063e+01 2.148793881742968370e+00 2.893249099685302994e+01
1.543915013141697834e+01 4.076677980762475784e+00 2.886802249160711753e+01
1.477427466973288084e+01 6.218025585720179826e+00 2.850517812805856011e+01
8.385839231598408716e+00 1.396991546785200811e+01 2.717956232279011530e+01
6.861702584955681417e+00 1.477050998856361375e+01 2.713634498391165550e+01
7.623984925581607897e+00 1.437049923119662509e+01 2.715792587452601481e+01
4.935068156276396500e+00 1.493503320531163148e+01 2.648725717148495207e+01
9.957152787454541354e+00 1.324378935274791225e+01 2.754265494377690970e+01
1.045460766004546826e+01 1.291857173679136928e+01 2.757890806025672958e+01
1.589533202023830505e+01 1.722769392664936117e+00 2.921986920680386390e+01
1.471499135026958882e+01 7.533027068363760570e+00 2.879723943665923969e+01
1.504613890938788323e+01 5.667024626570422718e+00 2.865914058709478596e+01
1.300465103267992717e+01 9.999113413213265744e+00 2.800629439851769931e+01
1.231419833431961841e+01 1.089306045985285465e+01 2.781950450508244899e+01
1.398409962881665791e+01 8.514360722597803743e+00 2.837942922636914034e+01
1.120822368581704254e+01 1.216802067941882370e+01 2.766213778928738165e+01
1.190638340824591523e+01 1.132736450649889193e+01 2.773595393936623665e+01
1.086975308583529554e+01 1.268000149982882974e+01 2.770077660163600797e+01
1.581028337098998016e+01 2.851119756063402289e+00 2.917612988344058067e+01
1.531827208185414158e+01 5.115473426211493368e+00 2.881325626198117718e+01
1.556393714059857203e+01 4.577302338793684200e+00 2.903665763550524304e+01
1.580966584625326377e+01 4.038987894831483239e+00 2.926011776762728545e+01
1.435908491183806746e+01 8.120782339960765484e+00 2.855928397764032667e+01
1.507373023957756075e+01 6.882483265727141308e+00 2.902125349082335148e+01
1.361681623533694108e+01 9.026173879576541381e+00 2.821800941177871991e+01
1.272330394597117298e+01 1.058332653729072526e+01 2.797454035690398300e+01
6.097786253186367134e+00 1.517117509702457845e+01 2.711480923041747459e+01
8.665865967816319682e+00 1.429986170665952017e+01 2.762408175319868420e+01
8.229093974469590123e+00 1.446070248163439409e+01 2.752211348993152384e+01
5.352317986677376460e+00 1.549193419889298262e+01 2.712504983101014844e+01
9.639688524211976528e+00 1.370089690711165353e+01 2.772586196356571620e+01
1.132673923835681862e+01 1.247123394392913909e+01 2.799248660235818420e+01
1.608706978683090227e+01 2.287503235282106751e+00 2.943088327709173768e+01
1.516526012372873389e+01 6.241653248145063060e+00 2.894899961216540873e+01
1.169577773929638020e+01 1.192965194669714890e+01 2.796221631574928423e+01
8.072056417223025804e+00 1.495190548601715008e+01 2.786500821535914341e+01
1.032122398610239777e+01 1.345860821994654977e+01 2.794350572310150582e+01
1.115170858753269378e+01 1.298187274316568995e+01 2.818771716915693304e+01
1.605502596733513698e+01 3.501476625710718604e+00 2.948324367856479000e+01
1.606626069670645052e+01 4.761628480987122991e+00 2.967008812404313645e+01
9.148613115724392841e+00 1.409948788747452220e+01 2.775432091382292654e+01
7.219822972948895412e+00 1.523576278356923908e+01 2.770190823892604826e+01
6.367384708908899071e+00 1.551874587111277926e+01 2.753884218734871325e+01
1.542536064540385254e+01 5.784402852147466412e+00 2.911535202143078394e+01
1.630036348076004415e+01 2.964009099596959906e+00 2.970635003196896307e+01
1.573771946814401268e+01 5.339012782168532034e+00 2.935175333022246846e+01
1.519923169814091324e+01 7.746706693533116805e+00 2.939717370024979815e+01
1.553245730158284488e+01 6.453377832354956212e+00 2.941747104365685317e+01
5.899033453214540756e+00 1.570693675361820496e+01 2.751321367085398961e+01
1.167256982746733840e+01 1.262246837982915615e+01 2.843363352820031409e+01
1.018775769145393006e+01 1.399884045127522825e+01 2.830826455874571934e+01
1.641300494810282018e+01 3.916187278866335664e+00 2.997360775039904723e+01
1.563941000260064484e+01 7.121461327804848196e+00 2.971918601194152743e+01
8.946223684170487189e+00 1.463020082680415790e+01 2.806916302751893255e+01
7.914768078815306751e+00 1.544294992480947393e+01 2.820785940042150131e+01
1.081074092539157583e+01 1.364131580889629269e+01 2.849148144849393560e+01
9.567033657192901330e+00 1.431453957057119908e+01 2.818868550728839040e+01
8.560203723990367664e+00 1.513148055414809079e+01 2.829356853962372398e+01
6.637122746748074675e+00 1.586780942483169987e+01 2.796311940696936205e+01
7.283861124432125855e+00 1.572445843772273832e+01 2.814832710390001225e+01
1.143369647327489602e+01 1.328378285941631631e+01 2.867472042918811681e+01
1.584470469210248922e+01 6.007905804360422763e+00 2.965372233804020041e+01
1.615695049634185310e+01 5.562432253432877616e+00 2.988997191418205190e+01
1.656711431329718565e+01 4.978384694367838037e+00 3.030619737486128784e+01
1.590303819433695764e+01 6.671801894183994719e+00 2.989886283517858345e+01
1.118331282992555131e+01 1.373276401851550155e+01 2.886706272015566199e+01
1.071935598152045266e+01 1.419180922758311247e+01 2.889861833227725896e+01
1.623200121701384901e+01 6.331063742189037669e+00 3.018235478036911701e+01
1.657614036078674502e+01 5.785827412399688896e+00 3.042813675556893571e+01
1.623619236863099857e+01 7.255263188133258545e+00 3.043577871138116109e+01
1.666002120639112505e+01 6.609786012300720159e+00 3.074547348893104370e+01
1.699532538844310281e+01 6.009217029817651934e+00 3.096629359232075629e+01
2.887099981544307692e-01 -3.767620792699507337e+00 4.753352216424205778e+01
8.714630443865909459e-01 -4.261088367880375039e+00 4.758964848046019824e+01
1.183962855081678978e+00 -3.663148915009379003e+00 4.787088972355839189e+01
1.088926491483044323e+00 -3.083113760034914108e+00 4.800716246619852967e+01
4.343590386744471399e-01 -2.982412664864618979e+00 4.781206338849289494e+01
8.257430090254143096e-01 -2.457102165336587873e+00 4.807187982415118910e+01
2.245989466876597285e-01 -2.405867103188931377e+00 4.788266003607042620e+01
-2.214534646476595536e-01 -2.881506371072044992e+00 4.761659217217120244e+01
1.430029014353088046e+00 -2.320066176872879193e+00 4.830829043665255540e+01
9.452587624689917645e-01 -1.838863344789864351e+00 4.826328937789950402e+01
1.914674254958594668e+00 -2.801736284784466680e+00 4.835308567125928647e+01
-4.307554712881043191e-01 -2.304888657918887862e+00 4.768738254984441483e+01
1.485121927309754342e-02 -1.829620641751870558e+00 4.795312164530804466e+01
4.605504009043082658e-01 -1.357677283981234773e+00 4.821829106405021292e+01
1.236281297777742649e+00 -1.439806841514519542e+00 4.843255857948724952e+01
2.351283913552491001e+00 -2.202709999153663833e+00 4.860720797907384139e+01
2.012224140619404356e+00 -1.521335944434982546e+00 4.864688110755266592e+01
-8.618010382995900942e-01 -1.565909006231309020e+00 4.757882358188892624e+01
-2.453101807335896223e-01 -1.062060448285253367e+00 4.792735821334236590e+01
2.787552724895280054e+00 -2.750273388944852293e+00 4.862388127628051393e+01
2.955437594264898049e-02 -6.752006339806155832e-01 4.807228108007821277e+01
9.847971778664404985e-01 -8.594582328967910190e-01 4.845600785169523306e+01
1.760721296276870795e+00 -9.392845642883614898e-01 4.867033744643558180e+01
2.787935909918490829e+00 -1.601311488105232828e+00 4.886113459611891585e+01
2.350523113489598526e+00 -1.052723241436933854e+00 4.882446925581313479e+01
3.175865135164298358e+00 -2.217746947027229076e+00 4.884980362080645477e+01
-9.507607046003594409e-01 -7.665328174018317675e-01 4.763652027086027374e+01
1.509220929842715941e+00 -3.574011500308035272e-01 4.869378428157813943e+01
3.598674142630395423e+00 -2.642306003684683269e+00 4.880820736211593669e+01
-1.435688144944281985e+00 -1.127254468646108343e+00 4.736682479136877078e+01
-1.753126290354945382e+00 -1.617790906430504716e+00 4.715834345451167309e+01
6.193903309698798321e-01 -1.113783093341422503e-01 4.833974419099919118e+01
-4.018347906399180602e-01 1.014863712542443674e-02 4.792610348504528872e+01
2.543815326383937148e+00 -4.646143902143206050e-01 4.897952075970572139e+01
3.053961636342560126e+00 -1.073132574899281044e+00 4.902752257913100209e+01
3.564150009987570922e+00 -1.681700966575932377e+00 4.907551851603839310e+01
4.035332767632302087e+00 -2.039271954708284262e+00 4.906216363064577024e+01
-1.656091132768067853e+00 -4.710064863601295948e-01 4.734568575654348876e+01
-2.191249911751721235e+00 -1.037134576629559879e+00 4.702688611604771296e+01
-1.103068351391692570e+00 2.194332425191959646e-02 4.761931682318691372e+01
2.033568630828567869e+00 1.440235343282744163e-01 4.893149946310413156e+01
1.209245251917028696e+00 4.526475348678199451e-01 4.860719685312921712e+01
3.551215945452952827e+00 -3.496111586626727830e-01 4.929438576450404241e+01
4.044036414173165284e+00 -1.034531790786054728e+00 4.932452970132237624e+01
-2.591052358564057911e+00 -1.473620971464735474e+00 4.666564497625028451e+01
3.857370381736687781e-01 7.610898343054061099e-01 4.828312647548946757e+01
-8.323070144167998841e-01 6.946642363502237849e-01 4.778020883680573405e+01
2.776018608050712544e+00 1.728963591707955161e-01 4.915420863240111515e+01
4.280339061351251750e+00 -1.541812680586234885e+00 4.924388163333546231e+01
-1.759946069203093488e+00 2.428630934484239667e-01 4.734503401422720259e+01
-2.361812725316998485e+00 -1.752842515956667957e-01 4.705465934866307975e+01
-4.389019864151895156e-01 1.070020295082647621e+00 4.795856535572512058e+01
1.713466264641132941e+00 7.608747739968555468e-01 4.880379906471896589e+01
2.507236851808988476e+00 5.878995182770819783e-01 4.912771710855347607e+01
-2.629612958209091023e+00 -4.579748803296778692e-01 4.689535447122217704e+01
8.899688671904684156e-01 1.068760702210948210e+00 4.847974282675473745e+01
3.518854711441359751e+00 2.015973581523224090e-01 4.937702503793918396e+01
4.667036294768379001e+00 -1.882344164854676372e+00 4.921994937409733950e+01
4.523795062158971980e+00 -3.878406704642728409e-01 4.957344248637566864e+01
-3.251246041069004722e+00 -1.135095112925491811e+00 4.633345598925220798e+01
-1.262530179339604208e+00 1.378608652220626896e+00 4.763437492069060397e+01
-1.863802063618433147e+00 9.590346933817625041e-01 4.734436048993840274e+01
3.162778019738885948e+00 5.809671064589684297e-01 4.932024805762891617e+01
4.261095714234238052e+00 2.301769881009620711e-01 4.959964781673031808e+01
5.017168401978021386e+00 -9.115842021739142265e-01 4.953685353784557321e+01
-2.465999862487458394e+00 5.386567600728985328e-01 4.705384182090998735e+01
2.344133101735827729e-01 1.479509950991387379e+00 4.822111896254526897e+01
-5.903046164669685236e-01 1.787893193861349150e+00 4.789650008130900716e+01
2.187228503728547935e+00 1.203819221786082805e+00 4.900004734092635772e+01
2.980425804868469530e+00 1.031180798422160372e+00 4.932373534991414488e+01
3.790812080568390030e+00 8.130167958157161756e-01 4.953508083287648134e+01
4.996874765000062446e+00 -1.402107781708010981e+00 4.941232407056214981e+01
-3.067257140415193817e+00 1.203445385058077022e-01 4.676372595205189953e+01
-3.511653570364656751e+00 -3.609795627724752820e-01 4.636250428716446237e+01
1.394199488175546398e+00 1.376420292584258354e+00 4.867635620743455860e+01
5.003609501463210485e+00 2.586990625234151797e-01 4.982231979519155374e+01
5.478531545182470097e+00 -2.015922431442817575e-01 4.979791072481372538e+01
1.075151745505163348e+00 1.991726031131657138e+00 4.854894936712191367e+01
-1.531488626809670794e+00 2.021021598663578001e+00 4.746474303930762773e+01
-2.773229234542473165e+00 1.405393998270111133e+00 4.688368532209542394e+01
-1.975070193128526830e+00 1.827018361506646427e+00 4.727148532011768367e+01
3.453445241606085681e+00 1.474232117491904193e+00 4.951968238850987092e+01
4.644721467943456972e+00 8.113751607441646030e-01 4.978680957333202883e+01
5.712677503815518421e+00 -1.262627699497262279e+00 4.958059043996072290e+01
-3.418761421740905249e+00 8.193398141722223471e-01 4.657495608706469170e+01
-3.955986325340152376e+00 -8.450782578797003675e-01 4.596104395402814902e+01
1.867803951229306980e+00 1.819466343019936927e+00 4.887253191385289597e+01
8.314711458632047247e-02 2.197876885409347558e+00 4.815909990597456414e+01
-1.170791386603551532e+00 2.534896758611604461e+00 4.758172952425206148e+01
4.285770792983074173e+00 1.364272432074348673e+00 4.975127808089048642e+01
5.953815589570736755e+00 -6.622367403354714188e-01 4.977347841179580001e+01
-3.768053468928730609e+00 5.311119609732675162e-01 4.633268747134077614e+01
-5.674975896959333355e-01 2.675665513510142368e+00 4.783517186282215761e+01
-1.800357663748952453e+00 2.663301618327459153e+00 4.729511116448139063e+01
2.660647636143520067e+00 1.646905883550587868e+00 4.919615534144013225e+01
5.502183620961745625e+00 9.260038824193344009e-01 5.003428121039793552e+01
5.821725199005869378e+00 4.923104871956334727e-01 5.000466569195120314e+01
-4.382589269198584603e+00 3.297624770808370298e-02 4.580644534950442903e+01
1.548333961182744911e+00 2.435032180635209098e+00 4.874494309943906245e+01
-2.688891272206614058e+00 2.276253340302602179e+00 4.690786459396490216e+01
2.341411386766554248e+00 2.262442459852951337e+00 4.906870654391717324e+01
3.134064296077247569e+00 2.089934372858786471e+00 4.939226100874109449e+01
3.926689300057430554e+00 1.917446484369162318e+00 4.971572131714022902e+01
5.143131448866816058e+00 1.478725856859172127e+00 4.999876184675506607e+01
6.429263157693720920e+00 -1.123039623613250271e+00 4.974903306240861411e+01
6.296834191013661375e+00 3.162313373484036683e-02 4.998018932907965706e+01
-3.770224768176919206e+00 1.519213784739942508e+00 4.638618157618920179e+01
7.559573603435496558e-01 2.607448921361843031e+00 4.842144604625775628e+01
8.328876365136464455e-02 3.004428670675085566e+00 4.809434179805784737e+01
-1.247564997101343609e+00 3.079094376308418646e+00 4.750426945208993601e+01
-3.307737914304543114e+00 1.982080761763405086e+00 4.660649439616544498e+01
4.784234147729462094e+00 2.031442115681170613e+00 4.996323520666064155e+01
-4.469436309377557315e+00 9.432720902922584472e-01 4.590118825762906596e+01
-4.834374497060138332e+00 -6.281950079602465209e-01 4.536926515126508974e+01
-5.902767489125867462e-01 3.401968780316869001e+00 4.776675929775943530e+01
-2.069236695687279415e+00 3.305687789640110008e+00 4.712542731173196131e+01
2.046473127241903889e+00 2.773888657344333541e+00 4.893025717820166420e+01
3.668402363414756007e+00 2.619406215518433889e+00 4.958437587892226617e+01
6.771943009703114136e+00 -4.290732311917787034e-01 4.995568699190836526e+01
6.635643673914652929e+00 7.256119223589196920e-01 5.018680032755121090e+01
-4.952011314258337293e+00 5.899187311282561019e-01 4.549453939975832384e+01
-4.400190267984397607e+00 -1.330401116663901817e+00 4.555971758823595508e+01
1.355402975885685812e+00 2.961469284003817037e+00 4.864661253844209909e+01
-2.480030318228207520e+00 2.842632700440440363e+00 4.696603547561721825e+01
-3.401021973203792736e+00 2.724436479106966846e+00 4.654505273521033359e+01
2.763190876792197770e+00 2.855719467079082641e+00 4.921326072037827970e+01
4.416197619738047919e+00 2.365968763289772792e+00 4.988601836032490411e+01
5.236983932635774774e-01 3.316901696619372508e+00 4.823778941000046672e+01
5.640671317189719147e+00 2.145193131375519258e+00 5.021035057207474495e+01
7.142128032886438049e+00 -7.717001907348013390e-01 4.989887255116489939e+01
6.317360326319311881e+00 1.159006129208779656e+00 5.021638217412500893e+01
5.999104847851215894e+00 1.592399632829750056e+00 5.024596156787044521e+01
7.111062566232541293e+00 2.647093207247855906e-01 5.016218924589317396e+01
-4.121661917973838740e+00 2.218781959370659695e+00 4.619739722185222064e+01
-5.269168411952780851e+00 7.562923115172355548e-02 4.517853302769615453e+01
-1.262584142855398106e+00 3.798804255593270618e+00 4.743976083741809902e+01
1.122953036128873983e+00 3.670527219641078087e+00 4.846289296128470880e+01
-4.583132119812473704e+00 1.741169371211922279e+00 4.587191553929854138e+01
-5.171452818166101473e+00 1.356034768298115312e+00 4.546913716830577101e+01
-5.471036627262224172e+00 -4.519580178490564815e-01 4.492142390576378830e+01
-2.835863877717650361e+00 3.445890217330481953e+00 4.675851420032279293e+01
-1.935025961846101650e+00 4.195744613602985673e+00 4.711267690624090676e+01
4.905191458052422959e+00 2.813986968841286185e+00 5.005613441767981442e+01
2.916990795747200771e-01 4.025952314103949270e+00 4.805422151387983831e+01
1.954274885064038791e+00 3.315102602739440130e+00 4.887156011970515124e+01
4.202928419393767712e+00 3.167894885333587318e+00 4.976769605430843058e+01
3.410545184799955720e+00 3.321134807303605996e+00 4.945306688468877354e+01
5.517509606464910732e+00 2.703809216703415341e+00 5.021838549880241942e+01
7.404126180888660258e+00 -1.546310480230563278e-01 5.007921216574433743e+01
7.453173035592410400e+00 9.591637425698785746e-01 5.036889253705420799e+01
-5.704227561450391448e+00 7.764885319396050978e-01 4.498767384577737261e+01
-6.013349488823892530e-01 4.266674484607657192e+00 4.765526144223561289e+01
-2.338515655966066475e+00 3.949105166809114387e+00 4.695545228464407472e+01
1.140694372326832573e+00 4.272836320462516824e+00 4.840208482386559297e+01
2.553048560982204673e+00 3.668634435782733405e+00 4.909646633945538952e+01
6.813907886919319701e+00 1.825630112691050577e+00 5.042813714271782288e+01
7.133022957658304186e+00 1.392274503487584081e+00 5.039850735463053866e+01
-4.112986100343655416e+00 3.172516771079513909e+00 4.618228937933514544e+01
-6.043891379502793981e+00 1.841963239882291742e-02 4.458002021788411895e+01
-1.274082616610995311e+00 4.499511572402169257e+00 4.734833893962554185e+01
-3.533313260925476040e+00 3.550114079546015766e+00 4.642630125541336383e+01
1.888508638195301348e+00 3.953153798382312623e+00 4.876973210500393208e+01
6.292642619890563616e+00 2.743414084184677915e+00 5.043732247893314735e+01
6.495280452285154382e+00 2.259021676321207650e+00 5.045771838720372671e+01
7.850971829446939942e+00 -4.207145526525774559e-01 5.004846990186129574e+01
8.009707965922853390e+00 4.447338914779646046e-01 5.028350477049261968e+01
-4.823772641718633736e+00 2.372904107883230473e+00 4.575112530511808728e+01
-4.473853588955881477e+00 2.919806245623070229e+00 4.600818475087699255e+01
-5.264520506799754251e+00 1.982000856712960335e+00 4.544386191485519788e+01
-6.138546150508301658e+00 1.476707741286523046e+00 4.479713202076387546e+01
-3.347626031440839256e+00 4.269002344812871996e+00 4.646308724262765111e+01
-2.607966055794299187e+00 4.592997457414565332e+00 4.678533489924938493e+01
-4.086336363418547002e+00 3.945497495869612958e+00 4.614123090815717632e+01
5.394675851318297077e+00 3.262425997372707442e+00 5.022641783429936169e+01
4.801096722488522595e+00 3.367113740993795457e+00 4.999122386687558617e+01
3.835532648514455190e+00 3.944745016803647086e+00 4.959045043459097712e+01
3.152896942075114506e+00 4.022759825904953956e+00 4.932177021812750439e+01
6.088216217154200471e+00 3.227339012074076141e+00 5.041694281704841529e+01
7.825195822517867050e+00 1.689460662223317922e+00 5.064099321566537526e+01
-5.872216866555941550e+00 1.767892535304842028e+00 4.503783404985646399e+01
-6.311369027388852082e+00 8.430650347675644474e-01 4.454028866062943592e+01
-5.832445690638444091e+00 -8.480944805781771567e-01 4.456921437465096147e+01
5.994485943594507482e-02 4.734532971857428940e+00 4.787076283211381877e+01
-9.844505564020127331e-01 5.159995239983169668e+00 4.738635022155325771e+01
-1.795887950794279986e+00 4.876609223475518284e+00 4.708596297226859662e+01
4.517722983254127023e+00 3.866763353766732969e+00 4.985894935150530927e+01
8.244296964914960668e+00 1.185048214611388762e+00 5.057046260899567613e+01
-4.826368107003120578e+00 3.621490097207224590e+00 4.581877702055256663e+01
-6.547895036708529126e+00 -6.071634515892175843e-01 4.407444380362905889e+01
2.487175337039209566e+00 4.307266421244315246e+00 4.899450067345010496e+01
1.822854294793208263e+00 4.591185328314397296e+00 4.866790012316847935e+01
1.158504717003760121e+00 4.875123774589430248e+00 4.834127260606562970e+01
5.200758628718989307e+00 3.788667441741529807e+00 5.012777104807290129e+01
7.036475907066778390e+00 2.938990006408619848e+00 5.072532572637869919e+01
7.345625903204878959e+00 2.339302416852187871e+00 5.068540967443791345e+01
-5.990875389514646265e+00 2.659979589053608873e+00 4.501095058492401080e+01
-5.408942850658073453e+00 3.140413303194276473e+00 4.541466128433946636e+01
-6.572869414424171275e+00 2.179587538953283943e+00 4.460658373386424103e+01
-6.745734861334902632e+00 1.542355831659608434e+00 4.434969069373250505e+01
-7.091264152285005729e+00 2.721488608317623181e-01 4.383591184870050483e+01
-3.259570609042499179e+00 5.120629856610070085e+00 4.635802763396603154e+01
-2.657591619052890319e+00 5.287745864246525151e+00 4.661582325986913133e+01
4.931606257509197899e-01 5.159491977046490874e+00 4.801414639715030575e+01
5.884185522290295900e+00 3.710552696953060892e+00 5.039658914940267209e+01
3.772932509344582463e+00 4.367673575088821813e+00 4.952901134392088522e+01
3.044220928828883288e+00 4.614691972184145285e+00 4.917886511045325193e+01
6.728866107535561802e+00 3.664904886413714369e+00 5.069462059027952705e+01
8.196513532754311271e+00 2.419210300931225355e+00 5.091245223121105568e+01
8.615586115791071364e+00 1.914746833364130207e+00 5.084198096306861459e+01
-6.918512998410552228e+00 9.096620277532057042e-01 4.409291348855926884e+01
-1.719574391702957394e-01 5.443752730789283234e+00 4.768712372824053602e+01
-1.776172840680477982e+00 5.684911002706147798e+00 4.692313483630108095e+01
-4.144397614959657972e+00 4.848842402173809241e+00 4.595209802961591805e+01
-4.922920090758981182e+00 4.392126291034216479e+00 4.563331429068798428e+01
1.112093836861344887e+00 5.400222953930128966e+00 4.823552910488479739e+01
1.908995136791506786e+00 5.373337596736790012e+00 4.857585066519197881e+01
5.107207323255738451e+00 4.423021667081342478e+00 5.003561219017911554e+01
4.392626493195155746e+00 4.712328478255615849e+00 4.973610779093515077e+01
-5.426069040948677369e+00 4.077546741880611059e+00 4.530552692149333893e+01
-7.264232203052043424e+00 -3.659303712722876689e-01 4.357853163677079777e+01
-8.315884221113445385e-01 5.926410491201828279e+00 4.729155648953598501e+01
2.305593473520319847e+00 4.830702402718572763e+00 4.883208020492414647e+01
5.504148306491660758e-01 5.681011466241447039e+00 4.795267834373601801e+01
5.800902499558996617e+00 4.274545499963060990e+00 5.031468509796216182e+01
3.664117465590548850e+00 4.960105892824052454e+00 4.938594495767578962e+01
7.888186146050490954e+00 3.018972856306699093e+00 5.095245683478977838e+01
7.579565461758798861e+00 3.619189128483632611e+00 5.099248669123549149e+01
-6.153615350053979860e+00 3.475981361102949752e+00 4.480092295223836629e+01
-7.094083511154579469e+00 2.363124758796233404e+00 4.406310594572505579e+01
-6.735527948048978253e+00 2.995400814254359556e+00 4.439679751905717353e+01
-7.422817717320464581e+00 1.572610068814589424e+00 4.362062587052117379e+01
-7.362183189329409849e+00 8.333900673809864212e-01 4.360452344671718095e+01
-1.489726011337983325e+00 6.407987625069616833e+00 4.689686403787002433e+01
-3.910058920485764755e+00 5.647357226583401335e+00 4.593140542058169729e+01
-3.260481306833227233e+00 5.727119911071034686e+00 4.623063793779934372e+01
2.935537896067037966e+00 5.207135881637730890e+00 4.903583185405132383e+01
6.343886072937682918e+00 4.125804179185800002e+00 5.059543665468346774e+01
5.013504303456600475e+00 5.057258038226058794e+00 4.994337813683990390e+01
-7.543006819410600805e+00 2.912743801817498368e-01 4.334926174255071629e+01
-1.716752329707659230e-01 6.056832948946009765e+00 4.753808432170919929e+01
-2.707164414499380278e+00 5.982453879694577203e+00 4.644629963977953224e+01
-5.019415763459513791e+00 5.162456806282443189e+00 4.544789662557307253e+01
1.272682702757667705e+00 5.918209290426781344e+00 4.821819023595774212e+01
5.506608019712857516e-01 6.293905393371800550e+00 4.780366486537046455e+01
4.284505351708459919e+00 5.305125293206716108e+00 4.959301525563378021e+01
5.717803990682835291e+00 4.838537725172508353e+00 5.023277610833126516e+01
7.420864260945879032e+00 4.287567962740238769e+00 5.099257754116391794e+01
-5.470652999170605213e+00 4.759888820635043594e+00 4.517169803206724055e+01
-7.836710129250776369e+00 -1.509996950314574093e-01 4.294778833875290047e+01
-8.305443133948797740e-01 6.538750496651227095e+00 4.714299704425524595e+01
-2.148577823295786615e+00 6.281847940730304281e+00 4.663091180085247345e+01
-4.516214517384605998e+00 5.494261976993703556e+00 4.564747786528365481e+01
1.995223654198130747e+00 6.155479694209541108e+00 4.848379710381800578e+01
2.827018667478518044e+00 5.799911848557548488e+00 4.889271363089400779e+01
6.233781823820385704e+00 4.615854135117854362e+00 5.050465074416320732e+01
3.555804914071710510e+00 5.552534981771483302e+00 4.924287521657263511e+01
-6.898246605934976294e+00 3.811487117447732498e+00 4.418687515756753470e+01
-6.461684825416200262e+00 4.172248110679351640e+00 4.448999578784154352e+01
-7.615231542111234653e+00 2.546625126843020670e+00 4.351966482196311148e+01
-7.256760760515088116e+00 3.179203275350867663e+00 4.385324941383954922e+01
-7.821508592297233164e+00 9.482903844869070564e-01 4.312018940901926101e+01
-1.269641745436524971e+00 7.063698502208609398e+00 4.683009115440675885e+01
-3.630656767534496510e+00 6.346979442440964903e+00 4.592081702109264540e+01
1.272555606950256157e+00 6.531101212123348709e+00 4.806899672077756946e+01
-1.713557089983828718e-01 6.669513978989739300e+00 4.738913055675217123e+01
6.800091561693775155e+00 4.541087013648449577e+00 5.079397197964672728e+01
5.634776939284925845e+00 5.402530105952444650e+00 5.015086379966302843e+01
4.905535175696946304e+00 5.650264926600375048e+00 4.980034187868719897e+01
-6.025115717826813544e+00 4.533088192616614442e+00 4.479279146534634037e+01
-7.923939265244639429e+00 2.134219852177638543e+00 4.314046227703873626e+01
-8.099899508218008748e+00 1.602870904123927076e+00 4.289118105636317324e+01
-2.147675898744989098e+00 6.889435719736311192e+00 4.650226534955810820e+01
-2.756681065867434111e+00 6.676999152482666844e+00 4.627679591045009744e+01
-4.560504309728584893e+00 6.174045807555692988e+00 4.550477310560583533e+01
-5.816292773692022244e+00 5.390029556396706667e+00 4.482162732280374229e+01
2.718929770487021003e+00 6.392867512111685357e+00 4.874954785194709217e+01
5.507039944231797435e-01 6.906425508339409269e+00 4.765462379147144389e+01
1.272776045533242417e+00 7.143980592792979145e+00 4.791979744746470971e+01
4.176389428868843012e+00 5.897920167743263775e+00 4.944991915849673347e+01
-7.777990068474914587e+00 3.363008171595212481e+00 4.330965873537904542e+01
-8.289733690428988666e+00 9.170307509935120560e-01 4.257509417526287621e+01
-5.115838680805039118e+00 5.932378140234144226e+00 4.526254961649721764e+01
-1.710015395183672737e-01 7.281581880992616718e+00 4.724031618282742073e+01
1.996082491462048525e+00 6.768309361617996345e+00 4.833480348259544712e+01
6.451293768684601027e+00 5.179927800363109291e+00 5.057170506723132064e+01
3.447983464903373374e+00 6.145292830435907128e+00 4.909988114178819529e+01
-7.419495481736511522e+00 3.995361607635954382e+00 4.364325274404492916e+01
-6.624138662181160875e+00 4.988594182825032419e+00 4.428003108536317711e+01
-8.136611518971394119e+00 2.730192433717147260e+00 4.297589770376281848e+01
-8.378593068036851221e+00 2.256496749544199876e+00 4.266189509296170712e+01
-1.049514675865392377e+00 7.719393567646913645e+00 4.676331346203319583e+01
-1.927876074582838495e+00 7.545320019379477827e+00 4.643531090638672509e+01
-4.409965813437863424e+00 6.924943777322540406e+00 4.542073388239609955e+01
-3.608651449745175821e+00 7.147930370235877184e+00 4.576378092150135757e+01
2.807127362848905960e+00 7.074702149284677333e+00 4.857653929778596336e+01
5.508444256079905177e-01 7.518932026884253439e+00 4.750557793781813842e+01
7.261470098895185465e+00 4.957084577530657121e+00 5.099266011441610402e+01
5.663478860188663866e+00 6.016624070961806403e+00 5.002332139386582099e+01
6.203129226884103176e+00 5.729181453730878282e+00 5.039026369880802747e+01
4.198156802257848597e+00 6.358392188394992317e+00 4.935439000236065965e+01
-7.061017869307271155e+00 4.627937758160665993e+00 4.397681157978625066e+01
-8.603058663928051075e+00 1.655140802501229302e+00 4.231733642591706257e+01
-2.806137939138580339e+00 7.371264505539465439e+00 4.610734100691226445e+01
-5.883043041328358314e+00 6.282445355081662797e+00 4.464021505326032724e+01
3.469449329128696746e+00 6.605862981631009490e+00 4.900419545795647025e+01
2.000397162506862170e+00 7.559313220916846099e+00 4.809347303612847924e+01
1.234754367282996368e+00 7.672280075679076106e+00 4.774165881732540129e+01
4.941749843977572887e+00 6.417746979548217823e+00 4.964110860645956080e+01
-8.299047750935619305e+00 3.546774907462056703e+00 4.276599933509856299e+01
-7.940743564261556031e+00 4.179249231691139599e+00 4.309945588570791841e+01
-8.881847046693403414e+00 2.309058587146243013e+00 4.208793952506014335e+01
-5.212173435488542950e+00 6.701722234114265930e+00 4.507730411670537762e+01
-1.706140242549324393e-01 7.893572157672044121e+00 4.709151195509974031e+01
-6.553337359029731246e+00 5.863550582942542277e+00 4.420349942434970103e+01
6.171863393321458391e-01 8.029240874557819652e+00 4.737613506431644339e+01
7.297036460929652968e+00 5.670425312350629632e+00 5.093086855341162078e+01
-7.582114016663620504e+00 4.812204467711822531e+00 4.343321278189867485e+01
-7.223802386252569541e+00 5.444576164379158811e+00 4.376663579091555789e+01
-8.657500813749971158e+00 2.913571987704240307e+00 4.243240152751469196e+01
-8.786980089357715684e+00 9.540800571203630343e-01 4.200603567255578241e+01
-1.539500790315833312e+00 8.142187424768005499e+00 4.633590210035654877e+01
-2.322341702359237647e+00 8.026117441125082408e+00 4.602519766497172071e+01
-4.464618495053684910e+00 7.788345289148959516e+00 4.494917530871091316e+01
-4.838384558025167870e+00 7.245054399230126840e+00 4.501325083472469402e+01
3.557551952117001370e+00 7.287121678062908003e+00 4.883134203371904647e+01
1.405935577845372375e+00 8.165050913578456360e+00 4.766105717998036084e+01
4.219931962352602817e+00 6.818864285340959341e+00 4.925885913554390072e+01
5.692209890469328570e+00 6.630735220031136912e+00 4.989575679175041500e+01
6.772526043407484764e+00 6.055919137549032882e+00 5.062949946530249434e+01
6.186186380192805423e+00 6.271593748145789959e+00 5.025414886432877637e+01
-9.088461345200972374e+00 3.068140733580249524e+00 4.188931430353405005e+01
-9.106214420861684644e+00 1.707415898083566530e+00 4.174342390309223561e+01
-3.261583362626241378e+00 8.123459177135494258e+00 4.546403784455199570e+01
-5.489272448306374841e+00 7.397935844646889691e+00 4.432953816105667499e+01
-6.130540325785050371e+00 7.431435681828086004e+00 4.362793240714826482e+01
-6.494988650057799795e+00 6.769053107097263933e+00 4.367423746975389776e+01
-7.621505171527676037e-01 8.615084692084352014e+00 4.647625521039883978e+01
2.895163210433048917e+00 7.755379377563656362e+00 4.840381648334465581e+01
2.879284875593997040e-01 8.486857602906043851e+00 4.700510792857031817e+01
1.005815297654808260e+00 8.560223438335311741e+00 4.728904948014318421e+01
4.971032675817212088e+00 7.032058668979273008e+00 4.951375990297487562e+01
-8.495262811302879413e+00 4.243776094321344949e+00 4.252288111777232871e+01
-8.889473839351797579e+00 3.547862990332597999e+00 4.215609464097300929e+01
-8.101091123296296104e+00 4.939371365765552468e+00 4.288963779010444455e+01
-4.090436818677476438e+00 8.332229664836079408e+00 4.488499965520799861e+01
-6.859357729506843526e+00 6.106858856340244834e+00 4.372045974603888396e+01
-5.053662428555945496e+00 7.786456579811762424e+00 4.443188849678492858e+01
2.194697266130231306e+00 8.300873014498797886e+00 4.794601212968508008e+01
7.336967151350656025e+00 6.383395004923439586e+00 5.086909533508180914e+01
4.286075021913899441e+00 7.329831505891871046e+00 4.912924935626082146e+01
-7.742854363288505404e+00 5.572084346020576007e+00 4.322292519851458792e+01
-9.335214873340220265e+00 2.402818865630659495e+00 4.151046044462712814e+01
-2.537137278121173622e+00 8.584197465553888406e+00 4.561470690095659819e+01
-1.838002151462183154e+00 8.681656400423410247e+00 4.594294587049702727e+01
-7.563970583454043606e+00 6.181403240997778603e+00 4.328309638852596919e+01
-7.199363872731492364e+00 6.843798551513481598e+00 4.323692725273819804e+01
-5.766187705130517038e+00 8.093690430116243562e+00 4.358153625184286284e+01
-1.285472993023251131e-02 9.018446934797658798e+00 4.661196194184513786e+01
1.601735012609321718e+00 8.713018648911823760e+00 4.747972542950621744e+01
7.464660895444441557e-01 9.079910938177084390e+00 4.691872862960396162e+01
6.530255587629605785e+00 6.814506485327925134e+00 5.031835599759098443e+01
5.720964045515106733e+00 7.244936051419565537e+00 4.976817022135346491e+01
-9.269233501524812624e+00 3.641583800920275227e+00 4.167606639293540383e+01
-9.519399534702133181e+00 3.222697867036850905e+00 4.134597802124648069e+01
-9.559765801199848312e+00 1.800672225372367263e+00 4.116565064371970095e+01
-4.399716856784327668e+00 8.614843602138005707e+00 4.440804913519897212e+01
-3.716826002437954468e+00 8.875281344387678573e+00 4.482087968845483061e+01
-8.261426351417446412e+00 5.699477783191960079e+00 4.267971911437857102e+01
-7.977186033587184255e+00 6.187935528284026709e+00 4.286874827208255567e+01
-6.834754801440636740e+00 7.506245915586027273e+00 4.319068443431119420e+01
-1.353896679218503429e+00 9.336837565174750608e+00 4.586071100814109514e+01
2.983275798208556484e+00 8.436672875723692400e+00 4.823092822620769482e+01
3.668060544790733957e+00 8.138605809819473791e+00 4.861545152856890439e+01
-5.013264601417966038e-01 9.448883479892446147e+00 4.618465365869315065e+01
5.036545918538221756e+00 7.542900699487558924e+00 4.938392208653619520e+01
-8.691466743428991393e+00 4.940681295994888700e+00 4.227958993194528148e+01
-9.121504848218348727e+00 4.181872046532390641e+00 4.187946045439485943e+01
-2.929697965330971599e+00 9.029033557379483099e+00 4.516727242210293269e+01
-5.083054277367606844e+00 8.354229922531837715e+00 4.399493515948393707e+01
-6.470265423961821583e+00 8.168572295468571554e+00 4.314433707934701090e+01
2.390677508326817691e+00 8.848651886154353718e+00 4.776486154798475070e+01
4.352230305751398909e+00 7.840794200897610366e+00 4.899963806616633377e+01
6.408948143365372552e+00 7.431825312521764815e+00 5.004830430698222443e+01
7.486765345978044550e+00 6.857645665085112086e+00 5.078197282627812115e+01
-9.844589159895940966e+00 2.561512851325305817e+00 4.086633538650892206e+01
-9.353525313125489404e+00 4.815792972731881783e+00 4.160282877911505750e+01
-2.142216097521998375e+00 9.182854955031112709e+00 4.551381071221751995e+01
-4.650638563383483692e+00 8.985173898378075563e+00 4.361743860645660220e+01
-3.031991824432946459e+00 9.290369144649281097e+00 4.482571294610418988e+01
-7.904029056211027360e+00 6.918058294702166933e+00 4.279970936057207354e+01
-8.779911465174969010e+00 5.826853547248421528e+00 4.213660195076417381e+01
-8.413633588235953198e+00 6.568687592835340538e+00 4.235830253416798286e+01
-5.208499804297261448e+00 8.539395264141168340e+00 4.359951235892659582e+01
-7.170222921226627744e-01 9.711706789551364238e+00 4.585868251203574886e+01
3.517137406212064166e-01 9.560924607572138356e+00 4.650857647740613032e+01
1.797532740004946561e+00 9.260983557127437038e+00 4.729838177154285006e+01
5.900487900487453530e+00 7.779668826335429443e+00 4.961953811946201398e+01
-9.596962215143182817e+00 4.031537981270829185e+00 4.127071181326286364e+01
-9.126905063050976707e+00 5.382278733530028170e+00 4.180398093270625992e+01
-4.093495689322766751e+00 9.430302656689436347e+00 4.363525317241958845e+01
-3.346911446577770288e+00 9.599288298874263603e+00 4.424626416134511686e+01
-8.984262488812479575e+00 6.556446092454680574e+00 4.179023750881450638e+01
-7.539266580841850640e+00 7.580739149163783885e+00 4.275346213453419608e+01
-6.247339585071387091e+00 8.837932379582451148e+00 4.311763395976252156e+01
-1.165044230210950493e+00 9.936868949974597243e+00 4.535023461796698285e+01
-1.661485318405338418e+00 1.012103724650395264e+01 4.483527356214969473e+01
-2.346517956120103054e+00 9.705839702791800860e+00 4.483051618920174519e+01
3.405731529473293495e+00 8.938953843266954635e+00 4.811387471441489794e+01
3.802572511616678863e+00 8.539452963826686727e+00 4.850408275827060578e+01
-8.044127084795210658e-02 1.008639943189789356e+01 4.585664373147081818e+01
2.558881069198544633e+00 9.328223366444955644e+00 4.756042234701094884e+01
1.204936175608655624e+00 9.672912939770482055e+00 4.683234089077695472e+01
7.014290002821468306e+00 7.196412615818509551e+00 5.043022111241636907e+01
6.588492226723284162e+00 7.966243032427328785e+00 4.989981401559129637e+01
5.238304170017522132e+00 8.143892391892240568e+00 4.921692955590394547e+01
-9.949607551957939222e+00 3.376995164714145847e+00 4.080353705776826700e+01
-9.858472089411037587e+00 4.789759445399062621e+00 4.096015054274043621e+01
-3.535072579796274095e+00 9.876449380007578327e+00 4.365299139692726271e+01
-9.298272836825578480e+00 5.954201704976857634e+00 4.159360808231964768e+01
-8.244398803955270694e+00 7.655449634407417214e+00 4.231585077533919304e+01
-7.174504956384009091e+00 8.243468623041644960e+00 4.270711510008436562e+01
-6.813253524697898911e+00 8.785803779394711910e+00 4.279308257296589346e+01
-5.503733129984373917e+00 9.431993997044310518e+00 4.314145128371227855e+01
1.966104133797571540e+00 9.740362813914771323e+00 4.709418118634783212e+01
4.620956526956723209e+00 8.642120734054655529e+00 4.877694582949445135e+01
-9.585141143138443454e+00 5.448627864236323504e+00 4.132666400756355074e+01
-4.771370389623734276e+00 9.689903352194669139e+00 4.329492230101529060e+01
-2.977478453612693698e+00 1.032193017334155982e+01 4.367051942337789683e+01
-8.740078808826149626e+00 7.179655251258608928e+00 4.191297829723907853e+01
-9.763795759415062614e-01 1.053627618175930181e+01 4.483970307882285056e+01
3.135810838913221765e+00 9.427163131724681122e+00 4.773191298273884087e+01
5.566962128882013694e-01 1.046141564631822440e+01 4.585459004473363365e+01
1.199166220294320295e+00 1.025492120595153978e+01 4.634224584740405106e+01
1.776622838839003737e+00 1.001868902438730125e+01 4.680997199841733902e+01
2.727088062998990203e+00 9.807801661855878095e+00 4.735597214819155454e+01
7.097330292257252538e+00 7.618805847685915289e+00 5.032837088977186113e+01
7.636459466337433000e+00 7.331454575981064536e+00 5.069490275444228189e+01
6.079770407487592898e+00 8.313665460934208440e+00 4.947110721130225386e+01
-1.010695742238567796e+01 4.191122851807053351e+00 4.062697382564695658e+01
-3.682671126844371479e+00 1.032257405487615287e+01 4.342365522661941668e+01
-4.387669552868032952e+00 1.032321415023241507e+01 4.317688849922740957e+01
-2.310557690087279514e+00 1.039343328523695043e+01 4.406035427387568859e+01
-9.201147194757027137e+00 7.237063428184395519e+00 4.144085798678703725e+01
-9.509135042694895290e+00 6.659009687993957982e+00 4.124554479217088243e+01
-7.879994311795088358e+00 8.318495359329000749e+00 4.226917453128966429e+01
-1.643564042261621783e+00 1.046493704392431034e+01 4.445003345820271079e+01
4.227243588807339414e+00 9.141328767371721398e+00 4.833072279374168545e+01
2.348339565035009180e+00 1.036449020519515862e+01 4.678734700133171032e+01
5.440069078950553028e+00 8.744883252499127124e+00 4.904986160173093168e+01
-1.037984767327187186e+01 3.531308963778758248e+00 4.026102758854332109e+01
-1.006537003908422356e+01 5.482852034149437337e+00 4.071711865560207144e+01
-1.031372297768396251e+01 4.884611805476608559e+00 4.038410807872460140e+01
-3.526377009444272126e+00 1.081779623596364459e+01 4.324022884599311567e+01
-9.816790974574395534e+00 6.081592592404809317e+00 4.105043831400948307e+01
-8.893272995173965967e+00 7.814914567740811613e+00 4.163609469594366885e+01
-8.585030320304989360e+00 8.393470587786852732e+00 4.183155893544278570e+01
-7.421216823387333683e+00 8.962797018369739632e+00 4.238891883617426970e+01
