-1.806076588144845729e+01 7.394646415582525556e+00 2.759226271215800352e+01
-1.812177789559766339e+01 6.499667706556661706e+00 2.872380272570154958e+01
-1.081025757557633860e+01 1.297409742875365701e+01 2.243405885738778949e+01
-1.424692577405709137e+01 1.192820182033350740e+01 2.288402074321689739e+01
-1.345122476070320339e+01 1.235547923842080920e+01 2.278413265879408200e+01
-1.202330494670433758e+01 1.295403564232670313e+01 2.272880587638871930e+01
-1.473513528111122639e+01 1.165081903390683848e+01 2.302066199954326109e+01
-1.724845721990365632e+01 9.214043686141732081e+00 2.507917307618297187e+01
-1.707788275562428382e+01 9.630294396823694925e+00 2.488168727611575548e+01
-1.778928965431949649e+01 8.503720002766744557e+00 2.672171648846568104e+01
-1.536086507298151815e+01 3.230788804488369692e+00 3.407965208657694944e+01
-1.736335948733713508e+01 5.596090227413744955e+00 3.123262513939473806e+01
-1.762076478796850765e+01 5.638574493565000623e+00 3.051146854171363287e+01
-1.499481842979988500e+01 2.477642817068565595e+00 3.429502322276702841e+01
-1.431527425786904040e+01 1.047838151858215383e+00 3.465511374088914209e+01
-1.593950077213368033e+01 1.109817926703026458e+01 2.371762632574524687e+01
-1.805927198831630065e+01 6.335402260015566611e+00 2.956138745184732386e+01
-1.263921263764451375e+01 1.269247852650952524e+01 2.270038133873072894e+01
-1.766277137500000194e+01 8.664452929687501026e+00 2.614960445719361104e+01
-1.752168097143885817e+01 9.074377035836585392e+00 2.594327366657201139e+01
-1.680834385419477073e+01 1.018299324003574924e+01 2.466929799823197911e+01
-1.600318156402992997e+01 4.681887035081962800e+00 3.364549968743346398e+01
-1.572691490537773085e+01 3.986678958816616269e+00 3.386467041804444023e+01
-1.710605060546875222e+01 5.553621875000000152e+00 3.195581798292037945e+01
-1.669233878634700119e+01 5.465086933065151698e+00 3.269212863466480457e+01
-1.804694571006963244e+01 7.030949452137535971e+00 2.926260265303094243e+01
-1.449102017598709580e+01 2.330865662070447542e+00 3.502794445428020964e+01
-1.415161444251266154e+01 1.615426731518777581e+00 3.520897595583475947e+01
-1.548832710459669926e+01 1.121166315166389360e+01 2.324301371963472107e+01
-1.653880419459967044e+01 1.073569169291019776e+01 2.445658965718373068e+01
-1.780185761339749106e+01 6.293325329764107856e+00 3.028862601947954047e+01
-1.754443835628689641e+01 6.250773755331080928e+00 3.101051264181858969e+01
-1.423625367740252479e+01 1.247748873787563895e+01 2.322766641976157231e+01
-1.548140038527773221e+01 1.177881992721527560e+01 2.358097208844510106e+01
-1.738058994374678790e+01 9.484300862820795430e+00 2.573687281473370447e+01
-1.627925898347459821e+01 5.376685058690712005e+00 3.342754621002121240e+01
-1.522376277913316223e+01 3.838077324964580317e+00 3.459636371253445475e+01
-1.728702896554629831e+01 6.208089982181951960e+00 3.173196505436228776e+01
-1.698056409653769805e+01 6.177438768621905218e+00 3.243677307519119779e+01
-1.809435260156250180e+01 8.051487500000000352e+00 2.805630433984374861e+01
-1.802757810154725249e+01 7.603410057164301072e+00 2.912482835921669988e+01
-1.802837139515852627e+01 8.081843152397674146e+00 2.881059424014394921e+01
-1.633130329956063065e+01 1.110122925701650054e+01 2.433002834592005925e+01
-1.798294929334114300e+01 6.948077432570584300e+00 3.006578710848172520e+01
-1.797266989427652817e+01 7.530138180747483645e+00 2.981533378828170910e+01
-1.506257896627391446e+01 1.219569413509060141e+01 2.357789939364641896e+01
-1.383852710242821793e+01 1.269112005319929004e+01 2.317796275072465662e+01
-1.314966784397662281e+01 1.310894974530721235e+01 2.320182469137478165e+01
-1.262051473635962928e+01 1.319533440482000053e+01 2.305203842809482495e+01
-1.765373971729418301e+01 9.344484421206034952e+00 2.660219487216369672e+01
-1.703954514956236466e+01 1.031711949513806204e+01 2.534277771553925973e+01
-1.725699505157392366e+01 1.037900307691169743e+01 2.609908308207550576e+01
-1.751265207149210212e+01 9.754416353602467282e+00 2.639435345069361460e+01
-1.668008521877588279e+01 1.105391154866720704e+01 2.505930261005221737e+01
-1.794447113179476005e+01 8.709162666253389418e+00 2.772287331751875428e+01
-1.558993974620734058e+01 4.593860492808348184e+00 3.438160886890300105e+01
-1.586625663161657229e+01 5.288302078617771684e+00 3.416292310914718655e+01
-1.545296838531051442e+01 5.199858658071653039e+00 3.489885801027028833e+01
-1.485753357450087186e+01 3.083059882081906178e+00 3.481163437497705360e+01
-1.796239024793990424e+01 8.112199182576917522e+00 2.956488288518880836e+01
-1.798520920257966793e+01 8.639719687196029341e+00 2.853532970822268311e+01
-1.772551768964077112e+01 6.905458285016049302e+00 3.079134993165662948e+01
-1.398796289062500087e+01 2.184318917625240442e+00 3.575979070133185189e+01
-1.370854528503745051e+01 8.730709597786050491e-01 3.537577137539135208e+01
-1.464423732058517835e+01 1.261082994571842164e+01 2.357474589213749283e+01
-1.741755826416112285e+01 1.057963541587095335e+01 2.679059769354631371e+01
-1.779458942569605284e+01 9.366838889935561241e+00 2.738944190425603864e+01
-1.656714755043709175e+01 6.089009025743778558e+00 3.317240520064728315e+01
-1.574080097481134111e+01 5.912251482505030076e+00 3.464343585056993646e+01
-1.508665913806477654e+01 4.445884606825388552e+00 3.511349508417745113e+01
-1.472024751482963545e+01 3.689938408279958448e+00 3.532865230446882521e+01
-1.746808511330692326e+01 6.862837072948956951e+00 3.150948250126417349e+01
-1.793230003773000192e+01 8.625105486543846567e+00 2.919583984789263909e+01
-1.790664105860699706e+01 7.560636837769173724e+00 3.057009100224517439e+01
-1.764915630055817175e+01 7.517639709514079449e+00 3.128851069532532847e+01
-1.435397357422902864e+01 2.935879422907974323e+00 3.554413643945021306e+01
-1.598772191629626072e+01 1.161192152883418061e+01 2.422797177356311948e+01
-1.539288981430452985e+01 1.244773715288730642e+01 2.404831863854145269e+01
-1.700121520816528076e+01 1.100379147388521517e+01 2.580373877648212044e+01
-1.764470759374999886e+01 1.002451562500000115e+01 2.705600994140624849e+01
-1.615401170161804956e+01 6.000825224855462103e+00 3.390786315751188340e+01
-1.490788251213991700e+01 5.052240109889427622e+00 3.563124125529879649e+01
-1.716161714143068551e+01 6.831867645507777809e+00 3.221268794497745347e+01
-1.685514950225127251e+01 6.800897358536718507e+00 3.291745184697369808e+01
-1.789639441654110641e+01 8.142561158414070022e+00 3.031934055547751328e+01
-1.787606668311050129e+01 9.227947240863846545e+00 2.901435192063673441e+01
-1.781280439286246420e+01 9.409599032762699267e+00 2.824009421223730243e+01
-1.783036492228491099e+01 8.172939026368826632e+00 3.106896094244022777e+01
-1.354500507171619716e+01 1.441303552344209704e+00 3.592957738727226769e+01
-1.626499565119422996e+01 1.178527870267270750e+01 2.480638133909901555e+01
-1.564414121501499721e+01 1.212261515211844198e+01 2.412571804880138870e+01
-1.422557382812500038e+01 1.302720911543273807e+01 2.357152411372223000e+01
-1.367745261844504334e+01 1.341826995533009281e+01 2.363292648230056869e+01
-1.719040902382921132e+01 1.113475569960889899e+01 2.652731042804339978e+01
-1.764795730486047276e+01 1.011957633400044898e+01 2.778510782087277420e+01
-1.527274568556770973e+01 5.810763846249246356e+00 3.537122976806667651e+01
-1.454162652043891946e+01 4.296004206028351646e+00 3.584590020489689266e+01
-1.734263494434449271e+01 7.486894816015612797e+00 3.198984934610810882e+01
-1.417558186057002345e+01 3.541595461761712471e+00 3.606091225701591441e+01
-1.380958068894641677e+01 2.788100233144565010e+00 3.627595212383386780e+01
-1.644195627282893213e+01 6.712931657161732346e+00 3.365274957871009320e+01
-1.784153112394351837e+01 8.953497232506581582e+00 2.982397732260159273e+01
-1.348909979514764679e+01 2.047950868596720042e+00 3.633666793321344812e+01
-1.452636312103869187e+01 1.350490388073269443e+01 2.419846676446519496e+01
-1.530426665054359603e+01 1.311750335267309175e+01 2.451625643801936150e+01
-1.580691906762361931e+01 1.246648823084150770e+01 2.467053836921196464e+01
-1.682147784385178113e+01 1.137238377084136509e+01 2.566229133459080813e+01
-1.651005874203934809e+01 1.192111140691620896e+01 2.547288156979111307e+01
-1.753862201134261412e+01 1.061373133955026482e+01 2.754658472526798718e+01
-1.728296857928530983e+01 1.123866665093107109e+01 2.724815680984091770e+01
-1.696286432031249802e+01 1.169084101562500067e+01 2.626491942760194931e+01
-1.602876318172744874e+01 6.624966034975490636e+00 3.438828958523026103e+01
-1.556971567310799820e+01 6.632543010961826191e+00 3.513364830129390270e+01
-1.703612539407965087e+01 7.455909549997238983e+00 3.269369995647092964e+01
-1.399698195414124058e+01 4.147042262071165553e+00 3.657795788239381096e+01
-1.363091538162035832e+01 3.393615533447979171e+00 3.679318188529798306e+01
-1.775631205164193105e+01 9.769274849763290192e+00 2.885259055555852115e+01
-1.765120678960590794e+01 1.021463797452586597e+01 2.851420478895980182e+01
-1.777280523186928107e+01 8.916987627973206543e+00 3.069972379832647746e+01
-1.752365325414562847e+01 8.141922426240400412e+00 3.176802366427430258e+01
-1.313011695470070528e+01 1.380956752741505866e+01 2.369422465197429872e+01
-1.619863890023532349e+01 1.246983800708334122e+01 2.528308973732085363e+01
-1.472791007221776916e+01 5.663751275643710059e+00 3.610300101927409600e+01
-1.436300323004548218e+01 4.902278827104364467e+00 3.636339184961130400e+01
-1.672952345146847719e+01 7.425407538944724273e+00 3.339894208089791050e+01
-1.331031634734834590e+01 2.651819804229980537e+00 3.685351414746197918e+01
-1.776692386630073983e+01 9.816176402585044869e+00 2.949142309850556387e+01
-1.771526206632742984e+01 9.660818875254852500e+00 3.033098618939622781e+01
-1.765385068255697831e+01 8.769216640551336539e+00 3.148517515061294958e+01
-1.364984674350185223e+01 1.385001855883615640e+01 2.399281640860521492e+01
-1.414258941604848907e+01 1.351824116043884061e+01 2.395442909176238899e+01
-1.668609730427063198e+01 1.217839675365648588e+01 2.609690769046298087e+01
-1.754888079326046935e+01 1.066141392833973178e+01 2.818768863473392017e+01
-1.743253947317871067e+01 1.120292961178365410e+01 2.803714443677356982e+01
-1.631661031409871754e+01 7.337398210368783147e+00 3.413363219896677236e+01
-1.509271849029848411e+01 6.421004706317928523e+00 3.584323883000816124e+01
-1.594243694845151715e+01 7.255608219671500159e+00 3.471496837529632984e+01
-1.721709957979289030e+01 8.110921921088833031e+00 3.247069115837170727e+01
-1.345252893993697541e+01 3.998665208407725657e+00 3.730984351636862328e+01
-1.381838328191959953e+01 4.752771132284864919e+00 3.709522841919343250e+01
-1.691067294537657517e+01 8.079935801352300828e+00 3.317462571503555324e+01
-1.757040579804839808e+01 9.635287739590490119e+00 3.114710308327430255e+01
-1.734724692893206566e+01 8.738112007202440523e+00 3.218798106167710671e+01
-1.405973322510451595e+01 1.400863867172940580e+01 2.433674168006010063e+01
-1.640936555471819602e+01 1.266589185532847317e+01 2.592842706615008197e+01
-1.749396254784958415e+01 1.102178325999623532e+01 2.880575035643056125e+01
-1.765445610918313335e+01 1.030970056017780401e+01 2.924203994348125235e+01
-1.765770717477848706e+01 1.040480333128970614e+01 2.996252212577955731e+01
-1.528710074150671616e+01 7.112888182105775670e+00 3.573344461356907686e+01
-1.562343641555470519e+01 7.290323104766404327e+00 3.524159918446343198e+01
-1.300711599232213089e+01 3.221801185450465788e+00 3.751423904530480513e+01
-1.418308576681912569e+01 5.515794938582951445e+00 3.683493683213149694e+01
-1.747739357051123932e+01 9.365300946406874161e+00 3.190527205129010113e+01
-1.732638117320912485e+01 1.179254974502728537e+01 2.852805648543740702e+01
-1.736597071108648294e+01 1.172351618384463556e+01 2.933360102820413218e+01
-1.752435796468752116e+01 1.044300338596046096e+01 3.065788164561106299e+01
-1.751187309364654254e+01 1.106400530402565785e+01 2.964783644094311299e+01
-1.660409548377583988e+01 8.048933388556685387e+00 3.387967388127660939e+01
-1.585610961653544848e+01 7.886250368856550175e+00 3.504175633692770475e+01
-1.623008937847812305e+01 7.967588925405606481e+00 3.446068890873500123e+01
-1.548148372031512032e+01 7.804771647322414907e+00 3.562390226932212300e+01
-1.282906490623154561e+01 3.826809819891310305e+00 3.803060114919255597e+01
-1.704075733992409170e+01 8.707131401049739594e+00 3.289205040361445498e+01
-1.741104281963851719e+01 9.969473906690936360e+00 3.171467582055208823e+01
-1.739104040025089759e+01 1.048119529175336595e+01 3.135457664369234365e+01
-1.750077742353470356e+01 1.099715882003140521e+01 3.039748589154421055e+01
-1.732653324906659975e+01 1.177033517177871147e+01 3.011644441048892418e+01
-1.673414305991579099e+01 8.675892475841436635e+00 3.359715995026930102e+01
-1.454794013643942741e+01 6.274228573092224259e+00 3.657491483770978391e+01
-1.491271872439897095e+01 7.031155436124061353e+00 3.631528918273398432e+01
-1.327423212330533353e+01 4.603753955247944063e+00 3.782646232215479642e+01
-1.363835716340546433e+01 5.365215964796385961e+00 3.756662270955587246e+01
-1.717084448691571552e+01 9.334325858089874473e+00 3.260946886138204803e+01
-1.730090002392897475e+01 9.961507772918112735e+00 3.232695985727196586e+01
-1.638230067359227604e+01 8.640659172704520330e+00 3.429741026256556324e+01
-1.510711060572688780e+01 7.723347264399087919e+00 3.620571559662747063e+01
-1.600820976555844766e+01 8.559579616681313396e+00 3.487862143847109309e+01
-1.567878318980090313e+01 8.384335408725572591e+00 3.537863625293956460e+01
-1.436793012794784197e+01 6.884818757365188446e+00 3.704704600429586492e+01
-1.400316441868642059e+01 6.127450246314618099e+00 3.730664978571984847e+01
-1.270542795079710530e+01 4.471580927375127246e+00 3.830412616793963565e+01
-1.725765737073921713e+01 1.051940637829825498e+01 3.205222698310888063e+01
-1.738904452298775993e+01 1.098980542494593493e+01 3.100852046773757920e+01
-1.686429450931141361e+01 9.303350424378821870e+00 3.331442089187016364e+01
-1.651230249143128503e+01 9.268129419356339938e+00 3.401496337392866565e+01
-1.535321137760146293e+01 8.416991757581486766e+00 3.589637859135458342e+01
-1.473254910485572111e+01 7.641882810947845606e+00 3.678787122448294156e+01
-1.724000550720754532e+01 1.132257388253422725e+01 3.158408097591133412e+01
-1.734384696641147272e+01 1.158951703094731478e+01 3.083317549298618587e+01
-1.616030977830699911e+01 9.232908430969430924e+00 3.471552605451248041e+01
-1.569072677315545761e+01 9.024214028680459521e+00 3.543292070222526036e+01
-1.497878247642800886e+01 8.335657652458598577e+00 3.647827857893565806e+01
-1.699440606880592952e+01 9.930619886770957194e+00 3.303176914878806514e+01
-1.664252545826969154e+01 9.895112168680649134e+00 3.373209661937107740e+01
-1.712445095703125020e+01 1.055756601562499952e+01 3.274926272300100294e+01
-1.295680774546188374e+01 5.204447064028148162e+00 3.816363261999126166e+01
-1.332489944773274360e+01 6.080496789410428704e+00 3.791065230007625075e+01
-1.213460571855138603e+01 4.339524591338150827e+00 3.878226507423708114e+01
-1.418647654013310699e+01 7.514750189611651976e+00 3.726625021209890321e+01
-1.382198916452615478e+01 6.757581586131518492e+00 3.752525959484546547e+01
-1.629053911255740061e+01 9.859749456343116947e+00 3.443264818402231242e+01
-1.522494119585110894e+01 9.029213610377121668e+00 3.616885049105630401e+01
-1.677275026408688419e+01 1.052209285272525818e+01 3.344922688547051592e+01
-1.687742832910331359e+01 1.113087199289321028e+01 3.314430552315928225e+01
-1.238644881196308489e+01 5.072167803165067212e+00 3.864172667566754882e+01
-1.709299342502959007e+01 1.129631650506968832e+01 3.240112343700365471e+01
-1.439774798776887010e+01 8.202514015465823149e+00 3.710396899201864329e+01
-1.593869673827225419e+01 9.824149507939493375e+00 3.513293739363555801e+01
-1.547093860112303609e+01 9.722319334767462351e+00 3.585969026339351018e+01
-1.463673059854016678e+01 9.000026763140413166e+00 3.679506819227481884e+01
-1.642076757415033939e+01 1.048659328341483743e+01 3.414977241047086665e+01
-1.334810447441868142e+01 6.752471771356296060e+00 3.794978575847274982e+01
-1.263830317549852644e+01 5.806521168579315884e+00 3.850166993719079755e+01
-1.364081174360893378e+01 7.387712968312772688e+00 3.774427629623608027e+01
-1.606892439023680552e+01 1.045110493467016255e+01 3.485005572497404813e+01
-1.500650919520542281e+01 9.615963890647435619e+00 3.635996434644249575e+01
-1.652535468031744870e+01 1.109592178201830670e+01 3.384492616295725753e+01
-1.174534756944692582e+01 4.923403596108075320e+00 3.917876327035963868e+01
-1.286637911018785729e+01 6.535844313693272234e+00 3.836193255665861557e+01
-1.406312310277305677e+01 8.762849484072772199e+00 3.742036420678748954e+01
-1.385196876696536705e+01 8.075280611432710032e+00 3.758213755269338918e+01
-1.309445039688576529e+01 7.260609021895717774e+00 3.822255770474767900e+01
-1.571700163949010687e+01 1.041561021407326315e+01 3.555050856110756996e+01
-1.621159362248662461e+01 1.114509951698640045e+01 3.445634958369903700e+01
-1.192579394553236227e+01 5.640431591827672619e+00 3.909849238454023634e+01
-1.231989514011124243e+01 6.408084581535991475e+00 3.883963422950434108e+01
-1.525240062828873100e+01 1.030912918346235863e+01 3.605105318467145281e+01
-1.419327376563420628e+01 9.429535346933763051e+00 3.723624717606090684e+01
-1.337324922634860158e+01 7.861383562905816191e+00 3.799772233584721448e+01
-1.337939699822527473e+01 8.497582514475267246e+00 3.801504986678052944e+01
-1.585654546058511016e+01 1.122841832349243774e+01 3.514377135177848999e+01
-1.459272963805734058e+01 9.624462457877125843e+00 3.679865485859194507e+01
-1.160777641787162828e+01 6.241744561797816004e+00 3.943623612050681970e+01
-1.372853773467870120e+01 9.322559494136857694e+00 3.773684325557115926e+01
-1.289569069630198506e+01 7.852618233077693688e+00 3.841884162534725533e+01
-1.269697906130811660e+01 8.444627014249039831e+00 3.861557395205740306e+01
-1.304468207555369474e+01 9.163757215159813896e+00 3.833485367681111455e+01
-1.478807826927105573e+01 1.020271293351389197e+01 3.655140675031003639e+01
-1.636412515405516643e+01 1.162894195022769495e+01 3.407712352766269959e+01
-1.432342793753640997e+01 1.009621990245044643e+01 3.705222354468213553e+01
-1.504307476105030261e+01 1.086644263258056142e+01 3.646585750206251220e+01
-1.254794219969426194e+01 7.133650588215163069e+00 3.870029378352887051e+01
-1.121346348247834435e+01 5.474741189890997894e+00 3.969529963525123861e+01
-1.200177592156559747e+01 7.006753634439701450e+00 3.917780838875999905e+01
-1.550746089000763384e+01 1.097309129477087097e+01 3.596529880321759265e+01
-1.385841259119048630e+01 9.989802379107988628e+00 3.755280275420659564e+01
-1.599603719709331529e+01 1.204092305312601674e+01 3.473720209951017779e+01
-1.462336545531624488e+01 1.067124648673399001e+01 3.688737782511709895e+01
-1.147363907287686047e+01 6.877401767461838844e+00 3.967628955309357508e+01
-1.556433822981699500e+01 1.155815973389422879e+01 3.577170172603027964e+01
-1.234938119200896445e+01 7.725708801963546257e+00 3.889651534513082964e+01
-1.222593350517468203e+01 8.958091921615491060e+00 3.912315051807039623e+01
-1.339255132616692734e+01 9.883220502122105344e+00 3.805427035709881523e+01
-1.569650758988693440e+01 1.207323604330022526e+01 3.541455113237044117e+01
-1.422951977322047057e+01 1.068028130294295508e+01 3.734256557252071929e+01
-1.470377330216311940e+01 1.129347137088437947e+01 3.698990640491484072e+01
-1.081851334167149759e+01 4.708287410193237044e+00 3.995527660155995164e+01
-1.206727117112157366e+01 8.286287148672920821e+00 3.922176137050747968e+01
-1.288893134494546011e+01 9.756651543553713779e+00 3.853920222162123110e+01
-1.529807071878823521e+01 1.153017164643217640e+01 3.638067720765467072e+01
-1.171969762648563673e+01 7.567317892618912190e+00 3.950260920504160822e+01
-1.074875461365454399e+01 6.027964878427828133e+00 4.024720298851282507e+01
-1.049715081490989910e+01 5.297008198984536342e+00 4.037173390502061920e+01
-1.094530857534516599e+01 6.746310149525920785e+00 4.017501020127090072e+01
-1.238459822874977867e+01 9.629895205116238088e+00 3.902487594652811254e+01
-1.540273742833757353e+01 1.213949666544469785e+01 3.607581344025964398e+01
-1.376416120070458149e+01 1.057405294039623911e+01 3.784373516243653057e+01
-1.413548070290601189e+01 1.126434122457164122e+01 3.763362140472725770e+01
-1.119145365764781275e+01 7.437970735653192556e+00 4.000114819822901069e+01
-1.302481047598198671e+01 1.056666650506019600e+01 3.848715153550860890e+01
-1.165928696010370480e+01 8.815629097612111664e+00 3.966878711543750313e+01
-1.582160871263392110e+01 1.280090149198230698e+01 3.505015042634714462e+01
-1.450667718604666057e+01 1.195439998891017197e+01 3.742381897120674950e+01
-1.508840887299170141e+01 1.208741538572303043e+01 3.679701837307938206e+01
-1.367374410592960920e+01 1.143106522769179811e+01 3.806397937013639421e+01
-1.143760275227882595e+01 8.127948514789702372e+00 3.982797553487335307e+01
-1.188097294541519844e+01 9.503310224959600205e+00 3.950992455539961412e+01
-1.550740325850423140e+01 1.274882053064494691e+01 3.577096111743144746e+01
-1.487799319918028473e+01 1.264468619519933412e+01 3.721417768256491598e+01
-1.423039232943707155e+01 1.246631089052181629e+01 3.775001114963292537e+01
-1.015373567417894485e+01 5.880293358145383564e+00 4.080907838905333307e+01
-1.041647801260151418e+01 6.614714710858019764e+00 4.067425998312889845e+01
-1.045252930053650431e+01 7.180860370345235388e+00 4.069149429828491549e+01
-1.216053403445435421e+01 1.044600051745161728e+01 3.932984245591555350e+01
-1.317194251684918527e+01 1.146651394593773965e+01 3.850799597956234521e+01
-1.358335389233186596e+01 1.228807835008581151e+01 3.828564198940667751e+01
-1.077666355960406896e+01 7.966372678480886371e+00 4.045176567267168366e+01
-1.265733783642333066e+01 1.124944010424465723e+01 3.892141861337495357e+01
-1.115544895657379065e+01 8.688724331566952230e+00 4.015397765144638242e+01
-1.519293921970949590e+01 1.269678118187696469e+01 3.649185461653738827e+01
-9.887234601060258754e+00 6.483127008713600148e+00 4.117395942055549796e+01
-1.137665153736691437e+01 9.376544455535665179e+00 3.999570256293474557e+01
-1.293639870208393106e+01 1.210958729947234858e+01 3.882148856300213424e+01
-5.583821679687508421e-01 8.028784567105313741e+00 2.011071168491828232e+01
-9.750237971330816267e-02 8.481466958446995719e+00 2.032227497274153194e+01
3.557047656249999190e-01 7.982545995560109908e+00 2.017243161024454068e+01
-5.238514486573053741e-01 7.492904549103961642e+00 1.998427474626685907e+01
5.075468649243590757e-01 8.588261567151043607e+00 2.041160689321483801e+01
-1.011906424564139373e+00 8.528054784233955132e+00 2.026063398767971435e+01
-1.472469147262082334e+00 8.075023108488638357e+00 2.004897162600376959e+01
-5.513449928992802951e-01 8.981087417429638009e+00 2.047229596371585458e+01
-1.219522675630222430e+00 7.225844855642108655e+00 1.986442171971005877e+01
6.596519304131137629e-01 9.194814647979384858e+00 2.065111079202959132e+01
-1.935414655084744417e+00 8.743105260494289155e+00 2.026203320858377310e+01
-1.310176819472622878e+00 9.006716564473217446e+00 2.041618481981565481e+01
-9.685332478624429642e-02 9.640886589618052227e+00 2.075640467775605558e+01
-1.005259194791613631e+00 9.480787993550213955e+00 2.062231245578441374e+01
8.117407825953590894e-01 9.800985684002435860e+00 2.089046189238771589e+01
-1.806067765848291762e+00 9.402068612461961905e+00 2.052299621563734888e+01
-6.399530746315058582e-01 1.001556149156708386e+01 2.085233848246341637e+01
-2.606876641595500921e+00 9.323347310994929416e+00 2.042367221774531671e+01
-1.459332916940631053e+00 9.980661348397502408e+00 2.077235519413274645e+01
4.541141703868453380e-03 1.043122334841936549e+01 2.106056546505403304e+01
-2.259804762125157129e+00 9.901586553760541420e+00 2.067292040374542239e+01
-9.541005787098756352e-01 1.045551429115879394e+01 2.099138288427595000e+01
9.637672549317806148e-01 1.040692427418617250e+01 2.112971967067991486e+01
-1.912743359374999841e+00 1.047980582954876638e+01 2.092215666354459458e+01
1.513157028123200742e+00 9.972362090023070280e+00 2.104230281950361814e+01
-2.843986074701212008e+00 1.011662410383392618e+01 2.074482704590835525e+01
-4.960656059443815935e-01 1.096783425053036787e+01 2.128491690826607297e+01
-1.585438120909441029e+00 1.093673891617282656e+01 2.117705598488750240e+01
5.720446566516236286e-01 1.088224787092869406e+01 2.133291219722794452e+01
-3.333542540571306834e+00 9.238668981450516071e+00 2.036748601587183671e+01
-3.436319348654345962e+00 9.845532509341204275e+00 2.061545717311528492e+01
1.734501033100019907e+00 1.055759626373731130e+01 2.135621773136892187e+01
1.804147812964831954e-01 1.135777919440950967e+01 2.153613720143516019e+01
-2.266396230855736160e+00 1.105585629628605382e+01 2.120853126732319893e+01
1.166774513523566537e+00 1.095179645957471237e+01 2.144485682775851387e+01
2.380359416352118007e+00 1.014170223885781219e+01 2.129703921377766207e+01
-4.035275292276764070e+00 9.319828983301722047e+00 2.038060325999558842e+01
-3.328440537401707200e+00 1.033481309618959720e+01 2.082093423997687864e+01
-2.718883276012297845e+00 1.062207313638475981e+01 2.095749403584252946e+01
-1.257473520772853570e+00 1.139459249761802262e+01 2.143246501900035383e+01
-4.402840950656983665e+00 9.896384390360609018e+00 2.060831062201538799e+01
-3.963926767630442605e+00 1.033036102854032379e+01 2.080056466890229316e+01
-5.415042490876696979e-01 1.144750864122514145e+01 2.151951397104748054e+01
2.505255189247719283e+00 1.070829059511296322e+01 2.158273123767409274e+01
1.369922781341360807e+00 1.149707913154041705e+01 2.176020723266497470e+01
-1.775320522691937519e+00 1.174233989075055717e+01 2.159143384482291950e+01
1.937662356677979369e+00 1.110255377129131915e+01 2.167145708035864615e+01
3.247559210159136622e+00 1.031112215151513745e+01 2.155180582638839226e+01
-3.525012236078045369e+00 1.076433871089125027e+01 2.099281916988081420e+01
-3.072835179801827632e+00 1.119861819329567254e+01 2.124409146107707613e+01
-2.114262608346286487e-01 1.183359629470587215e+01 2.173943397871537542e+01
-9.299848464334310449e-01 1.185178166082773110e+01 2.168749985493485966e+01
-2.620657626614007807e+00 1.163289792421583435e+01 2.149535409741341496e+01
3.276052147815265325e+00 1.085900805477419695e+01 2.180925993292160214e+01
-4.770265948918958721e+00 1.047271889507504028e+01 2.083591321258930762e+01
4.846002832875185851e-01 1.217539804359340749e+01 2.200888450149269460e+01
2.708458415291707500e+00 1.125331063069020132e+01 2.189803928236542063e+01
-4.331142812032119593e+00 1.090660407452627112e+01 2.102813295720250508e+01
-5.281652027311404041e+00 1.000836452891597084e+01 2.061284056608181459e+01
2.140970462108755967e+00 1.164751280569019976e+01 2.198670191447434519e+01
1.572947412767341957e+00 1.204205215205848845e+01 2.207535634238112010e+01
-2.208425367009490881e+00 1.215087020239919902e+01 2.178615888500941722e+01
3.956870371932919017e+00 1.042004323379517317e+01 2.178266848960101498e+01
-3.878832742403669709e+00 1.134085327323792747e+01 2.127938503303874995e+01
-3.426535658131625084e+00 1.177484264848032147e+01 2.153049029437976714e+01
-6.026849809042772455e-01 1.230870720542177921e+01 2.194238428794801976e+01
-1.509897420584105143e+00 1.246736080709026240e+01 2.198425508544479356e+01
-2.974239905947121620e+00 1.220883387860310165e+01 2.178158787090297110e+01
3.229990037326853525e+00 1.135247137508924453e+01 2.207992155137331025e+01
3.911889086440668351e+00 1.113167411859036271e+01 2.214755918554281777e+01
-5.137611718749999667e+00 1.104892885891154641e+01 2.106345081476108305e+01
-5.649008187696122008e+00 1.058466282102945044e+01 2.084042989607187835e+01
1.344956616648657732e+00 1.258933133541088090e+01 2.236884687071836453e+01
-1.055039514751904550e-01 1.276711418133691822e+01 2.228017144735940391e+01
-2.418275779019739780e+00 1.262621832910357966e+01 2.202614424604449539e+01
3.183932712284823552e+00 1.184585030713671294e+01 2.235050234702788075e+01
-4.684622428663729465e+00 1.148363597179406170e+01 2.131496756224592559e+01
2.079748952876317780e+00 1.230608597826759265e+01 2.234784492147108281e+01
6.389607317702798994e-01 1.275099734460404299e+01 2.237019324601964954e+01
-5.377743404922498804e+00 1.165302104830695029e+01 2.141487575223146322e+01
-4.232653071947346746e+00 1.191736571660064747e+01 2.156591016465479171e+01
2.625659680635891835e+00 1.214175997915798710e+01 2.238526108033885365e+01
-8.501166912119431096e-01 1.281457878601895928e+01 2.222707669949214448e+01
-3.780777068955655462e+00 1.235100504254142528e+01 2.181679243691026926e+01
-3.328173511144334906e+00 1.278534175371917136e+01 2.206807062408099540e+01
3.772090921219984683e+00 1.178327100591826060e+01 2.248243094034614131e+01
-5.915059272059798978e+00 1.126809314119753402e+01 2.118955824816110578e+01
1.116838795689749864e+00 1.313686382115384532e+01 2.266242936794389706e+01
-1.844788400705898557e+00 1.304571013374621558e+01 2.230671643021335981e+01
3.918914017752785917e-01 1.322572003588423684e+01 2.261810170306200263e+01
-2.893682935803636447e+00 1.317226256019065644e+01 2.232144556644519184e+01
4.548002540564399787e+00 1.140447243234199171e+01 2.248600733333896429e+01
-6.533213181498440214e+00 1.078313750329787801e+01 2.095832348866569816e+01
2.585761653775166202e+00 1.256971952780488699e+01 2.261991680917981640e+01
1.851243482691665720e+00 1.285309860439067720e+01 2.264106844238371963e+01
3.137835206836062429e+00 1.233962844076188681e+01 2.262127067722901330e+01
-5.215648907214799346e-01 1.343977659737456953e+01 2.264907343136133022e+01
-6.154547369379941735e+00 1.187150127595353055e+01 2.154057259332630636e+01
-1.097526294925116108e+00 1.332040520660201466e+01 2.251170598465791883e+01
-4.699101123390241774e+00 1.230349236959356318e+01 2.179119784208943500e+01
-4.252388256931370236e+00 1.301145495455339152e+01 2.220139359372862486e+01
-3.532603446893680221e+00 1.333323998183065839e+01 2.240298433247829379e+01
4.486895815818298772e+00 1.206291604237157600e+01 2.284730951677659050e+01
-5.617424826831327600e+00 1.225598047676355762e+01 2.176559993399173010e+01
-6.691670041932603397e+00 1.148702087744720934e+01 2.131552568432099903e+01
2.357506692754340882e+00 1.311686757764424094e+01 2.291328737703216589e+01
3.091740650284841241e+00 1.283334509175368510e+01 2.289197668395230068e+01
8.889239767232987033e-01 1.368385896229192866e+01 2.295568488863006706e+01
1.623659450535655191e+00 1.340020946226909260e+01 2.293450827444928208e+01
-1.762525052958469507e+00 1.350637581237954166e+01 2.258350008777776452e+01
-2.459925313007135461e+00 1.355853064234078431e+01 2.257439108687065854e+01
5.184691696833242602e+00 1.167752817379257557e+01 2.282475974716017220e+01
-7.256168784380667702e+00 1.115894486714747202e+01 2.116209208408613307e+01
3.789494893194644831e+00 1.244805160863284321e+01 2.286969959722064516e+01
6.196822323450467546e-02 1.389967644060877205e+01 2.299731910602868368e+01
-4.359856863194427667e+00 1.353536298943895311e+01 2.252213284744393107e+01
-6.394429623046671729e+00 1.247483027951047418e+01 2.189149948542834423e+01
-6.931557448104391561e+00 1.209022672782491625e+01 2.166640836290838479e+01
-1.344653080083066721e+00 1.382565340751693306e+01 2.279597590306338617e+01
-2.026221909465015347e+00 1.394475042370351403e+01 2.282730307899132427e+01
-5.058359499493218614e+00 1.274596189958756653e+01 2.204895144896407544e+01
-2.881512511214810779e+00 1.391263697335403293e+01 2.278240226083613962e+01
4.451786080335185858e+00 1.268075840569115265e+01 2.323051008460487665e+01
5.149364220374518020e+00 1.229554574444108361e+01 2.320811845467663304e+01
-7.468866261048644262e+00 1.170611292905016043e+01 2.144158391931703633e+01
3.742440165392724172e+00 1.327198837863472747e+01 2.338050118910731001e+01
3.002232809388082568e+00 1.339600757306520862e+01 2.325663097368716237e+01
2.176308283580710601e+00 1.371506152369619258e+01 2.328060998705235818e+01
1.350258864240949208e+00 1.403411238185543120e+01 2.330449659073844515e+01
-7.647341454616101153e-01 1.411546562635999358e+01 2.303891161016447953e+01
-3.736803700625883629e+00 1.388052384055566080e+01 2.273748720658278799e+01
-5.175107240370819817e+00 1.323720230008005494e+01 2.233448151383442237e+01
5.704280167518889222e+00 1.200965981528879745e+01 2.322468164172374117e+01
-5.857301462285961158e+00 1.285943147352627136e+01 2.211657237003742438e+01
-8.032630834274344878e+00 1.137769393991343669e+01 2.128796800703596048e+01
7.445965001316555698e-01 1.421664321982771462e+01 2.331977160142351835e+01
-1.592027343749999879e+00 1.433140757572249058e+01 2.308049965697789219e+01
-4.429415626977555753e+00 1.404987336268354703e+01 2.283730198524364852e+01
-4.965179764248364158e+00 1.375526427805394114e+01 2.265347034826130113e+01
-3.201194586086582028e+00 1.431663014372329989e+01 2.302439173090375135e+01
-7.171441941437757706e+00 1.269343251157069652e+01 2.201725165820102603e+01
-7.708175624448696084e+00 1.230905763118451368e+01 2.179230297416354034e+01
4.490398370848164511e+00 1.315538698148388086e+01 2.354585070364702304e+01
1.811345673155604130e+00 1.438419948556932226e+01 2.365314174292068472e+01
-1.508840117690456450e-01 1.451159508517930874e+01 2.340892353864621711e+01
-2.443414721487767061e+00 1.454649674935827974e+01 2.318948477349076143e+01
-3.941242858529756088e+00 1.442844757440180459e+01 2.307234911502459695e+01
5.114039076068712220e+00 1.291346320046506868e+01 2.359131621954604086e+01
6.224088568449186454e+00 1.234193800343490111e+01 2.362478296304972503e+01
-6.634282682147525811e+00 1.307811194308962044e+01 2.224236228998959675e+01
-8.244712910345155521e+00 1.192482293624005862e+01 2.156741881509332615e+01
-7.820667087429880482e+00 1.083086915843991704e+01 2.100865336546725004e+01
2.912673797478327220e+00 1.395897215429376281e+01 2.362141624691917485e+01
-1.115917450104038755e+00 1.470280872305245978e+01 2.341369962098270463e+01
-5.609699274966145843e+00 1.384091026422211357e+01 2.270222551864966931e+01
-3.295392806718680401e+00 1.476173482835198136e+01 2.329851147851528737e+01
-6.097138156012429810e+00 1.346278004790679539e+01 2.246745115055192343e+01
-8.782119054323811014e+00 1.153970986452517522e+01 2.139053222919678632e+01
-8.570118322250625198e+00 1.099271700544796637e+01 2.111113085625458652e+01
1.205808747381236667e+00 1.456690562105143982e+01 2.366855383656841028e+01
-1.732341274953844046e+00 1.485107119482007576e+01 2.347404597732915121e+01
-4.633812510375283189e+00 1.459795326522535497e+01 2.317224320674308657e+01
-5.122027381939083135e+00 1.421922170237549743e+01 2.293710669520128675e+01
5.928922388888290484e+00 1.279379749499812746e+01 2.380810273769166230e+01
-6.732435873726104525e+00 1.366441938633763797e+01 2.263366545826729137e+01
-7.269597095909049678e+00 1.327974869800409508e+01 2.240858463322652483e+01
-7.806549798244744487e+00 1.289510786411200982e+01 2.218349791608006782e+01
-8.343115731769854548e+00 1.251039485811793561e+01 2.195832758526793782e+01
4.392837111717101450e+00 1.371044984835380554e+01 2.386882456349495030e+01
3.608129890965236175e+00 1.411613092783157342e+01 2.392752731317606774e+01
2.823096811737848544e+00 1.452202339954518528e+01 2.398619819860103419e+01
6.003028119147881814e-01 1.474960865258949383e+01 2.368393181287876104e+01
-6.399046691129570696e-01 1.507413481478167228e+01 2.374682648132529295e+01
-4.145753906249999510e+00 1.497656405884003483e+01 2.340729962908254080e+01
5.739806639090892837e+00 1.327935140755950627e+01 2.405110713070037676e+01
2.272528876478210336e+00 1.473437858153818780e+01 2.400187763923761253e+01
-8.886034260271740592e+00 1.218711863444874588e+01 2.178405901771058240e+01
5.078734594830184967e+00 1.353096426159512156e+01 2.397416636103087484e+01
5.903817374252714328e-03 1.497648883351407179e+01 2.376548517627371737e+01
-2.653764145571955169e+00 1.514378181835133219e+01 2.363843976560341531e+01
-6.187319689018374369e+00 1.400673417635380780e+01 2.284516589490416294e+01
-1.256297077795634820e+00 1.522250157708817042e+01 2.380724964986522352e+01
-9.510851364645338535e+00 1.181172763071201537e+01 2.162128364282360238e+01
-9.319569696857152863e+00 1.115456236560396874e+01 2.121360802274960022e+01
1.263526144743498669e+00 1.503894678738591750e+01 2.402761301146571071e+01
4.559602194962782962e-01 1.528286710233849632e+01 2.404824604627927442e+01
-5.699803662848800911e+00 1.438519209764569240e+01 2.308014540999987929e+01
-3.647252346637240183e+00 1.533471929811867263e+01 2.371896216339010266e+01
-4.916568625174838836e+00 1.519805436795763853e+01 2.359814637846931973e+01
2.733608091104879900e+00 1.508449510184521181e+01 2.435055030380858199e+01
-7.367752212713652327e+00 1.386606416695338773e+01 2.279987951904530163e+01
-7.904907848177481711e+00 1.348152594787055314e+01 2.257489435834007807e+01
-8.441656150986119655e+00 1.309678145918527292e+01 2.234973783462433161e+01
-9.169281708991892543e+00 1.276148447043013157e+01 2.218046950267315509e+01
-9.527999395728894427e+00 1.244967584137664396e+01 2.200091559999474100e+01
5.043393907632155226e+00 1.414903754214131837e+01 2.435728983674606596e+01
4.274129816423600126e+00 1.446061791850643807e+01 2.435512642073282663e+01
1.926771658006768861e+00 1.532828307167118531e+01 2.437129353651545216e+01
-1.638452867784636335e-01 1.544549707163244356e+01 2.407998025325231595e+01
-1.872690318393743336e+00 1.537086884863547098e+01 2.386766516959599116e+01
-5.597074125874815564e+00 1.487460830167347225e+01 2.341065663922259787e+01
5.783594692205162424e+00 1.376797869535976560e+01 2.437990170215957164e+01
3.503464476933749516e+00 1.477273624533664176e+01 2.435287342288560808e+01
-6.822917347966328983e+00 1.420857385916127136e+01 2.301151616931937482e+01
-4.225952535693473067e+00 1.545583558701027371e+01 2.381564264043116097e+01
6.523625622475371699e+00 1.338697772305763323e+01 2.440235960741890509e+01
-1.191463370890851747e+00 1.569232345284622632e+01 2.418028930549286315e+01
-1.008602429615439533e+01 1.219373301502481866e+01 2.190254577650376788e+01
1.118760570809653743e+00 1.557240147228711180e+01 2.439201201511652428e+01
3.115564921874999227e-01 1.581634502887136051e+01 2.441266726502301054e+01
-2.483440053046837015e+00 1.559405183766788916e+01 2.399923171900272933e+01
-6.277579683258333709e+00 1.455116298173382994e+01 2.322316697143694242e+01
-3.149003013542092333e+00 1.569269424074224339e+01 2.403046714802276185e+01
-5.687560188617637458e+00 1.541959556147984678e+01 2.378900774217746417e+01
6.368471079882537467e+00 1.386481710035418402e+01 2.471483060096176487e+01
3.093413620879887915e+00 1.548650312171733567e+01 2.480820957298504226e+01
4.197276507883473506e+00 1.488212218528827790e+01 2.468035721332216781e+01
3.894407106198936486e+00 1.532669804009651138e+01 2.494782272527045919e+01
2.536450767979053555e+00 1.553912607538125812e+01 2.469992144563174108e+01
-5.102370463185397220e-01 1.601377792462639960e+01 2.449291181138206142e+01
-8.003401673233359048e+00 1.406781446167740590e+01 2.296617582139407077e+01
-8.540218600445912855e+00 1.368330295027734600e+01 2.274119901137915178e+01
-9.390141430668276001e+00 1.330507592511588477e+01 2.255232418250481530e+01
-1.016912544965461684e+01 1.271188623417172359e+01 2.221748654462017214e+01
5.903232284976208888e+00 1.408917312607428585e+01 2.468858659524397581e+01
4.869323843935001506e+00 1.465811491627956187e+01 2.472246663393439192e+01
1.827932317997841283e+00 1.570858118063505771e+01 2.467922393638053791e+01
-2.012779752826108215e+00 1.588970080118705575e+01 2.426052672708508950e+01
-3.758157231394275488e+00 1.575581254735922165e+01 2.407726276766323537e+01
-5.053377375219791467e+00 1.574890027374037338e+01 2.406756921377095892e+01
-6.913428214658286386e+00 1.475296539964284293e+01 2.338948866850048702e+01
-7.458515068365581868e+00 1.441041564919223994e+01 2.317786327787753464e+01
5.431011876308037500e+00 1.456185681808137033e+01 2.485708486251236948e+01
-6.367901324589150036e+00 1.509596521206944075e+01 2.360138739977016087e+01
-4.306121978460033972e+00 1.593493693208488260e+01 2.422381950391359595e+01
4.695336866728795577e+00 1.516689167011331563e+01 2.508738380164054860e+01
2.339302172957956838e+00 1.599369435389558447e+01 2.504921746340253819e+01
-1.331540506603023699e+00 1.621109400381604360e+01 2.457309693742004342e+01
-9.181321974114171169e+00 1.394579257640394765e+01 2.295793028770976818e+01
1.504857490076423776e+00 1.609788781571803540e+01 2.494169897526497692e+01
6.705278569171145842e-01 1.620208011930481362e+01 2.483414466871053605e+01
6.635558802932937927e-02 1.632128465264508677e+01 2.484166891089090257e+01
-2.650914806311854388e+00 1.605055247780287075e+01 2.434187005947320159e+01
-3.556606509924828963e+00 1.618238480153321390e+01 2.444387589146542794e+01
-5.960388058636235442e+00 1.595409466781617169e+01 2.424487264949467402e+01
6.213302651071993310e+00 1.434265672253886947e+01 2.502724395450012551e+01
3.453173858063498525e+00 1.588846375153059043e+01 2.526581308827935146e+01
-2.152834116860935065e+00 1.640840520194944929e+01 2.465326765593925273e+01
-8.638721559516257642e+00 1.426945999927493425e+01 2.313238116055345017e+01
-1.026734258102963437e+01 1.329796035500763018e+01 2.260869007336416558e+01
5.242471583437602334e+00 1.500772312003915587e+01 2.516301454024456774e+01
-6.458272190529752876e+00 1.564105618122091990e+01 2.397977153756727375e+01
-4.852120364332898284e+00 1.615799505123192148e+01 2.441530930215017392e+01
4.521373025507388732e+00 1.567553894841462636e+01 2.545216735096652627e+01
-8.031121187833137887e-01 1.649273596497844707e+01 2.489255678189898902e+01
-8.094173212259899941e+00 1.461200408290794073e+01 2.334403437551089056e+01
-7.549279154704596984e+00 1.495476637180732205e+01 2.355580511963096058e+01
-7.003181411221720332e+00 1.529828640108464732e+01 2.376802791725554087e+01
-1.081025757557633860e+01 1.297409742875365701e+01 2.243405885738778949e+01
-9.724392713224935036e+00 1.362184121008694859e+01 2.278330349704456381e+01
5.819015168044102460e+00 1.497508545734668850e+01 2.535737604118832422e+01
-4.386294724961077307e+00 1.641405880769082515e+01 2.463199432119282051e+01
-5.462504083696903656e+00 1.626713307401260522e+01 2.450997387099783253e+01
2.141989720459435365e+00 1.644859596664538159e+01 2.539874439773996784e+01
-1.781792215848171379e+00 1.676481282749152868e+01 2.502164330694975192e+01
-9.939599734475029535e+00 1.403141663393010319e+01 2.314050892092419431e+01
-1.075407438591303588e+01 1.354550343153768743e+01 2.287854830012525298e+01
1.029088277735256352e+00 1.658737380703382769e+01 2.525513904287043943e+01
4.176577285985984545e-01 1.664707617330276435e+01 2.520590316649617080e+01
-2.923862503374971666e+00 1.657001521337891603e+01 2.478227040821717253e+01
-3.695049376663798846e+00 1.673166014384013423e+01 2.491127670306051911e+01
-6.449554101562500641e+00 1.606647471210951750e+01 2.439073673610636916e+01
3.813429787337260901e+00 1.629097784211085909e+01 2.572404585707417723e+01
5.363888796164085093e+00 1.553157496997113718e+01 2.565452199350033169e+01
2.977743533142740873e+00 1.636978714509544730e+01 2.556141190863473867e+01
-1.785668329617969285e-01 1.682564938593564108e+01 2.527016208900947802e+01
-9.287193887684722426e+00 1.459945006851349270e+01 2.349202235944341055e+01
-8.569585780620682769e+00 1.477990648824190778e+01 2.356042328052895840e+01
-7.092436623270142348e+00 1.586517142854267526e+01 2.426850902683192857e+01
4.347380118439424734e+00 1.618421161978167433e+01 2.581693197297337505e+01
1.388128314655050266e+00 1.697313307774529889e+01 2.567664150110881138e+01
-2.364531933560447108e+00 1.684520577586318879e+01 2.505516363581337558e+01
-8.070712357878946364e+00 1.506167342396934572e+01 2.372677194140895196e+01
-7.766490211479077033e+00 1.550247430715700503e+01 2.405925681373671310e+01
-1.140148894943003199e+01 1.338482023818890987e+01 2.287474202321640959e+01
-1.004931234207959889e+01 1.447556005998619533e+01 2.350913575099793462e+01
4.738922142486415301e-01 1.708800910700275466e+01 2.562691045248078225e+01
-4.964557021243273027e+00 1.658021128562978319e+01 2.477510897508481946e+01
-4.466497656249999615e+00 1.689335900788088196e+01 2.504030296137765177e+01
-6.440836369062681754e+00 1.649189227084024267e+01 2.480169004138900490e+01
5.059137221044068156e+00 1.597232825348438290e+01 2.591128765990523064e+01
-3.208174185675335632e+00 1.706965675365790602e+01 2.524075961285294767e+01
-1.000694517266282668e+00 1.686361606207825048e+01 2.520552947212796369e+01
-8.500382484526765481e+00 1.529085571261060927e+01 2.398884799039493032e+01
-1.069787931990426166e+01 1.411703635761698550e+01 2.332308903949897427e+01
-4.100203892225064095e+00 1.720907830710179809e+01 2.534554793903331671e+01
-5.698337057580830312e+00 1.674877622989412629e+01 2.499389602703105240e+01
-7.004948556475056876e+00 1.642783650918305938e+01 2.480345397977608002e+01
4.173304631119776786e+00 1.669306485928200701e+01 2.618179176910199857e+01
1.944590428500521995e+00 1.690365427184265457e+01 2.574836834649390482e+01
2.655739872936000001e+00 1.675424215839394648e+01 2.581357573535690619e+01
3.364661431045363749e+00 1.691497220361467413e+01 2.615391414274423809e+01
-1.410737124972187617e+00 1.712123277053337489e+01 2.539002878301577226e+01
-2.005934723397634123e+00 1.714669645458478797e+01 2.537009941771912480e+01
-4.234553903210750425e-01 1.732994628173196006e+01 2.569857942645890603e+01
-9.218380351880112400e+00 1.511032888163050281e+01 2.392045865398562654e+01
-7.727169083069154176e+00 1.608948849372734458e+01 2.455749903546253776e+01
-1.143225855410694081e+01 1.254675351544585027e+01 2.228826626020874357e+01
-1.128759004189827309e+01 1.389661744222620143e+01 2.325996938264529490e+01
4.979798528894915144e+00 1.639558395496916177e+01 2.624001568248306171e+01
5.787344767669746481e+00 1.609768807004559577e+01 2.629824866206584488e+01
1.747140646092320004e+00 1.735878571841051254e+01 2.609802672498688025e+01
9.407458445459659924e-01 1.751751346880579163e+01 2.610773160288907491e+01
-2.576241520115449823e+00 1.728203093307541849e+01 2.545706347279669046e+01
-9.051600796053438813e+00 1.555114533140421607e+01 2.427725621572681192e+01
-8.431098781948815457e+00 1.580239346995868210e+01 2.441772948892172224e+01
-1.202330494670433758e+01 1.295403564232670313e+01 2.272880587638871930e+01
-1.199200966557045867e+01 1.379202317773826358e+01 2.331489219198900997e+01
-9.936377798118574134e+00 1.492979740873099281e+01 2.385205332752929763e+01
-1.064169291910245185e+01 1.468847280004296429e+01 2.376750994276463658e+01
-5.118806129059525922e+00 1.704315168797706903e+01 2.523474312699426036e+01
-4.617305755011787305e+00 1.727274525193892885e+01 2.541599634891469606e+01
-6.432118625151423075e+00 1.691730824297632196e+01 2.521263161588223056e+01
2.556399270697137460e+00 1.713675365160964148e+01 2.612600616299875966e+01
-3.141983558272266386e+00 1.745716976095466322e+01 2.560450365633009184e+01
-1.039514299960714983e+00 1.747781378965072818e+01 2.575857780948549447e+01
-1.934966812554536952e+00 1.754985256643324831e+01 2.576083573002512139e+01
-1.130768906364100879e+01 1.433778923533276384e+01 2.361536809602844045e+01
-3.733613326728896009e+00 1.752505374476106681e+01 2.565104045322128457e+01
-5.771201833976365769e+00 1.719296318500130738e+01 2.542919276788081007e+01
-7.715247019262692518e+00 1.665699995246531273e+01 2.510566950198223068e+01
