1.060821836978131216e+01 1.572308869068617732e+01 4.315775254730855437e+01
9.846754601712119026e+00 1.590040761958533366e+01 4.311331459803557209e+01
8.613807271337888594e+00 1.530570067591864536e+01 4.402359572741675464e+01
1.189534897753988574e+01 1.528345347883074545e+01 4.281809974082001702e+01
1.330289646737396403e+01 1.467148136339406861e+01 4.236348856239221305e+01
1.275414090943647416e+01 1.489344522654329239e+01 4.251899121846904706e+01
1.260137383549881029e+01 1.503827471661161397e+01 4.282115689473353370e+01
1.566486505026998266e+01 1.397874421430002556e+01 4.170771597068690539e+01
4.674122879642887085e+00 1.350610371406040144e+01 4.499482112940366818e+01
5.464902448649692879e+00 1.374509084855922580e+01 4.497657179730548904e+01
3.925419523710210967e+00 1.316699705079288840e+01 4.500261353598074976e+01
1.859533180778892714e+01 1.298291630006313824e+01 3.992067730636533440e+01
1.535029699592745267e+01 1.384614926249250466e+01 4.204061998933504896e+01
1.691556504693945229e+01 1.353998472955428412e+01 4.146488759916728384e+01
1.014085142653337535e+01 1.535468518192403842e+01 4.389218533806609202e+01
9.394770103288223595e+00 1.542188488695611248e+01 4.399432744926355809e+01
1.025898228915452925e+01 1.534404447605017374e+01 4.387602013287644809e+01
8.616617688857379775e+00 1.494222775338065112e+01 4.446640625417627746e+01
1.128292528480538337e+01 1.549052799740469943e+01 4.307440182509081694e+01
1.395298299077625792e+01 1.440429333044690274e+01 4.228127009913180245e+01
1.425545543640473767e+01 1.426836191590408021e+01 4.250141292996826081e+01
1.350437900818067938e+01 1.458086747949664286e+01 4.251020511141747704e+01
1.265625651109275296e+01 1.499943147971022839e+01 4.267608802436269855e+01
1.195757152311042759e+01 1.525804167138462120e+01 4.299105465370000445e+01
7.839257352778698618e+00 1.446307061604260191e+01 4.493204242347705701e+01
1.610417673892884594e+01 1.355576815203560415e+01 4.188242069618127772e+01
7.117066545675711176e+00 1.390774515858946891e+01 4.541033948729644010e+01
5.531314898332168717e+00 1.342924335197017705e+01 4.544887299695857052e+01
4.158240986325411725e+00 1.288320210069431937e+01 4.550613726568187900e+01
2.008193240979860050e+01 1.072180889215678157e+01 3.871796231540631084e+01
1.998956156334199719e+01 1.124463574838397051e+01 3.928654067283309104e+01
1.905658079960345930e+01 1.257602823273608905e+01 4.039241491000795747e+01
1.857743853420141633e+01 1.305968454845945814e+01 4.033904980688931374e+01
1.833069420482793177e+01 1.316640739272876637e+01 4.058939142946068301e+01
1.757924909560617621e+01 1.334719724495414184e+01 4.120273892536771854e+01
9.297731491422903005e+00 1.466400040784633063e+01 4.483431068405669606e+01
1.007551180049869188e+01 1.514368718778908551e+01 4.435904838088213609e+01
1.129773173929634922e+01 1.545571820766582327e+01 4.339881149463790422e+01
1.013967157339806135e+01 1.526514279208245917e+01 4.405260008868319233e+01
1.516530578405034291e+01 1.388998026459423762e+01 4.234156760608927783e+01
1.330815887001185338e+01 1.479290707331240462e+01 4.282421447177843987e+01
1.263240954365479674e+01 1.502556770295671029e+01 4.290768228263647188e+01
1.685828479759418741e+01 1.326550678845430653e+01 4.172423657013021625e+01
6.395735498287588250e+00 1.335255540485554704e+01 4.590049740170707082e+01
5.022945235605439152e+00 1.280631387044726388e+01 4.595738616898744056e+01
1.974137090549825757e+01 1.177622262589529001e+01 3.962637492355026581e+01
1.946402796940009949e+01 1.211164943070954081e+01 4.001657937857181224e+01
1.002757872441764420e+01 1.476452109612298003e+01 4.478346846364302536e+01
1.112313914644093771e+01 1.526621970630465164e+01 4.375779336289959076e+01
1.128746449621255721e+01 1.533582787879976728e+01 4.359817261712777992e+01
1.136986550988359923e+01 1.545264316290317907e+01 4.317265340739346158e+01
1.088491327903493122e+01 1.510834583644387763e+01 4.411082888877226083e+01
8.568232717366472073e+00 1.456347788054571524e+01 4.488282086015535555e+01
1.213133862833435295e+01 1.518229277873440353e+01 4.318754303607959599e+01
1.198710456870495200e+01 1.518842553778072002e+01 4.363965548103789871e+01
1.499406021629182639e+01 1.395596372091098836e+01 4.249261560597049225e+01
1.391961395213986918e+01 1.450553821094225881e+01 4.273916635991388091e+01
7.119638421414030027e+00 1.353932215246700999e+01 4.586303916991788299e+01
7.842622513515784100e+00 1.372590573529445734e+01 4.582555444397994648e+01
1.573429749965449354e+01 1.364336359250149933e+01 4.248380361577900288e+01
5.709584139577744466e+00 1.307948835658885045e+01 4.592893566015381879e+01
2.014914074393815113e+01 1.115039312906339575e+01 3.977744738081845810e+01
1.856211699368105883e+01 1.278920674827603321e+01 4.089327291871033765e+01
1.818630209672342346e+01 1.287953086355961574e+01 4.120000309088441526e+01
1.750304632812734695e+01 1.298109147824731657e+01 4.154861530626710220e+01
1.002501347495803685e+01 1.448255667938054003e+01 4.523797590533971658e+01
1.075858232676734438e+01 1.486522775399909868e+01 4.472881587442449103e+01
8.564002307120830437e+00 1.428142725205135655e+01 4.533641712164724424e+01
8.565647352639938816e+00 1.391255283186476532e+01 4.578793461905402040e+01
1.289293555033405170e+01 1.491194503556353546e+01 4.320242505459580684e+01
1.264656795401345413e+01 1.496651735133481687e+01 4.352903665492413410e+01
1.453146092142064383e+01 1.421830686760341500e+01 4.265412664675557153e+01
1.512124772296733077e+01 1.390221862336066394e+01 4.249110189281124406e+01
1.397663168612794671e+01 1.447306739772774797e+01 4.282904020372239273e+01
7.281040002897836594e+00 1.326086952258335216e+01 4.624874921919937520e+01
1.629616157222801220e+01 1.345441689400738028e+01 4.210409924636950052e+01
6.051033565170947703e+00 1.283937442520845806e+01 4.636046193012938943e+01
6.934005388903054623e+00 1.274727549865941434e+01 4.670837008549444391e+01
5.705632226318273936e+00 1.232596375401936228e+01 4.682022675013443802e+01
2.037939075646600529e+01 1.062942511358358999e+01 3.938312265360473674e+01
2.032331681984075544e+01 1.015206342026899300e+01 3.848182257574015352e+01
2.054619642774222044e+01 1.008318060646760905e+01 3.898075770118016692e+01
1.988336722144496704e+01 1.169221129518026814e+01 4.006259507798286990e+01
1.954203775404610255e+01 1.209168492960404073e+01 4.044576729914160040e+01
9.289844606605086597e+00 1.409955258635128494e+01 4.575000355184258893e+01
1.129976192878236319e+01 1.525031482891226986e+01 4.373363723329519814e+01
1.237586549817934056e+01 1.479470611414952685e+01 4.422704672483422428e+01
1.163024893556587536e+01 1.495154748555538404e+01 4.416897776104333673e+01
1.264849122458860187e+01 1.492448150963507381e+01 4.367034823753473916e+01
1.513217180245797522e+01 1.393086980051223733e+01 4.256899161843089985e+01
1.386294425662563157e+01 1.458192301809113545e+01 4.302838598160808914e+01
1.365537663832442306e+01 1.464136991936500820e+01 4.321731251503771176e+01
1.279673671265338619e+01 1.491599250503782770e+01 4.350385334816729710e+01
1.360699395092764696e+01 1.464344874054776646e+01 4.336798527886784171e+01
8.726930967829146013e+00 1.363424725558507333e+01 4.617420321694450536e+01
8.164195771085989151e+00 1.316939803354764393e+01 4.659649304874472620e+01
6.319733686729496647e+00 1.253656572735461339e+01 4.676428931608690931e+01
1.646375914489084380e+01 1.327381378733718442e+01 4.229531837950173667e+01
1.739019072295188195e+01 1.290057305184530634e+01 4.182168376117499520e+01
1.941135268020075344e+01 1.201004687122565606e+01 4.084798976162706197e+01
1.879593231775003659e+01 1.241206689214684289e+01 4.119708674341036669e+01
1.814831417491887677e+01 1.269656081421501170e+01 4.137286918600729990e+01
1.836123463051325189e+01 1.247384930819975324e+01 4.155789189477079049e+01
9.455534062991336697e+00 1.344042386034091585e+01 4.646939057561554165e+01
1.001978052405418040e+01 1.390596841150427743e+01 4.604607663283689334e+01
9.951053809667627092e+00 1.416791117501718666e+01 4.568267072867848100e+01
1.061203522306204405e+01 1.423627849651979105e+01 4.561605230994182847e+01
1.141891898913567260e+01 1.480157914287305765e+01 4.460435744817978332e+01
1.127238980880368580e+01 1.430461237637832639e+01 4.555362177056782969e+01
1.255395320195238007e+01 1.491331523113314894e+01 4.396243504868185425e+01
1.233368663005789401e+01 1.471361328196742768e+01 4.443293271339009465e+01
1.464558727549461636e+01 1.415341400021462981e+01 4.283385553211830654e+01
1.441747982646420745e+01 1.437104668856428447e+01 4.323217809476275875e+01
1.331041883968890716e+01 1.466034589331607130e+01 4.370103372648663509e+01
7.549082247943662338e+00 1.295830798833083364e+01 4.665241431976497211e+01
8.809853580050281963e+00 1.330489314788082211e+01 4.653294111881034212e+01
8.140291324395722228e+00 1.267548661732100257e+01 4.702356008129151377e+01
8.853048684663988865e+00 1.305481195728502186e+01 4.673566113443727943e+01
6.509194773741343809e+00 1.227785497132843240e+01 4.703022815335998530e+01
1.719258513725216986e+01 1.290489267867847900e+01 4.210709801756205195e+01
2.030886044528766732e+01 1.105594057384171336e+01 4.026823983700552390e+01
1.010251739769128676e+01 1.357625758025325169e+01 4.640570649617693988e+01
1.074992452204909377e+01 1.371220970931817185e+01 4.634195663919563657e+01
1.023068875117562548e+01 1.282564157989532028e+01 4.701415958072327328e+01
1.049044922570519489e+01 1.326897031961170725e+01 4.667807664051427707e+01
1.141560585458994304e+01 1.471290506293667555e+01 4.478848310572235647e+01
1.134633265612275999e+01 1.461892922060815536e+01 4.511474230085521953e+01
1.154553265058068057e+01 1.478940393796122521e+01 4.458059645969133555e+01
1.530536411400081498e+01 1.383338017413184851e+01 4.283866397594787401e+01
1.516226861106182433e+01 1.397853814481009138e+01 4.310425326187163364e+01
1.397266659419771351e+01 1.439611343174487068e+01 4.373169419086721632e+01
1.312166350630455725e+01 1.463784743331525107e+01 4.428557771984461056e+01
7.312312061797627827e+00 1.222979944684245979e+01 4.724022128288638100e+01
8.821721654934737700e+00 1.239655712445389746e+01 4.730485061368784727e+01
5.866183939965167404e+00 1.180268082387715545e+01 4.731751609125166880e+01
1.596503010739729689e+01 1.351337869198359520e+01 4.284346344050321420e+01
1.618001127966341102e+01 1.341830139284113521e+01 4.266625659826423345e+01
2.002541328484644012e+01 1.160819728766084502e+01 4.049893762437348954e+01
1.931730462774763168e+01 1.184589145062768800e+01 4.125575823094246175e+01
1.792638663020586520e+01 1.253570201015283025e+01 4.191869051555651282e+01
9.541552261673224677e+00 1.294028393935589705e+01 4.687481331582315391e+01
1.134149360503932158e+01 1.404277696298880329e+01 4.591264099414563304e+01
1.207205014806307197e+01 1.456072693690316910e+01 4.484811612827929395e+01
1.512307094276944319e+01 1.396061137448222844e+01 4.324672773223488065e+01
1.589311370612684904e+01 1.358587350541117544e+01 4.297624401876491618e+01
1.463423701264849264e+01 1.413219260210634864e+01 4.376227724054302826e+01
1.727408883422397778e+01 1.286437122201190775e+01 4.238331285042706753e+01
1.384652027893889503e+01 1.438120765758780450e+01 4.412093194634828563e+01
8.116040394829406424e+00 1.218172713020949693e+01 4.745050159531560041e+01
7.419077156003584861e+00 1.188078883218611459e+01 4.757186898414776266e+01
6.723065408344587546e+00 1.158034235247792942e+01 4.769314970824682121e+01
1.662565237256165318e+01 1.319335140424056085e+01 4.284825190397025807e+01
1.097542859563544937e+01 1.292522274234359081e+01 4.686510236527539064e+01
9.525912656902468356e+00 1.261098460527571419e+01 4.715954816757265178e+01
1.193206882380463973e+01 1.437290779146631792e+01 4.549148631592204595e+01
1.146447984035848400e+01 1.369743352710649908e+01 4.622516860081973533e+01
1.160846137251862409e+01 1.341855977596333460e+01 4.645379449932249116e+01
1.172061809760295326e+01 1.302583379116652296e+01 4.671559571997283911e+01
1.246534369812064291e+01 1.312726298327126884e+01 4.656558517814801235e+01
1.272803897524222805e+01 1.440866797381243103e+01 4.490772140579343130e+01
1.251652778481671824e+01 1.429853326586411555e+01 4.536296090399454073e+01
1.529617159262023662e+01 1.386818688030818159e+01 4.379282310419445423e+01
1.582888860916618157e+01 1.355007513733177404e+01 4.326076622687971707e+01
1.457108771011558979e+01 1.412472788323265860e+01 4.395690906588228586e+01
1.379818182724529940e+01 1.430837916591060655e+01 4.430990278262635940e+01
2.040876597875571719e+01 1.099643897175646146e+01 4.061624920749083856e+01
1.993145476887427492e+01 1.144378830123705448e+01 4.090648203082972145e+01
1.856358533754890416e+01 1.211712655255059445e+01 4.171729849072281127e+01
1.920101680601630534e+01 1.169798570765706636e+01 4.151559407066256568e+01
1.733085696284541655e+01 1.269103174632577158e+01 4.264307858873463886e+01
1.091375617568226986e+01 1.270361746789035706e+01 4.713001796272224198e+01
1.039774954033188337e+01 1.240997477610952160e+01 4.745630310821069031e+01
9.748861570625248163e+00 1.205663568220223070e+01 4.774932771711303303e+01
1.218516345738017570e+01 1.368929831393780461e+01 4.610903945427501327e+01
1.246623509958721598e+01 1.420628823025735343e+01 4.549695168493320097e+01
1.447524270624930764e+01 1.397942802297063736e+01 4.433457739981214729e+01
1.804293973796501405e+01 1.218912596729657771e+01 4.243803011181393714e+01
1.357910813410813233e+01 1.437109608423218710e+01 4.465564242789207583e+01
1.338448208716143562e+01 1.425651601808200830e+01 4.496739173095244979e+01
8.932725931799819108e+00 1.211915438492338559e+01 4.759994196147777501e+01
1.983743826629777374e+01 1.127935313861260980e+01 4.131409258027983356e+01
1.834040710847865085e+01 1.211145368540634770e+01 4.207605793644331271e+01
1.653515175308490015e+01 1.313933842059186219e+01 4.327423676644298922e+01
1.159680625583095903e+01 1.258160181216027773e+01 4.723304444770577248e+01
1.228033269591422894e+01 1.245951075278742692e+01 4.733268033617777348e+01
1.241506220426849794e+01 1.402262490174020471e+01 4.574107425923362058e+01
1.263487514296454606e+01 1.428347330203799537e+01 4.533699871606760468e+01
1.515376635055770649e+01 1.365056829798968430e+01 4.435960302086141382e+01
1.333784364236329800e+01 1.419399484923236798e+01 4.518374260178175206e+01
8.496433432362561433e+00 1.171320933559207589e+01 4.798519192955640023e+01
7.450864869967605664e+00 1.126230569274158455e+01 4.816690728586512193e+01
2.028313589606312561e+01 1.077747093878457640e+01 4.115969455831109514e+01
1.929524269252015500e+01 1.148343759941439934e+01 4.177377942073806594e+01
1.875349271047793920e+01 1.168738090311266120e+01 4.223301029089918757e+01
1.594423248002610372e+01 1.348854145214120059e+01 4.362432644938986215e+01
1.724208812341309383e+01 1.272837161519965221e+01 4.328881185506692475e+01
1.113672866084030488e+01 1.214926920306091063e+01 4.772054378998144841e+01
1.267975284836522931e+01 1.340462457201176072e+01 4.627786636714002100e+01
1.288333801512307630e+01 1.251642137459778681e+01 4.709008221425440155e+01
1.291637441583021406e+01 1.368658579178616463e+01 4.599318314489825354e+01
1.404002862370377969e+01 1.410458030919535943e+01 4.502701316065144965e+01
1.463346061902357853e+01 1.384360928941257818e+01 4.481071759319735293e+01
1.774375674041182549e+01 1.238139731311448877e+01 4.293711900285391181e+01
1.262063489586390830e+01 1.415827352534232730e+01 4.549855839380965250e+01
1.331236018541240540e+01 1.394383456767718954e+01 4.550597352265188533e+01
1.350062945063334929e+01 1.362589942076424165e+01 4.583448112450439282e+01
1.365658547467682027e+01 1.340266498167473053e+01 4.601836203275239967e+01
1.311658776050094311e+01 1.312627022025902335e+01 4.639109106047892084e+01
6.738888646096238944e+00 1.127093668569575691e+01 4.799085497260371369e+01
8.163260618461681162e+00 1.125368413841158244e+01 4.834312621009895850e+01
1.659267205154435132e+01 1.310869684612947239e+01 4.345578278666069139e+01
1.170915835357162216e+01 1.230450924451726635e+01 4.752725704948425545e+01
1.144880608394276145e+01 1.194430925849327707e+01 4.819539842893193793e+01
9.439072093155614240e+00 1.149480101697358236e+01 4.831247225682751889e+01
1.056448660118591043e+01 1.199415719958143001e+01 4.789868738307958296e+01
1.585841342194683712e+01 1.347076515180385492e+01 4.377398928240390319e+01
1.523299966766833791e+01 1.358252925740801587e+01 4.459711681377898884e+01
1.460007406429726373e+01 1.379357969684828689e+01 4.499896654671442064e+01
1.824709662181331282e+01 1.203441891517154794e+01 4.258565060197058472e+01
1.376790895855328323e+01 1.312522747824213987e+01 4.621695596896296365e+01
1.327895995352445269e+01 1.287826955724656663e+01 4.659023443693351396e+01
1.441902443317080262e+01 1.312413370924055478e+01 4.604950748600160892e+01
1.408845600824638922e+01 1.263052921352057645e+01 4.660796586852259793e+01
1.348623028643690347e+01 1.257344534435958749e+01 4.684585648973808958e+01
1.306078072978135118e+01 1.234805190654550167e+01 4.749196824922050553e+01
1.000167082728262713e+01 1.174440361556476375e+01 4.810560818487932977e+01
6.654292784147123108e+00 1.074603595593859673e+01 4.845052667706102056e+01
2.023998587073641175e+01 1.055495281570713395e+01 4.145103354328199430e+01
1.938347118765646826e+01 1.106808822060349584e+01 4.201788165838377864e+01
1.642316634427243471e+01 1.307302036779830701e+01 4.375639989779654115e+01
1.491024913378409344e+01 1.256967140821658546e+01 4.628356695074142380e+01
1.507852186666127992e+01 1.281657635228741654e+01 4.600429665519411770e+01
1.232938144634840505e+01 1.189451259954213747e+01 4.849189113934765061e+01
1.583310859358773470e+01 1.332213494669100484e+01 4.438492434726325087e+01
1.400681607016448460e+01 1.372945072697841340e+01 4.551406601399800422e+01
1.413518967222570666e+01 1.368990344951386007e+01 4.551568675377574635e+01
1.409726969682751552e+01 1.356845048679380028e+01 4.567827966894346048e+01
1.516989964760962195e+01 1.348206693248972421e+01 4.497145958397509702e+01
1.470461290836262513e+01 1.351475682399197709e+01 4.552309015999349384e+01
1.788455423436257163e+01 1.219402703054740655e+01 4.311511852146800550e+01
1.383317865523771673e+01 1.223676750630060184e+01 4.763604509741185211e+01
8.876047914218542445e+00 1.124507300372902741e+01 4.851951783199997692e+01
1.074429259134385006e+01 1.161841140912972037e+01 4.859777465643716710e+01
7.812368131357729339e+00 1.055703866498810228e+01 4.889679608710935810e+01
1.473048035508080034e+01 1.246477635179337362e+01 4.668862845794490113e+01
1.698985355913851336e+01 1.267521499953842046e+01 4.374209812401978326e+01
1.308182303734183094e+01 1.206574732622840251e+01 4.806386050831142853e+01
1.550116154207863417e+01 1.318717653770503340e+01 4.521926266444104670e+01
1.522532295022422311e+01 1.292687791104477490e+01 4.576367263203861313e+01
1.574199484827409989e+01 1.317094832885346456e+01 4.494434615741151617e+01
1.852409816029758360e+01 1.166004948405922903e+01 4.294287584928140689e+01
1.755716284155820617e+01 1.227814195991306079e+01 4.372886022720361865e+01
1.459515745135279019e+01 1.226788316574311111e+01 4.720179064177251149e+01
9.559612877227806393e+00 1.124417430633547532e+01 4.877907185953994684e+01
1.024117268520248913e+01 1.124332657283181547e+01 4.903828372238012179e+01
8.343968357226522414e+00 1.090084891223402508e+01 4.870822415026150765e+01
7.280791867685548979e+00 1.021337945754474674e+01 4.908539253695249016e+01
1.640722185752842321e+01 1.297419416021026528e+01 4.416563646174535762e+01
1.573352853229103410e+01 1.250893117304211444e+01 4.595911277875580225e+01
1.535773737830964336e+01 1.229902786199831510e+01 4.676547465174022733e+01
1.162403590123338404e+01 1.156805475790521243e+01 4.889521446396070559e+01
1.536563580661303341e+01 1.312208194268463934e+01 4.549493378334558003e+01
1.809847251996594863e+01 1.189416364133842130e+01 4.340552943567420385e+01
9.256122834647285913e+00 1.079810448525650024e+01 4.926510337574049458e+01
8.066483946050841070e+00 1.025924664767576466e+01 4.939383410027209464e+01
7.915999615607166362e+00 9.719993871778763506e+00 4.984666445978109550e+01
1.916391449999999708e+01 1.112619705727646391e+01 4.277032620081578784e+01
1.863113128442740063e+01 1.151017763326110810e+01 4.308760842027923843e+01
1.631624282855504759e+01 1.285967626828407440e+01 4.491747999992481510e+01
1.637182325849591891e+01 1.293514084663537922e+01 4.433408084813962802e+01
1.698277983435640692e+01 1.262562193126964338e+01 4.394671036013119192e+01
1.654327880252277083e+01 1.281206086177113868e+01 4.431794847677738147e+01
1.714189664705167360e+01 1.232593305901456127e+01 4.454969744789840291e+01
1.609961223945249387e+01 1.219635201486473441e+01 4.634726270343841747e+01
1.725456578013724496e+01 1.230201724217308801e+01 4.425124360034364202e+01
1.569435298255831057e+01 1.310782202398408636e+01 4.514605213716551191e+01
1.602899114864324659e+01 1.272975394633155055e+01 4.546755788794848741e+01
1.815683245624071418e+01 1.177500905234898987e+01 4.355959339348640924e+01
1.092056206274844854e+01 1.124251936496027682e+01 4.929733428361942771e+01
6.473787153587780452e+00 1.018119487371630072e+01 4.884955742050073724e+01
6.901379793376394289e+00 9.792354329992667417e+00 4.925745435091803870e+01
8.850346895896235466e+00 1.030524459827062778e+01 4.970213790640538321e+01
1.677328416610463080e+01 1.237350783814411770e+01 4.515650803510518330e+01
1.691642453327895979e+01 1.243862997264767145e+01 4.488182021271168765e+01
1.645836848944814079e+01 1.228346233622653472e+01 4.564005820735776808e+01
1.684013749999999732e+01 1.209386877607837896e+01 4.594167745218172172e+01
1.718229416138562016e+01 1.205818430357345683e+01 4.532113191757510151e+01
1.660613725160076015e+01 1.239400099384341303e+01 4.539944331630284324e+01
1.796794882231178292e+01 1.179163585876944076e+01 4.418466830201717244e+01
1.751998370426619900e+01 1.201757120279179780e+01 4.484627276520163974e+01
1.027590094419293898e+01 1.079692397518735625e+01 4.965374364289783671e+01
9.087409454552688004e+00 9.788180186948945760e+00 5.030947226316895637e+01
9.631070745324549875e+00 1.035132722287226592e+01 5.001018190871361213e+01
1.751771074250481419e+01 1.183086743823616338e+01 4.559807152110075634e+01
7.747348599528122826e+00 9.134292676703084979e+00 5.027275841045142357e+01
1.781276642897090312e+01 1.170104747083546748e+01 4.502040685872902515e+01
1.788408984655319856e+01 1.171882670158089290e+01 4.527228038187998038e+01
1.815355752189912408e+01 1.151223801374487365e+01 4.453982095915840489e+01
1.798332550695988630e+01 1.168070716270264242e+01 4.477291873794642640e+01
8.544623995686507101e+00 9.226186593925174151e+00 5.060821121005236733e+01
6.946305293903209943e+00 9.042606137837362112e+00 4.993719159488191650e+01
1.792243486889464776e+01 1.167492694746609239e+01 4.539205183759062834e+01
1.878820611461842205e+01 1.100705656063597893e+01 4.423445649602215468e+01
1.844676169955042155e+01 1.134397561070298366e+01 4.470166673646127720e+01
1.819989889381781367e+01 1.156785203135512852e+01 4.525053750000000719e+01
1.877549664434576471e+01 1.117884213806258309e+01 4.498046913674877345e+01
7.495368344315417097e+00 8.693283004213641973e+00 5.042197099198475030e+01
8.165526764161002760e+00 8.564034022154590531e+00 5.083225947182153703e+01
1.405415430100180352e+01 1.168484126622123931e+01 4.758030667609659758e+01
1.360389412369137752e+01 1.171173394558529779e+01 4.782686333500036113e+01
1.427552163214686232e+01 1.113291595446912652e+01 4.752459629322851953e+01
1.455766686585068825e+01 1.162448552622348430e+01 4.730368390932038380e+01
1.252484757998869647e+01 1.130765700519773986e+01 4.846100462426151978e+01
1.337477104190944210e+01 1.118640155171533301e+01 4.801769270308405879e+01
1.478375842425727882e+01 1.115349348061486090e+01 4.723506456023000055e+01
1.507063282550334016e+01 1.172602226626987232e+01 4.700073061867315261e+01
1.560161634883793269e+01 1.162468867679972995e+01 4.671553728336482436e+01
1.531762496590739175e+01 1.114129550991095030e+01 4.693776707424893146e+01
1.397034500836812398e+01 1.043244905392299771e+01 4.777917686017320875e+01
1.364190714912245284e+01 1.073920912178917320e+01 4.792396733278187071e+01
1.449688850000000073e+01 1.058099396346249677e+01 4.746891972176072017e+01
1.211725234689425434e+01 1.102120980014569440e+01 4.870576354959953846e+01
1.272053263903832132e+01 1.072131359543956464e+01 4.843016281954361091e+01
1.314543148650198923e+01 1.066048000536250129e+01 4.820865880865243724e+01
1.584541935699105863e+01 1.095055702763625760e+01 4.666559138945476093e+01
1.658987511397284464e+01 1.148812017456713086e+01 4.616486992421398128e+01
1.634115297296749247e+01 1.088244692952806858e+01 4.638806081706484719e+01
1.714750770854529804e+01 1.092216853762382200e+01 4.593273496691881519e+01
1.529271221607242914e+01 1.042875330336019957e+01 4.704379036221547494e+01
1.609460200188316392e+01 1.027639091833457741e+01 4.661560813522257263e+01
1.662118294774375116e+01 1.059932236365773228e+01 4.627208560017859185e+01
1.767395445088166639e+01 1.124514322831504742e+01 4.559148967682370568e+01
1.583962312806905537e+01 9.651144103870471724e+00 4.685546360699748192e+01
1.463827523878507364e+01 9.880140141788219310e+00 4.749353688849419797e+01
1.523095615133844305e+01 9.665016294237275929e+00 4.719492288913113498e+01
1.434173891740794460e+01 1.000863494440680590e+01 4.763844338761347075e+01
1.381502892066735555e+01 9.860057539971428753e+00 4.794854858397590647e+01
1.225002105442714040e+01 1.050467847107656105e+01 4.869906891137586058e+01
1.344346717859579243e+01 1.028382477182695709e+01 4.808930092924444466e+01
1.158502373852257961e+01 1.087365146436612307e+01 4.899827063287025197e+01
1.792510638683897639e+01 1.095105571363646391e+01 4.548692131510450309e+01
1.478447588152210912e+01 9.179293353484704099e+00 4.751815948028343684e+01
1.558450656311478610e+01 9.026380615103374083e+00 4.709360792183942124e+01
1.419005523235371413e+01 9.436290164402143077e+00 4.780779288326108656e+01
1.291633897774916839e+01 1.013514645120182500e+01 4.839935263093118323e+01
1.109341779125938565e+01 1.061849697354724320e+01 4.927377842920896001e+01
1.169684825908275982e+01 1.032206159244779364e+01 4.899828851170173749e+01
1.072116768135484044e+01 1.025077674303104125e+01 4.949024726813507158e+01
1.217738436030874993e+01 9.752460187959432147e+00 4.881345374800984871e+01
1.311736349854721340e+01 9.531215125632428453e+00 4.837837106173049051e+01
1.023386530871293054e+01 1.002424247539098801e+01 4.974895289148390987e+01
1.083657771556130989e+01 9.697337531810505951e+00 4.948783294480246298e+01
1.126630495644297092e+01 9.994482256589341418e+00 4.925023743202609694e+01
1.364498090351819215e+01 9.351928818465552240e+00 4.811768618798234343e+01
1.262429687456520355e+01 9.164009891199215829e+00 4.866916830153468965e+01
1.200937529608664356e+01 8.957814883989380306e+00 4.899913983939758566e+01
1.143963799999999864e+01 9.370471809473736258e+00 4.922671565413945416e+01
1.258214730916467694e+01 8.544872298033375557e+00 4.877139769185054519e+01
1.332315678783534452e+01 8.927407755972760484e+00 4.835740753702316397e+01
1.172935337588292448e+01 8.759920091923728336e+00 4.915802134038489868e+01
1.084554422747823210e+01 8.814512081560474499e+00 4.956874723166065166e+01
1.315901538428179762e+01 8.131444413904969082e+00 4.854337810133181108e+01
1.038180479389664335e+01 9.400833886601420275e+00 4.973716440531880068e+01
9.837429720264182720e+00 9.653952072039055921e+00 4.997708606651519148e+01
1.403874793455314851e+01 8.863962527210340170e+00 4.797700768287620576e+01
1.492949250848506715e+01 8.478454014175376585e+00 4.754279081783436567e+01
1.440821151272773371e+01 8.384975735239695638e+00 4.784459332044292523e+01
1.202073698341729546e+01 8.149369610305445377e+00 4.908934305641938067e+01
1.135289688800463281e+01 8.268427511623448467e+00 4.939025625419525767e+01
1.267559540884735547e+01 7.908112149331576468e+00 4.880319747263960295e+01
1.352911190890786308e+01 8.322953977209023080e+00 4.833643566340340669e+01
9.475183196084831394e+00 9.278760818961066192e+00 5.017647103196155456e+01
1.532934455877082236e+01 8.401990342572286607e+00 4.733077599822728843e+01
1.142674715814642283e+01 7.593087978706521746e+00 4.943140996309481494e+01
1.083823975692160602e+01 7.925632466429370915e+00 4.967108138611374812e+01
1.004401354843574623e+01 8.956392025628705511e+00 4.994399060218974284e+01
1.231636015938635609e+01 7.538820884509179976e+00 4.902068236242503474e+01
1.388690995083299207e+01 8.291514492228154509e+00 4.814615689335284543e+01
9.112940623598792200e+00 8.903642296003274836e+00 5.037584005710505863e+01
9.682162574788749865e+00 8.580892930116053918e+00 5.014328754538381361e+01
1.507406203726378102e+01 7.777621520301471136e+00 4.756743291508806948e+01
1.025113804573180687e+01 8.258392319663540704e+00 4.991088902207891209e+01
1.002433786641575075e+01 7.783285270707295922e+00 5.005040818167146455e+01
1.040336979749950785e+01 7.327208552250230156e+00 4.991433271951881778e+01
9.634811703266537464e+00 8.169248879648936423e+00 5.019734589765842969e+01
9.018297596809340178e+00 8.080184707790722953e+00 5.048386457047078579e+01
1.094591519653349643e+01 7.380960889543972669e+00 4.966530621224837461e+01
1.373458811894721343e+01 7.718240196636297235e+00 4.831547056823789887e+01
1.317293198959238865e+01 7.323161344773045478e+00 4.863372595841049417e+01
1.393355643362519025e+01 7.131897887445975748e+00 4.829514793710238507e+01
1.440456124781022318e+01 7.747927940762474819e+00 4.794146901802542970e+01
1.318475647012643748e+01 6.605316386135140938e+00 4.871940609531261401e+01
1.261104504280103278e+01 6.927984222374757195e+00 4.895200851245220264e+01
1.201935866645600903e+01 7.260561898393356195e+00 4.919173530222676760e+01
1.139578757677795906e+01 6.890035360291734357e+00 4.950289405740533510e+01
1.078799236028597086e+01 6.871134135350168926e+00 4.977826191062953853e+01
1.482631167105643932e+01 7.171915816212271366e+00 4.779668868711040375e+01
1.457850606598760912e+01 6.566240008913760029e+00 4.802572658648382031e+01
1.200340823003293345e+01 6.908986658805476466e+00 4.922749802243992434e+01
1.243210038690932251e+01 6.312837990146255684e+00 4.908498958668329948e+01
1.375779754503555985e+01 6.282932494938635593e+00 4.848699505774928298e+01
1.413224787406228344e+01 6.545962087548536701e+00 4.827485750756584082e+01
1.179325340621882390e+01 6.445230715073281047e+00 4.936169062433604893e+01
1.091313156597588829e+01 6.265378446761019404e+00 4.977359588998795203e+01
1.545270440738952189e+01 6.759239675175959583e+00 4.749072224416639898e+01
1.315359760509602438e+01 6.178871561277497371e+00 4.876949405803534177e+01
1.294562418055813069e+01 5.785173260840505094e+00 4.889686840626404774e+01
1.433066206099913131e+01 5.960597778275187331e+00 4.825460554846564776e+01
1.363813551651995226e+01 5.872862811641769376e+00 4.857578465571859994e+01
1.225294361442412239e+01 5.697514764258939657e+00 4.921796502001124196e+01
1.554396724976270150e+01 7.468125523416682121e+00 4.733856867572214355e+01
1.489168316840879669e+01 6.359891805186988378e+00 4.787369545404558835e+01
1.158298385922010887e+01 5.981498735565828895e+00 4.949585188396907398e+01
-1.028953366480536324e+01 -2.612800439496648419e+00 1.944669329345649800e+01
-1.086134340968697032e+01 -2.195607666899717092e+00 1.986604736897519174e+01
-1.060900979144683198e+01 -2.023036280487804817e+00 1.931775098460539297e+01
-1.042162981683686596e+01 -2.823949602783440316e+00 1.985669012070418660e+01
-1.066814457370562153e+01 -2.871495998273124517e+00 2.026914373835446526e+01
-1.015197998899717291e+01 -2.618126461740112987e+00 1.924884837491322287e+01
-1.111384787136522867e+01 -2.368224955436720069e+00 2.041441614130390647e+01
-9.970271236560341421e+00 -3.202221586031724687e+00 1.957555500590634523e+01
-1.025788563091964711e+01 -1.938213400352050142e+00 1.902795861261727950e+01
-1.022225275316598747e+01 -3.374977372354233562e+00 2.012380354136514526e+01
-9.625598577857457983e+00 -2.490798834284133179e+00 1.881412474165555437e+01
-1.087229432305779397e+01 -2.914498059239440053e+00 2.060552423869776106e+01
-9.695171327413738993e+00 -3.212928172529422977e+00 1.917996811621731368e+01
-1.063092820240222558e+01 -3.460594910029400229e+00 2.079647945840263290e+01
-1.141354527137209729e+01 -2.561199454064934766e+00 2.108979743982154531e+01
-9.650877217773096817e+00 -3.791945259034019688e+00 1.970447708955209976e+01
-9.344078928708007936e+00 -3.128250518479053888e+00 1.889013113568014646e+01
-1.119095657759743645e+01 -3.354876641200431386e+00 2.156928096050776489e+01
-1.014018954915795057e+01 -3.855250292467784945e+00 2.047935421786217347e+01
-9.776862529591632267e+00 -3.877890623058689368e+00 1.997862063137449695e+01
-9.039471768738410518e+00 -2.982362793880340757e+00 1.872825795771634105e+01
-9.473524726394602524e+00 -2.417576026285196189e+00 1.873319734911756385e+01
-1.066958372949097011e+01 -3.954382795637096049e+00 2.137421382150672855e+01
-9.237659294126636667e+00 -3.808644338995709866e+00 1.911096862641713656e+01
-1.171302705895166518e+01 -2.754565606367504138e+00 2.176460670521149510e+01
-1.038930950509932138e+01 -4.007413206845787279e+00 2.098763397484314908e+01
-9.331447494281048805e+00 -4.380830141434624458e+00 1.983342292698692333e+01
-9.056024857071145462e+00 -4.392421794454244299e+00 1.943757034444450582e+01
-8.605538913031098858e+00 -3.547005655961725346e+00 1.872330689427053940e+01
-9.062535177093861805e+00 -3.765814245476736932e+00 1.896614568063591122e+01
-8.853774317998663435e+00 -2.386095992896372309e+00 1.866460994510397242e+01
-1.098620592415091579e+01 -4.016137052584145550e+00 2.191008520203961041e+01
-9.739542781457901199e+00 -4.467482722789823057e+00 2.050628300048573038e+01
-8.469852784980306026e+00 -3.003741541293653228e+00 1.866887987330641252e+01
-1.206958749134682662e+01 -2.048705529862808739e+00 2.162092261424061590e+01
-1.150786250231845287e+01 -3.416454326622229143e+00 2.210538686515377194e+01
-8.781182282095544522e+00 -4.403013903566710852e+00 1.904211152291409803e+01
-1.014755567192259100e+01 -4.554637947843188428e+00 2.117889495087628049e+01
-1.046446185635122106e+01 -4.616164663076128605e+00 2.171498869407019683e+01
-1.199370363572891307e+01 -2.891492712625264971e+00 2.231440245675699074e+01
-8.882759067894856031e+00 -5.096377094099516114e+00 1.984415426180258279e+01
-7.893518190601652051e+00 -3.216263415974134787e+00 1.862273077065236038e+01
-8.171789443162737143e+00 -4.111425740628214420e+00 1.871834389952816480e+01
-7.971494137920029033e+00 -2.486893133978704817e+00 1.857745283594336172e+01
-1.221218540864613189e+01 -2.250782941377805102e+00 2.211846326300017651e+01
-1.078137194152429679e+01 -4.677776194417589295e+00 2.225104427828227927e+01
-1.178864052159307718e+01 -3.553537960402074258e+00 2.265539069164600861e+01
-9.678670690843663493e+00 -5.205757163874641158e+00 2.112698274324850445e+01
-9.134752590431206798e+00 -5.089493673708197718e+00 2.023010215779308396e+01
-8.515877948940209663e+00 -5.112619212065458996e+00 1.931668315458410135e+01
-7.815487391296937147e+00 -3.946277881977051205e+00 1.866803862226507604e+01
-8.259514454818591034e+00 -4.539743748638285226e+00 1.887794938179455784e+01
-1.130283488170388573e+01 -4.077979758132123322e+00 2.244592334126458510e+01
-9.360712011214172179e+00 -5.241543219130296194e+00 2.070238861052907708e+01
-7.183971486336630186e+00 -4.086092156451202939e+00 1.868609626529795520e+01
-9.978289985263893769e+00 -5.210677061254651576e+00 2.163165942406001463e+01
-1.029528502211970498e+01 -5.271858508306387137e+00 2.216738929225181209e+01
-1.158366677782258769e+01 -4.214992824447033826e+00 2.299587202558119259e+01
-1.227477200867259199e+01 -3.028675258461410280e+00 2.286492191499373661e+01
-8.434258730116143354e+00 -5.811669739141835045e+00 1.985486283859543377e+01
-8.422499024543531831e+00 -5.004003845306767673e+00 1.912415099082669201e+01
-8.938130139938929020e+00 -5.798209440831174177e+00 2.062662610306000488e+01
-7.737434364646453844e+00 -4.676654628736740982e+00 1.871335881798488288e+01
-6.926832306170750186e+00 -3.608942664831076286e+00 1.866108506282452240e+01
-1.109786400165920206e+01 -4.739368232791054680e+00 2.278634973332000158e+01
-1.206943076350621347e+01 -3.690665479001302263e+00 2.320537423149047029e+01
-9.209799077732045092e+00 -5.856857084137073066e+00 2.107506165674861620e+01
-7.301006881142177996e+00 -2.991977893357412821e+00 1.861813159083632030e+01
-1.061228486521201653e+01 -5.333098571294906165e+00 2.270308248430670872e+01
-1.255567847454135944e+01 -3.165820555253979318e+00 2.341508217807179193e+01
-9.509498616580959407e+00 -5.861457167654240408e+00 2.157953978367764236e+01
-8.363497691664662170e+00 -6.517086347226478615e+00 2.044441275769798949e+01
-8.250729978697060929e+00 -5.821035726755924955e+00 1.959110625272644768e+01
-8.064024901789366595e+00 -5.604672596017736375e+00 1.920613117771676315e+01
-7.607190644827849901e+00 -5.386824335441689371e+00 1.893235714523166635e+01
-6.552691054861075060e+00 -4.225906190470355206e+00 1.870402853067748339e+01
-7.092519004684190165e+00 -4.937867167328908735e+00 1.873899586798750150e+01
-1.145300830056643271e+01 -4.763336594579578254e+00 2.341929381676428079e+01
-9.809196728664518972e+00 -5.866157735081220181e+00 2.208396648291417463e+01
-1.193941042908594596e+01 -4.238892884981570575e+00 2.362972479138165127e+01
-7.358616757975102729e+00 -5.360831409038792295e+00 1.887938598363680853e+01
-6.543652734627489309e+00 -3.141556443004913657e+00 1.860621889288593778e+01
-1.095393950187409970e+01 -5.310653299249979753e+00 2.334616471098690482e+01
-1.012634106466408923e+01 -5.927271597219771593e+00 2.261975036701547026e+01
-1.242537599531565284e+01 -3.714529767623106160e+00 2.383950008516558583e+01
-7.985574738421727936e+00 -6.527296430947886030e+00 1.986555297219715399e+01
-8.741482732597939176e+00 -6.507186264783177521e+00 2.102319012203615500e+01
-5.981254660125802758e+00 -3.830758002426974507e+00 1.864932226914440960e+01
-6.178595111296717235e+00 -4.842868241337447976e+00 1.874696124297705779e+01
-1.287563467748523927e+01 -3.280976773719216588e+00 2.423675377352731530e+01
-9.040825180645610359e+00 -6.511978076225533485e+00 2.152731395416311955e+01
-7.705603833881608189e+00 -6.205289183308210887e+00 1.928808738550175761e+01
-7.477064121698716370e+00 -6.096465073030630677e+00 1.915118261585375592e+01
-6.448080468041277769e+00 -5.198970976240458342e+00 1.876451418181346043e+01
-6.614807256749996256e+00 -5.604143724538150018e+00 1.889238884736986535e+01
-1.180874517872863727e+01 -4.787361780842474879e+00 2.405320121346509055e+01
-1.130919562321844118e+01 -5.335218262505841302e+00 2.398002513240568234e+01
-1.046810592573119081e+01 -5.904899759080077359e+00 2.326317143757375305e+01
-1.229518974419094945e+01 -4.262812870612929572e+00 2.426355430980325423e+01
-1.268016887696087203e+01 -4.103900931433209109e+00 2.487295722992189084e+01
-9.340191674719079629e+00 -6.516865857058070866e+00 2.203142780689641356e+01
-7.830654290736124068e+00 -7.130774566248748947e+00 2.028815957042340656e+01
-8.334932068573868591e+00 -7.116603568089900911e+00 2.105950748517944149e+01
-7.665940972085277139e+00 -6.667670474640816636e+00 1.961778104738725048e+01
-6.980005142263310702e+00 -6.044727108831242646e+00 1.904532172108494592e+01
-5.804562598109659355e+00 -5.459831124388919044e+00 1.878988254692720972e+01
-5.992590373160087580e+00 -2.828474258734205993e+00 1.855957367912250433e+01
-1.080988946551206986e+01 -5.882564295193510873e+00 2.390654430135510111e+01
-9.640074081864357325e+00 -6.521836846393055609e+00 2.253636035640625579e+01
-1.319564222914130980e+01 -3.396113804208471532e+00 2.505814311616314427e+01
-7.694662962093560488e+00 -7.091708947305280120e+00 1.999769839503058222e+01
-8.590076048379978957e+00 -7.100716347262277850e+00 2.155521712136111034e+01
-5.410349685558987431e+00 -4.820590162438167958e+00 1.871914084494195762e+01
-5.307200532819011052e+00 -3.185284769539078464e+00 1.856860970730554783e+01
-9.982470787056115569e+00 -6.499111394454068602e+00 2.318051996461096920e+01
-8.889319663553985507e+00 -7.106047348675752495e+00 2.205975486109080919e+01
-7.346905004631484104e+00 -6.806416760624458107e+00 1.937009394698743492e+01
-5.016172313295655272e+00 -4.181344762332929399e+00 1.864837742429606848e+01
-6.453360031777250150e+00 -6.164278426478017714e+00 1.903949477247691746e+01
-5.944199122663762935e+00 -6.110753953729280319e+00 1.898565790371617013e+01
-5.543903335809976518e+00 -2.539382769162855880e+00 1.857946310398367373e+01
-6.025785850637394248e+00 -1.990176259743481557e+00 1.858109041668828354e+01
-1.216493731174441884e+01 -4.811430870204836729e+00 2.468783584969036582e+01
-1.166448481097917877e+01 -5.359797580018163643e+00 2.461385676850631299e+01
-1.032424075238474437e+01 -6.476465758020997221e+00 2.382341809849983250e+01
-1.116523671947594210e+01 -5.906844208529342666e+00 2.454005762358109166e+01
-1.304975305000308516e+01 -3.862908614348347758e+00 2.593663252712164891e+01
-7.403969476624671309e+00 -7.655807423545560653e+00 2.012974522525093946e+01
-7.675989247116500103e+00 -7.733425337360873897e+00 2.071007037755897073e+01
-8.183349310526985221e+00 -7.710660809544959804e+00 2.159190554659310379e+01
-6.601544419024525823e+00 -6.728467377794841831e+00 1.921119341129263347e+01
-4.929906613798067383e+00 -2.822760872607143590e+00 1.858848686361158542e+01
-9.188562535932272013e+00 -7.111451607220063309e+00 2.256423916339402069e+01
-9.450878314140862102e+00 -7.054451703329362111e+00 2.318641441880499698e+01
-1.241134876408526289e+01 -4.650578547859846701e+00 2.539694135782260531e+01
-7.230232393495382048e+00 -7.513525811831561541e+00 1.981585915935168174e+01
-7.928202728632978591e+00 -7.726323966947372668e+00 2.109581814314791259e+01
-8.438493143561874632e+00 -7.695087828540733810e+00 2.208792726965410935e+01
-4.663611459773155943e+00 -5.259798131021255152e+00 1.886339537306680469e+01
-5.199731581454195783e+00 -5.748490583706025170e+00 1.889543985561433459e+01
-4.622034964509436961e+00 -3.542095298634812206e+00 1.857759117699918860e+01
-5.498922984908513278e+00 -6.136110868756905923e+00 1.901971741955540551e+01
-5.237838933741524095e+00 -2.103422181417249348e+00 1.859938123779299346e+01
-1.066602637481549642e+01 -6.453847238510524775e+00 2.446626291203122960e+01
-9.793079654008721491e+00 -7.031488489622207183e+00 2.382957733498243869e+01
-6.784896330181628521e+00 -7.109116408445112612e+00 1.937363905227180183e+01
-7.031558568991826519e+00 -7.509559940155758007e+00 1.969039465260352628e+01
-6.083806814345008362e+00 -6.761424648208015142e+00 1.918134661296914700e+01
-4.894184952570387992e+00 -6.424847105532880853e+00 1.912525911853737526e+01
-4.594951040211945781e+00 -6.037266180931437631e+00 1.900098056708354477e+01
-1.190679419725293364e+01 -5.224467459614473341e+00 2.539979306454446117e+01
-1.140724669576000494e+01 -5.771753724394473650e+00 2.532546019579284291e+01
-1.265764671922294049e+01 -4.489879802196468539e+00 2.610535208456844103e+01
-8.737865368639939234e+00 -7.700025146830713929e+00 2.259205626075380380e+01
-7.113567838360562945e+00 -8.219463404334634404e+00 2.026166042553501612e+01
-7.521275763521978241e+00 -8.336382622750447169e+00 2.113211736030990195e+01
-4.127650867494017106e+00 -4.771102966519721988e+00 1.883130245233685329e+01
-4.374779250681795517e+00 -4.156601481752695726e+00 1.870445308031622744e+01
-4.175156211867274259e+00 -5.777890100635012516e+00 1.899666166333378214e+01
-5.193435954421390832e+00 -6.812426869746011526e+00 1.924953387388407933e+01
-4.353402615795785024e+00 -2.390915842921509160e+00 1.862647404827149700e+01
-4.098070679511476300e+00 -3.149590066362489171e+00 1.861211456803622255e+01
-1.013529591314173040e+01 -7.008552890281438685e+00 2.447268580340325528e+01
-1.090770001015826018e+01 -6.319037019655571186e+00 2.525112444758737951e+01
-8.999888770223234857e+00 -7.643255528985956282e+00 2.321394892100280671e+01
-1.215352693915647109e+01 -5.063207643502439126e+00 2.610812775810053665e+01
-7.317186244425505137e+00 -8.277774587578111465e+00 2.069653170174717260e+01
-6.716123190796905007e+00 -8.211430791675583762e+00 2.001083633491004221e+01
-7.904531605610062961e+00 -8.312403725178544533e+00 2.187667610430392529e+01
-6.223383801236463952e+00 -7.411828363047001211e+00 1.937694357299733028e+01
-3.891278981060119158e+00 -3.934615398683348086e+00 1.868436975876202055e+01
-3.880702298435760866e+00 -5.385602379695312081e+00 1.895813865280114285e+01
-9.261914431952149585e+00 -7.586538297445788892e+00 2.383577540664476757e+01
-1.290411990634446582e+01 -4.329131126529839335e+00 2.681395256090223000e+01
-1.328271341211174494e+01 -3.718513812470354729e+00 2.676153546405527095e+01
-7.378557883888191782e+00 -8.833047583412604098e+00 2.173678710973804939e+01
-8.287152101115529135e+00 -8.288643623917044678e+00 2.261985701600966436e+01
-6.282461304573737415e+00 -7.913818551841115045e+00 1.969505800785712779e+01
-3.990831876880906126e+00 -6.325959521335702718e+00 1.910642352179591086e+01
-4.489631681125649365e+00 -6.972074301669135110e+00 1.931362649662691666e+01
-3.574121770398686060e+00 -2.757054162451097579e+00 1.864662274419893251e+01
-1.164916186679651844e+01 -5.636757230333904189e+00 2.611039022598858139e+01
-1.035499593841728050e+01 -6.723203482184921143e+00 2.511978515119263022e+01
-9.604110299610775670e+00 -7.563735228618077677e+00 2.447910969655278279e+01
-1.240037091367963740e+01 -4.901946504385817249e+00 2.681642847313673883e+01
-6.958202916573084096e+00 -8.715871618085650141e+00 2.066912246210739212e+01
-6.400749475677676159e+00 -8.913458448364762532e+00 2.033127572432331220e+01
-7.084007300517982664e+00 -9.023148691450771253e+00 2.130843887347778676e+01
-5.402708098734438025e+00 -7.788139358121840772e+00 1.954305042933617287e+01
-3.634019275565317120e+00 -6.000098549884525845e+00 1.908496035638114208e+01
-3.367441722818161232e+00 -3.542097476235896991e+00 1.871886628204034508e+01
-9.753536015177269647e+00 -7.345014583717611067e+00 2.520660488272532973e+01
-1.114939977168289786e+01 -6.184245766153409818e+00 2.603585001694922596e+01
-8.548798104520891172e+00 -8.232096929341611968e+00 2.324120837633935110e+01
-1.319448602750620658e+01 -4.014761382880619678e+00 2.755649294887141210e+01
-1.189563536787678366e+01 -5.475904835965875073e+00 2.681889687118179211e+01
-6.341579477734958559e+00 -8.414563940395115793e+00 2.001314246980220446e+01
-7.634025486529529836e+00 -8.816798508230194287e+00 2.223256921288536603e+01
-3.155863612137089991e+00 -5.052626897082237889e+00 1.892797576153754946e+01
-3.160926433402366786e+00 -4.327134142064950950e+00 1.879110473086865696e+01
-4.888128679253087583e+00 -7.488877128947605932e+00 1.947936107720475718e+01
-3.385197909942216921e+00 -6.614594772599589056e+00 1.921176696514537596e+01
-3.776947255332577136e+00 -1.959069135571403830e+00 1.866444015941575785e+01
-1.059667698810911496e+01 -6.588407654120777224e+00 2.590457936076808565e+01
-8.810801048023314763e+00 -8.175526134160643110e+00 2.386333889196519209e+01
-1.265150997185086368e+01 -4.683550200554290832e+00 2.763314273349411465e+01
-7.236112778203896312e+00 -9.328969327301049219e+00 2.234049711741837640e+01
-7.889492505255082833e+00 -8.800623537417369135e+00 2.272827932133560935e+01
-5.982734719167202897e+00 -7.947387453442122940e+00 1.967580406243144608e+01
-3.294205558620721064e+00 -5.570572485397455864e+00 1.901931868306777673e+01
-3.785971400808620935e+00 -7.131722139301600372e+00 1.937763214307848614e+01
-2.884825983886255329e+00 -2.992504277861181894e+00 1.873891124713356504e+01
