-5.939197655163823697e+00 1.408286211765940266e+01 2.190374923562990972e+01
5.893952997740710131e+00 1.254241749141315765e+01 2.304428528365833273e+01
-7.612640010794258671e+00 1.356146045994084659e+01 2.163364590369884155e+01
-8.164537390036564091e+00 1.318811623352499751e+01 2.142710579510320201e+01
-8.716223487546775672e+00 1.281479858399835514e+01 2.122057628778660998e+01
-9.267507231133746970e+00 1.244140313423920752e+01 2.101398228497006926e+01
4.216719034610226124e+00 1.344442771509052292e+01 2.302928336761642214e+01
3.357701675433901300e+00 1.384955905759260375e+01 2.305031918147182068e+01
2.498133291818227075e+00 1.425489650413185316e+01 2.307147205048913463e+01
1.121092437868395908e-01 1.449912669053254710e+01 2.270312895219873184e+01
-1.220814812848314279e+00 1.484261668427473424e+01 2.272958323183355134e+01
-4.939306822413354503e+00 1.481627187499999998e+01 2.234216076972652232e+01
5.674662030058915008e+00 1.302260573014336664e+01 2.326947463155807228e+01
1.900505828661504193e+00 1.446923500652911798e+01 2.306713859825990909e+01
-9.826758082107092562e+00 1.213349114683727592e+01 2.086390522825314164e+01
4.958627380844576216e+00 1.326671764108278140e+01 2.316227373580084503e+01
-5.296520031776480453e-01 1.473470272708028261e+01 2.276532639601860097e+01
-3.364340985993482303e+00 1.494620131076293568e+01 2.257801090187724924e+01
-7.053424616433620287e+00 1.389261655023953956e+01 2.182567094592381096e+01
-1.883339059044972785e+00 1.499724650731268305e+01 2.276680997932489703e+01
-1.046909052712835475e+01 1.177117666232339843e+01 2.072289124576832720e+01
-1.024499677806896791e+01 1.110986175496768524e+01 2.032672277008222039e+01
8.097616652646612012e-01 1.478165650995248548e+01 2.305763475903505011e+01
-6.340053289986567753e-02 1.503186289035311241e+01 2.305014515743608428e+01
-6.554111083526499293e+00 1.425912153021572593e+01 2.204477296890038218e+01
-4.426121913535856045e+00 1.515787233708912218e+01 2.264312563990766947e+01
-5.759658356826203196e+00 1.505148822576120615e+01 2.253035663239011299e+01
2.379591954787234620e+00 1.481481665429165417e+01 2.341957735155492060e+01
-8.287378166373500221e+00 1.377260202029225589e+01 2.180142801874242764e+01
-8.839278418892158484e+00 1.339938967980316775e+01 2.159496862148288088e+01
-9.390750078598038897e+00 1.302596588545115353e+01 2.138835860311282389e+01
-1.014356241015933158e+01 1.271055981472020591e+01 2.124819897776113820e+01
-1.050976608156690517e+01 1.240960653896400601e+01 2.108789552800067213e+01
4.897864892289447880e+00 1.387968410114596907e+01 2.353070127059189431e+01
4.059421653908909633e+00 1.419117042899634384e+01 2.349364975869922034e+01
1.507374004448803984e+00 1.506418570050173678e+01 2.341213975483937304e+01
-7.295539798339506499e-01 1.520396782483096132e+01 2.306368321393858523e+01
-2.545875281555195269e+00 1.515187697477083084e+01 2.280404104223151762e+01
-6.464337738726866789e+00 1.474343443353112804e+01 2.235807893565921489e+01
5.703597621107115323e+00 1.350778842153186154e+01 2.358922528165782850e+01
3.219126165535401540e+00 1.450318048767591250e+01 2.345657477863445450e+01
-7.728460354917631392e+00 1.410395642319429932e+01 2.199359943693131925e+01
-5.043656799650473310e+00 1.528891619744875996e+01 2.272909688292558172e+01
6.506382871821214664e+00 1.313594339368327191e+01 2.364781187519400163e+01
-1.834044960637147614e+00 1.546124100870474471e+01 2.312536273827603139e+01
-1.108625645199973064e+01 1.216535901867469782e+01 2.100709159778591228e+01
6.339080156239316199e-01 1.531459177074898115e+01 2.340471811956938808e+01
-2.389847946633885667e-01 1.556481874999999881e+01 2.339732310916910407e+01
-3.203161871464201393e+00 1.538637207322201128e+01 2.292182670484373119e+01
-7.169026401245963243e+00 1.443538150844331547e+01 2.218580216606924793e+01
-3.913205495124612909e+00 1.549930095292733689e+01 2.294393928208829436e+01
-6.580202982637700870e+00 1.528675874657703737e+01 2.271860415123694210e+01
6.316206008704900121e+00 1.360621362442417670e+01 2.394532593113030217e+01
2.738420094958783579e+00 1.520646670690062940e+01 2.388225504514042541e+01
3.951783517296491244e+00 1.460521981145646286e+01 2.380736635843643967e+01
3.601837713148642095e+00 1.504361323307233356e+01 2.405456273475118678e+01
2.142103975399777482e+00 1.526041087268727559e+01 2.375237442933532250e+01
-1.122235025700134781e+00 1.577060530228787805e+01 2.344668493089215389e+01
-8.962472831443843546e+00 1.398385429053064755e+01 2.196929895777929431e+01
-9.514021808144185854e+00 1.361066312608134155e+01 2.176283234939229416e+01
-1.039381371565069223e+01 1.325557418864146619e+01 2.160745991271511457e+01
-1.119188361970693535e+01 1.268535940060229272e+01 2.131159127803057274e+01
5.811356585455361490e+00 1.382503493213370938e+01 2.389670907999379423e+01
4.681506333490450977e+00 1.438036108601442287e+01 2.387889005967276645e+01
1.378921848405807893e+00 1.543563801825069071e+01 2.370806525051685298e+01
-2.716828880108586031e+00 1.566696704641234916e+01 2.317474402163899327e+01
-4.560619098951761430e+00 1.557398314369870995e+01 2.298223822700870400e+01
-5.926556823343948288e+00 1.559573836420785042e+01 2.297566041050878383e+01
-7.844322016580576040e+00 1.464668856434913558e+01 2.235372457876203001e+01
-8.403499392959774994e+00 1.431529858632998042e+01 2.216153022761444547e+01
5.283679596909084175e+00 1.428862270743635676e+01 2.403813289799601804e+01
-7.284708399307704418e+00 1.497851874564051045e+01 2.254619467178409309e+01
-5.147970055191658290e+00 1.576139273364334592e+01 2.311590497660454346e+01
4.465095311881005280e+00 1.488072895828030084e+01 2.422689493948882955e+01
1.904624843553411218e+00 1.570592476031852236e+01 2.408513879106014244e+01
-2.004983236502832167e+00 1.597627023580929517e+01 2.349602448021391154e+01
-1.019611407400177860e+01 1.388668835748227259e+01 2.198669878743049466e+01
1.011692932265175315e+00 1.581942897955352834e+01 2.395219083456428066e+01
1.187184498388244580e-01 1.593325855013385883e+01 2.381925735981815251e+01
-5.303678789759285195e-01 1.605654197936855709e+01 2.380423716747051444e+01
-3.400464039014378326e+00 1.584061831382909880e+01 2.324465526308060603e+01
-4.364573481461485827e+00 1.598898646887960773e+01 2.333240672490690670e+01
-6.889552887971245099e+00 1.581806286874322609e+01 2.315249572032596959e+01
6.124495853328358663e+00 1.407647718935711900e+01 2.424286898029141568e+01
3.097203596683518079e+00 1.559800965309249676e+01 2.434487833846298699e+01
-2.887739808219383253e+00 1.618193049785900683e+01 2.354536698490259639e+01
-9.637219884454605534e+00 1.419499712463393770e+01 2.213708383919129830e+01
-1.131476940088694327e+01 1.326960341486085149e+01 2.168572960463943744e+01
5.055885049322536240e+00 1.472691255919609787e+01 2.432772972767467579e+01
-7.400454227139725560e+00 1.552194386637254553e+01 2.290679133685154767e+01
-5.731808563236430842e+00 1.599300513589566108e+01 2.330250504819102986e+01
4.248625199700406085e+00 1.538095756925391555e+01 2.457483043058468297e+01
-1.462535700729161947e+00 1.623815024921814754e+01 2.382355451059568452e+01
-9.078594980951351090e+00 1.452639010508191753e+01 2.232930019924719645e+01
-8.519623325938781022e+00 1.485799441952505262e+01 2.252164711810057440e+01
-7.959425030426101166e+00 1.519033200871140643e+01 2.271442673319705463e+01
-1.187400970567959746e+01 1.296111552452945226e+01 2.153528880616202912e+01
-1.075550029557978426e+01 1.357811110727079118e+01 2.183619184567990246e+01
5.669877602191468746e+00 1.469792541903119343e+01 2.454606960743344857e+01
-5.252288624705796494e+00 1.623388957434681856e+01 2.350273828907691609e+01
-6.378658688056006554e+00 1.611418208180013778e+01 2.339819969941271083e+01
1.666952144607079411e+00 1.615174877234459316e+01 2.441815915341251397e+01
-2.516758345244791695e+00 1.651887473038933507e+01 2.391484958530653415e+01
-1.099046669099187845e+01 1.399318884417980513e+01 2.219670215131358404e+01
-1.182942246095444716e+01 1.353034045756845138e+01 2.197094499525215738e+01
4.760117683536566058e-01 1.630297591152991998e+01 2.424070910773721010e+01
-1.771390875962099709e-01 1.636785886157620595e+01 2.417038774335663120e+01
-3.710494874583181613e+00 1.635676322690959950e+01 2.366011453757788630e+01
-4.533427923092888889e+00 1.653163356809735163e+01 2.377489585242544479e+01
-7.407095706855648665e+00 1.593956406249999880e+01 2.329579465848640396e+01
3.456482125438084196e+00 1.599004033438632533e+01 2.480813988322653785e+01
5.152174088613162617e+00 1.524373378059412687e+01 2.481396902509284885e+01
2.561748875154263860e+00 1.607090683931956931e+01 2.461314147886017878e+01
-8.214286222395114079e-01 1.654798711481653939e+01 2.421069789826633567e+01
-1.032288251961476533e+01 1.454255493269860366e+01 2.251721523649171175e+01
-9.577705287895680542e+00 1.470162128841674942e+01 2.255261982477222915e+01
-8.066224089830878796e+00 1.575583352065005549e+01 2.320481310227681604e+01
4.032068507935402835e+00 1.588120050631075308e+01 2.492280107181679583e+01
8.337367750033862768e-01 1.667343665670752983e+01 2.466267055692476262e+01
-3.138599686313021220e+00 1.660702792932947602e+01 2.393072174834006915e+01
-9.065157652502401575e+00 1.497333754620593105e+01 2.270187962958453554e+01
-8.759176430475070774e+00 1.540662316311358992e+01 2.301821248303000900e+01
-1.249812575531980308e+01 1.339562942381106048e+01 2.200804128741908983e+01
-1.111606797769134936e+01 1.443987935541706236e+01 2.256429867350861684e+01
-1.444015364869304652e-01 1.679535852071595059e+01 2.458070113218885311e+01
-5.867706933530598690e+00 1.641033922620208685e+01 2.364393459231888173e+01
-5.356647282608695271e+00 1.670656234375000082e+01 2.388972356713596668e+01
-7.413739932200860139e+00 1.635718341440531276e+01 2.368480219402690423e+01
4.801105503282391496e+00 1.567633044819736021e+01 2.504990846317021891e+01
-4.041874334967925364e+00 1.684408619540611340e+01 2.409922676318404200e+01
-1.695099870757294180e+00 1.659964885296047399e+01 2.411980362296506541e+01
-9.518136946628160899e+00 1.520874445149710752e+01 2.296857677339653847e+01
-1.178482808775063795e+01 1.409969188015056574e+01 2.240670647013367045e+01
-4.990739202233233307e+00 1.700066355388663908e+01 2.418912622565711246e+01
-6.644044903207520392e+00 1.659258637762376765e+01 2.385888665576259982e+01
-7.996252864176627284e+00 1.630653330994578099e+01 2.370824969905433477e+01
3.815381273643204452e+00 1.638161147714274435e+01 2.527091136917303871e+01
1.429182438195195637e+00 1.659771171873603990e+01 2.475130543550336171e+01
2.195548376221524212e+00 1.644836726494783719e+01 2.484564564888210825e+01
2.940776375155043532e+00 1.660232776925736431e+01 2.520875924345094532e+01
-2.145764479620401843e+00 1.685583064160467259e+01 2.428434649204969276e+01
-2.777428987428780971e+00 1.689123881804198390e+01 2.424780376728887177e+01
-1.112456320780663699e+00 1.704043664644133926e+01 2.461711337698283586e+01
-1.026371140864264575e+01 1.504961942832405164e+01 2.293316318300871970e+01
-8.732591756272881867e+00 1.598993422306647361e+01 2.350310181508433161e+01
-1.250590714237095469e+01 1.255408391793340783e+01 2.142882481537566974e+01
-1.239211922204897043e+01 1.390284454523886026e+01 2.238150070537754388e+01
4.690415582911781733e+00 1.609291372069964154e+01 2.536728628074374825e+01
5.566475218921850043e+00 1.580380793461205613e+01 2.546382857404267241e+01
1.191362309971750522e+00 1.704373337248522091e+01 2.508451569117943336e+01
3.252237859635798145e-01 1.720703371373746648e+01 2.506416940246870695e+01
-3.389475600303593072e+00 1.703214944886457616e+01 2.431610693626795339e+01
-1.010045771200733178e+01 1.548403940798975320e+01 2.327480293817554369e+01
-9.458503380854752507e+00 1.571645173241797977e+01 2.338502339024844900e+01
-1.312982983250646285e+01 1.298593097992455725e+01 2.190141825206777781e+01
-1.312149375525361350e+01 1.382754872316803230e+01 2.248021083106516471e+01
-1.100930083622281153e+01 1.489049412322428445e+01 2.289775744874060948e+01
-1.174024245454655535e+01 1.466894718265458408e+01 2.284240159849690599e+01
-6.046781703936286334e+00 1.686851896043548393e+01 2.408075968253484689e+01
-5.537557390962791537e+00 1.707530576974517800e+01 2.425219011659342172e+01
-7.420386368265739385e+00 1.677480131196317359e+01 2.407381296043817542e+01
2.066590129326403513e+00 1.682291028768955243e+01 2.514666324576839784e+01
-3.996774814972942735e+00 1.721478055531172302e+01 2.445131429811290147e+01
-1.774603707326342761e+00 1.719378930709354947e+01 2.465401186576008286e+01
-2.726983510822490686e+00 1.727873708708641232e+01 2.463045098554393775e+01
-1.242364033766962450e+01 1.434488559545355990e+01 2.273397509372301428e+01
-4.624535358347292124e+00 1.729500357653610720e+01 2.448877193593841994e+01
-6.737011184273185016e+00 1.703049612938929158e+01 2.427182353038804408e+01
-8.741144155409719119e+00 1.654703572838256775e+01 2.402200080764881918e+01
4.048473093233650566e+00 1.671966632570077138e+01 2.566358003029621671e+01
3.510780965638259588e+00 1.683272265013760816e+01 2.558511924141670946e+01
2.754364403563747565e+00 1.698139346336425248e+01 2.549349068187170175e+01
-5.392479712236514233e-01 1.737000416758671051e+01 2.504387431326002655e+01
-1.016461716737189391e+01 1.589540156342630262e+01 2.362693554836750209e+01
-1.093000798442693977e+01 1.556694547745047430e+01 2.345260924199014241e+01
-9.398892155468541176e+00 1.622400960472091569e+01 2.380135734125441971e+01
-1.237903627506914006e+01 1.491468356349916213e+01 2.316973303192343181e+01
-5.718632399897270346e+00 1.744438402181271996e+01 2.461498957592429093e+01
-8.083768977220913143e+00 1.686988583467303471e+01 2.424252374295290835e+01
-6.258029460583884429e+00 1.729888386434085845e+01 2.450380958013647970e+01
5.373129601078492357e+00 1.621519039106727789e+01 2.574987582140958153e+01
4.843373896264990819e+00 1.661290876531092309e+01 2.588865626821640120e+01
8.196757209966707425e-01 1.754262990329834437e+01 2.546558346564335551e+01
-3.640774948838539693e+00 1.745798545471784635e+01 2.470214785046825767e+01
-1.403530169855350174e+00 1.753292115142783913e+01 2.502359257624449640e+01
-1.375532040213358798e+01 1.325078386103810857e+01 2.225815346444591469e+01
-1.306245768183327982e+01 1.458700537744403114e+01 2.306123427151831962e+01
-1.169564408610885486e+01 1.523839375000000018e+01 2.327824974970897287e+01
4.281403717154177002e+00 1.705746731004889227e+01 2.605598384434700776e+01
2.336647809551392729e+00 1.736268928171743653e+01 2.571143163555447941e+01
1.466878204976913125e+00 1.744191051965671235e+01 2.552380267992816343e+01
-1.534119196312676292e-01 1.772580900030619588e+01 2.544246290006218203e+01
-4.258323538263705466e+00 1.758934949943230919e+01 2.478842362720353165e+01
-2.233143634523131027e+00 1.764989146715974400e+01 2.504510588280615835e+01
-1.001668925105774477e+01 1.663061659275338044e+01 2.422724306223630464e+01
-1.375039774166554096e+01 1.375591726883524935e+01 2.260546995772513057e+01
-1.374547450023008111e+01 1.426113438763191787e+01 2.295282653891995750e+01
-1.220335283806359250e+01 1.569010436745330672e+01 2.381148252781117591e+01
-5.079010073416928783e+00 1.770137840400580842e+01 2.488307927828587651e+01
-7.427036068728226859e+00 1.719242451133244387e+01 2.446283304863478492e+01
-6.978463990290327601e+00 1.752230053870503212e+01 2.475527691622815141e+01
-9.372416027196699417e+00 1.671212781035189465e+01 2.419763194406277051e+01
-8.776519306861297665e+00 1.698994704904711739e+01 2.438543613613486727e+01
6.149265657077921610e+00 1.602617865881486381e+01 2.589481573152983884e+01
3.206386795124217315e+00 1.728344788687403621e+01 2.589907629871495587e+01
-3.062513645032047371e+00 1.776680939346150723e+01 2.506661761814428857e+01
-1.089779471143344125e+01 1.606807928520201401e+01 2.387098866824395316e+01
-1.158438055141084000e+01 1.579010152544356416e+01 2.372866886446806589e+01
-1.074492961082020592e+01 1.648603851348904570e+01 2.420302052310264784e+01
-1.429396127935046223e+01 1.317728023958319739e+01 2.246262220289143841e+01
-1.293030722408738065e+01 1.516911261290858981e+01 2.354229282553370695e+01
-8.048725467105198206e+00 1.752002800664638826e+01 2.477035557121825349e+01
-8.697338400507723222e+00 1.735994750870976233e+01 2.468197903160842444e+01
5.856976247062513963e+00 1.653778500898986437e+01 2.622970895106167433e+01
4.923069922999354198e+00 1.705328739463998744e+01 2.631020281279927886e+01
1.101729901596023575e+00 1.788035915757831873e+01 2.584963414032695184e+01
-1.126011720351683953e+00 1.790906893043783654e+01 2.541953989164012739e+01
-3.892037558744278147e+00 1.788375627335587836e+01 2.508813719636238559e+01
-1.429374593750480749e+01 1.388096986531220978e+01 2.294955569297242093e+01
-1.361350498915383334e+01 1.484352722807726721e+01 2.343393300373418597e+01
-5.899614847279397445e+00 1.781327382885833899e+01 2.497760737870781611e+01
-6.529735248226733901e+00 1.785229398664634459e+01 2.504782347004085707e+01
-7.463629110599510064e+00 1.760344292369972408e+01 2.488105347141611290e+01
4.514379142272424872e+00 1.739531528341351674e+01 2.644846925632417722e+01
3.708274194564364468e+00 1.756461739914345443e+01 2.633066296040766119e+01
1.742213611136429030e+00 1.783977941991169658e+01 2.596280371332529313e+01
4.483943315210304204e-01 1.804093401331740765e+01 2.584622591803275427e+01
-4.621550034817610175e+00 1.798332173939902034e+01 2.517226093047066016e+01
-1.745844304387058843e+00 1.797909346498574124e+01 2.540181908410107781e+01
-1.204504638200818789e+01 1.617782005271519807e+01 2.419350931826456375e+01
-9.893002074987588657e+00 1.701093196313938449e+01 2.452057045640465205e+01
-1.063402101270508382e+01 1.703690924334069834e+01 2.465279713608800449e+01
-1.147318862520433491e+01 1.634145985018546909e+01 2.417880734597890324e+01
-1.461934545764366256e+01 1.440300225039366744e+01 2.354878614695276795e+01
-1.288983978254437979e+01 1.562324524225330080e+01 2.393400753135018633e+01
-5.351412288714830545e+00 1.808293435556192108e+01 2.525642701618144059e+01
-9.345960877129263267e+00 1.719986594751537723e+01 2.459359975213963878e+01
6.956097527879358644e+00 1.621288449161459866e+01 2.642466137505697787e+01
2.902128165475647226e+00 1.773391248757803496e+01 2.621286835245199498e+01
-8.485513007419120957e-01 1.828506980868160525e+01 2.581540403390305372e+01
-2.667608714552117899e+00 1.815767574572882737e+01 2.547083595164905034e+01
-3.612127909656647429e+00 1.824261746762829972e+01 2.545056643951193109e+01
-1.271048074789006499e+01 1.613949972204901329e+01 2.434408603603522181e+01
-1.136210298586381562e+01 1.689228791598266355e+01 2.462851675479296532e+01
-1.348158792872425948e+01 1.542578034598678904e+01 2.391484962059919894e+01
-1.418974555712806485e+01 1.471770411736432926e+01 2.356470102005713230e+01
-6.080751390978589299e+00 1.818247474939635921e+01 2.534053445863575149e+01
-8.670552599993323284e+00 1.784769693600646079e+01 2.507793728506824849e+01
-8.034428491703817343e+00 1.787403417117079485e+01 2.513256157922213774e+01
-7.500222072934425555e+00 1.801446120826013342e+01 2.529927554965752989e+01
5.564706003263889755e+00 1.704909222244796396e+01 2.656443145203791900e+01
5.272425488329619547e+00 1.756024553264158428e+01 2.689907547171841173e+01
6.579959941894862219e+00 1.688967271422207972e+01 2.687233135205743295e+01
1.054170936113849599e+00 1.832436213108094236e+01 2.625573977897031241e+01
-4.197797464408417056e+00 1.828988812672015385e+01 2.546318049057736488e+01
-1.403003789455015848e+01 1.523511721240118710e+01 2.397375873669405166e+01
-1.483412724864911070e+01 1.394428273303552146e+01 2.329863935992262469e+01
-1.463987345804287799e+00 1.829922313934932276e+01 2.574505521762428373e+01
-9.319488496437182690e+00 1.768792178367697332e+01 2.498982709476259956e+01
4.112412763804988991e+00 1.780925655013784237e+01 2.669510889773229323e+01
2.017707004487099720e+00 1.823783749082042860e+01 2.640205897551025416e+01
6.095825637193782676e+00 1.737541109796418937e+01 2.709820150328365074e+01
-4.978079153416941516e+00 1.845594148053633532e+01 2.560955044968745753e+01
-2.088264858018787695e+00 1.842536402654266325e+01 2.578016228026363876e+01
-9.972470405185131170e+00 1.744342729452909069e+01 2.488709599772695213e+01
-1.334970483024868315e+01 1.600797474696640421e+01 2.439564536807219497e+01
-1.201754170020412893e+01 1.660772784860942508e+01 2.456136136374241374e+01
-1.125104308934393416e+01 1.744298674295837159e+01 2.507812430391545178e+01
-1.526621858568298862e+01 1.412303078553271440e+01 2.368098987052377069e+01
-1.463364498992869578e+01 1.517377093337032790e+01 2.417603165465043702e+01
7.728124003313091572e-02 1.853897219972916943e+01 2.622668896680529471e+01
-5.758413284589024350e+00 1.862213590918470629e+01 2.575606333762485889e+01
-6.809022790236760159e+00 1.830401658094528727e+01 2.552907941415483606e+01
-8.414144395922894759e+00 1.830069815793122601e+01 2.555180995522004395e+01
3.493309518419804416e+00 1.799657224051048487e+01 2.665774041129674288e+01
2.597645473961856855e+00 1.818465898266737568e+01 2.652687106164617958e+01
-3.332527997638630612e+00 1.860101828660323875e+01 2.581259469385573624e+01
-2.712853786382570576e+00 1.856874106367632749e+01 2.584768723495461984e+01
-4.503221903934352177e+00 1.869555613930982929e+01 2.583781187971232640e+01
-1.059899342538925282e+01 1.768698745744313428e+01 2.518058995938836730e+01
-1.190664117137229994e+01 1.715805348210966130e+01 2.501099417674670278e+01
-1.409043217972856077e+01 1.568201956422338306e+01 2.441202454629938501e+01
-1.520346089880923124e+01 1.462523985002423466e+01 2.404997033103418858e+01
-5.710940052088359087e-01 1.866101129548217230e+01 2.621126333239669037e+01
-1.496294264042552946e+00 1.870759148835168872e+01 2.612957992902594384e+01
-6.463969325705333446e+00 1.865864149405834027e+01 2.579406136844356112e+01
-9.293030246165162822e+00 1.817570323304986601e+01 2.538583325567576310e+01
-7.536816005868961277e+00 1.842547812499999793e+01 2.571749785702778368e+01
6.813088644362963464e+00 1.753011588676486454e+01 2.755892349239810102e+01
1.430294595583000206e+00 1.876941079921129685e+01 2.676296218948588646e+01
-9.946409430410950492e+00 1.793119457656136007e+01 2.528314686134431355e+01
-1.321772470929142784e+01 1.659068052797480419e+01 2.487679220828702142e+01
-1.256190760537861983e+01 1.687440345207487624e+01 2.494391029296580697e+01
-1.572332344818598315e+01 1.458364104206712142e+01 2.438708411219873184e+01
-2.430756056386389030e+00 1.887168941695468405e+01 2.615858162852603641e+01
5.896223741763145121e+00 1.780070686209560193e+01 2.739608065245415958e+01
7.471219525643228998e+00 1.691071694383493096e+01 2.728918601009065270e+01
2.293013119669519373e+00 1.863559004019838383e+01 2.684101608110402637e+01
-5.436092448489710627e+00 1.906452160590078648e+01 2.617156896640355512e+01
-3.052725876043797637e+00 1.895960656611487138e+01 2.617488578019272083e+01
-3.930745120531580650e+00 1.903035047403579938e+01 2.619361070556216120e+01
-1.383761304836526840e+01 1.627101172315672173e+01 2.484713625739722431e+01
-1.181643582313144236e+01 1.786478910504514417e+01 2.561831779209944671e+01
-1.118173765217049898e+01 1.790021519357761903e+01 2.549553824802474722e+01
-1.507795368521509261e+01 1.562983328693223228e+01 2.478789332120494038e+01
-1.514070590307871456e+01 1.512751038865458142e+01 2.441893789490215028e+01
-1.604808350128630678e+01 1.416422488616835196e+01 2.427260420567045074e+01
-2.937091626163300107e-01 1.903680938863609384e+01 2.660701884358082836e+01
-6.141534556881752316e+00 1.909990258939001606e+01 2.620945601384918788e+01
-7.434607326037081521e+00 1.882050222456661004e+01 2.604524345083665082e+01
-9.241717735908041575e+00 1.862338903640430487e+01 2.584563297197243514e+01
3.188880870103676379e+00 1.844737483529295829e+01 2.697182416327287058e+01
5.679543853602824210e-01 1.890316663486018456e+01 2.668495524473320657e+01
-8.337691886660035578e+00 1.897195848142756347e+01 2.624121316598718678e+01
-9.853675786220225774e+00 1.854185020096194947e+01 2.584061146075994486e+01
-1.064140901085849933e+01 1.806585040803012632e+01 2.554599318608822145e+01
-1.048300712018209957e+01 1.844990648241853393e+01 2.587702102607012122e+01
-1.249459962675022062e+01 1.740475335770174681e+01 2.539944495048655426e+01
-1.445828861611528637e+01 1.595042437116839906e+01 2.481747049200000177e+01
-1.550343403408845333e+01 1.491440398178199800e+01 2.450252796511986730e+01
-1.572002905136768369e+01 1.364100249796963382e+01 2.360806799246876864e+01
-1.637591085892270470e+01 1.468902452249308865e+01 2.493665348503284207e+01
-1.120281888564476303e+00 1.913050594500860058e+01 2.658363228601282202e+01
-4.808780237063851715e+00 1.910135943557826010e+01 2.621260754590115738e+01
-6.846980930668904897e+00 1.913526067830236244e+01 2.624733974810932224e+01
1.157162282172718326e+00 1.908309928325088123e+01 2.700531317481388882e+01
-1.372131726167097021e+01 1.706385566855900393e+01 2.549996212618097147e+01
-1.315017919551223891e+01 1.712106947751981778e+01 2.533214547975313025e+01
-1.250486327914394558e+01 1.781970079700694143e+01 2.577365152330814269e+01
-1.551087677606457405e+01 1.531460097755052807e+01 2.483748292775278799e+01
-1.594332668576746670e+01 1.500183611844091125e+01 2.488704221147420981e+01
-1.644594270373730538e+01 1.399292396926770898e+01 2.447396485520710385e+01
-1.946728354093165247e+00 1.922418407605290014e+01 2.656025768405023868e+01
-3.553496584183694296e+00 1.938077005212794290e+01 2.655355388191840404e+01
-2.773144701886450125e+00 1.931784898947297791e+01 2.653688702720131687e+01
-9.190399801070324060e+00 1.907111932897597129e+01 2.630547943754369555e+01
-1.111235301902305395e+01 1.835796290993557278e+01 2.591343052147194115e+01
-1.164941646689663202e+01 1.847422841285378325e+01 2.615590174944756541e+01
-1.437033141399623304e+01 1.654538317283001447e+01 2.530712006183412655e+01
-1.308257714271990935e+01 1.765201076499596766e+01 2.578788960636927285e+01
-1.360741606990630181e+01 1.753208135041802862e+01 2.588087897124639269e+01
-1.238196185795361259e+01 1.828903723201727516e+01 2.615860661661289299e+01
-1.499049350328196795e+01 1.622459090590951902e+01 2.527758970023239016e+01
-1.576880585955389869e+01 1.558795767153219280e+01 2.533111258776659369e+01
-1.651600409974462735e+01 1.329672402424749400e+01 2.401105440990196271e+01
-1.670512259775517805e+01 1.426976131311015550e+01 2.509404488555246004e+01
-1.681641140347879215e+01 1.352093366399539320e+01 2.465096904984509507e+01
-1.426932768132815055e-01 1.939665291560907434e+01 2.699790763622469925e+01
-4.333735066541815506e+00 1.944367325842522121e+01 2.657021937202884132e+01
-5.819210472500190079e+00 1.954207563584760265e+01 2.662485942776279657e+01
-6.524508300623791612e+00 1.957757808012512513e+01 2.666283172956530123e+01
-7.332423561400783996e+00 1.921570557828132664e+01 2.637291984803151124e+01
6.787281507178366535e-01 1.938439026652857677e+01 2.718555235919598800e+01
-5.113916702313394680e+00 1.950656375004598786e+01 2.658688653672464852e+01
-8.184135662809531198e+00 1.956531055172911238e+01 2.673302095683360946e+01
-1.041378266758816906e+01 1.890763606510560635e+01 2.629493617747209555e+01
-1.104303245723594706e+01 1.881529402923096228e+01 2.633094681581606267e+01
-9.802086367732588457e+00 1.898937758412449739e+01 2.630021149502199407e+01
-1.435852587002988656e+01 1.700733133438616562e+01 2.571032940266912092e+01
-1.422495714969407388e+01 1.753659254362064601e+01 2.612313133474287596e+01
-1.301502786972079484e+01 1.818264521354861785e+01 2.624328292533447282e+01
-1.539224972485651044e+01 1.608990177408567135e+01 2.551970937071025247e+01
-1.628717329280434711e+01 1.527029489149652619e+01 2.544813733491255192e+01
-1.703432905853970780e+01 1.385050596754400232e+01 2.525149754811438285e+01
-1.654825754605569088e+01 1.503016428730511400e+01 2.554885504164422727e+01
-7.516347645110419418e-01 1.945906448669693489e+01 2.694935291359182727e+01
-3.198749272432288571e+00 1.971291790875978833e+01 2.688669467519104828e+01
-7.230170911331422090e+00 1.961308639104554175e+01 2.670082349141775069e+01
-9.139089996866394117e+00 1.951876679458249697e+01 2.676524188928315340e+01
-1.097361849746718576e+01 1.927323453124999730e+01 2.674902314644713996e+01
-1.163141034646008087e+01 1.908617147834369376e+01 2.673229623918977538e+01
-1.490307185626652675e+01 1.681921046631556749e+01 2.576708942460389551e+01
-1.360832488233179305e+01 1.794857209935510411e+01 2.625902810965814993e+01
-1.619846082825868905e+01 1.585152946397800378e+01 2.595949467421239731e+01
-1.691872695380727620e+01 1.455861604520817743e+01 2.572623474601755333e+01
-1.701009133772248205e+01 1.266713128677832678e+01 2.424711002704327356e+01
-1.718698529528421659e+01 1.304892678859506638e+01 2.482820782042784558e+01
-1.684175352388739499e+00 1.960992216208892458e+01 2.696627691489079481e+01
-2.611145505795984700e+00 1.967005525939695687e+01 2.689694002179773946e+01
-4.049799798097844850e+00 1.984152053695982332e+01 2.696151333457543586e+01
1.500144598745458024e+00 1.937211423623504558e+01 2.737320559808098253e+01
-9.750965407342533808e+00 1.943687314308587943e+01 2.675984052187841300e+01
-1.228937087784165172e+01 1.890015700833251344e+01 2.671556468812583063e+01
-1.036235436474902372e+01 1.935504475539772073e+01 2.675443520145026355e+01
-1.481565028372023107e+01 1.741392936204900366e+01 2.625659484268120636e+01
-1.413409212515099433e+01 1.824442908516258655e+01 2.673014234180732274e+01
-1.294745602303844301e+01 1.871356772485707864e+01 2.669883197032200073e+01
-1.570638496656486538e+01 1.655219543946231298e+01 2.625102534857605363e+01
-1.531863166742405369e+01 1.711520068827711327e+01 2.643353263713116164e+01
-1.672085027246683708e+01 1.537192025008270946e+01 2.616181141085901984e+01
-1.581472314827615300e+01 1.603509357643470778e+01 2.582091020984839957e+01
-1.728922422964475913e+01 1.408678055560984532e+01 2.590350563945126794e+01
-1.736385555340996234e+01 1.343084601376717302e+01 2.540920722853371316e+01
-5.793240058595232611e-01 1.976468643867726627e+01 2.728943304005103343e+01
-4.900876715455819266e+00 1.997018611049208658e+01 2.703639487810131214e+01
-6.352716827347951956e+00 2.002280086006974358e+01 2.708685288057810325e+01
8.334127000768298821e-03 1.975649463114044480e+01 2.738883082196552721e+01
1.103572802978432188e+00 1.974047205989715081e+01 2.763938017261558500e+01
-5.647036897267936340e+00 1.998718814054566550e+01 2.704880117912942694e+01
-1.152337909600606025e+01 1.967228469903538368e+01 2.732233068924992381e+01
-1.225545550539053252e+01 1.948769507725155492e+01 2.732660726832961373e+01
-1.472827470708573649e+01 1.800841661547940475e+01 2.674583822352512641e+01
-1.354114792819120616e+01 1.847926846539216328e+01 2.671449236309586794e+01
-1.721460830418152455e+01 1.474284653842455128e+01 2.639772668847219350e+01
-1.750446594452402493e+01 1.374381016503800979e+01 2.608249498305645631e+01
-1.764495206864318533e+01 1.405661281076164748e+01 2.675491199332432757e+01
-1.209563334709271132e+00 1.988129211562445420e+01 2.729168337918347476e+01
-2.449240364724107444e+00 2.002201499482141500e+01 2.725678724602951419e+01
-3.016489016175267768e+00 2.001115300083902682e+01 2.719561670305909828e+01
-3.624123272486054592e+00 2.010773738407265654e+01 2.723631044789956590e+01
-7.058402157706266777e+00 2.005840968422345938e+01 2.712490496869943968e+01
-9.025241129428952291e+00 1.997586157195912193e+01 2.721293243883659585e+01
-9.677814081582493344e+00 1.990852262269994100e+01 2.726034367174744943e+01
-7.752779121280733321e+00 2.003922912395273670e+01 2.716972166281753687e+01
-1.286612772625444201e+01 1.915359508690138668e+01 2.714096317829718430e+01
-1.028918298284337673e+01 1.982631266457550012e+01 2.725486612297370570e+01
-1.090056560083426440e+01 1.974442010109245516e+01 2.724938178491934337e+01
-1.515910091160534812e+01 1.767730047817289574e+01 2.682489206726080155e+01
-1.602089507075403318e+01 1.701528707976356358e+01 2.698307454844969655e+01
-1.650147078147692170e+01 1.607330355257724364e+01 2.662251747130250834e+01
-1.610969581329694833e+01 1.643323185918415419e+01 2.647117282965115592e+01
-1.741157953498341371e+01 1.271344301685778078e+01 2.492028698082510374e+01
-1.762834236863817594e+01 1.294275769312982405e+01 2.561800523788915385e+01
-1.714004919489608270e+01 1.539867604849698779e+01 2.689161636152362078e+01
-1.848234918174969321e+00 2.000564059624731428e+01 2.732344896253473721e+01
-4.687833390413730150e+00 2.043370775214400936e+01 2.748590708135161975e+01
-8.419593179281013917e+00 2.007368432405146663e+01 2.725987168876941880e+01
1.594974612554059534e-01 2.011663670096562839e+01 2.778011042559097632e+01
-1.339834040284582883e+01 1.906763659495943131e+01 2.735605471836587554e+01
-1.462116008560184532e+01 1.844965726183106369e+01 2.722680796612150900e+01
-1.400981916670925997e+01 1.875855256577662900e+01 2.729090174775553734e+01
-1.559017390252529012e+01 1.734615141402683847e+01 2.690400426459298799e+01
-1.689325352599104235e+01 1.571338598066555647e+01 2.677396474173106000e+01
-1.780169788815749143e+01 1.319489901677433075e+01 2.631703938582137070e+01
-1.746264117384474090e+01 1.488395307900917430e+01 2.715887696313207300e+01
-7.320784573920565697e-01 2.015421093712539502e+01 2.765468203664663704e+01
-6.886596038167066780e+00 2.050368506959724968e+01 2.754908058115276148e+01
-4.049406177343195523e+00 2.050243991689676193e+01 2.758585077275663977e+01
-3.141516235418211345e+00 2.038953404331893893e+01 2.755587296911965112e+01
-5.434215293445393336e+00 2.045092115573690705e+01 2.749850281984661393e+01
-6.180602172301380648e+00 2.046813275777130769e+01 2.751109807338087165e+01
-1.278474092812528795e+01 1.959404588679390713e+01 2.758342184606471292e+01
-1.384941713006255526e+01 1.942134160684784661e+01 2.801349420157751879e+01
-1.021591989313885485e+01 2.029906004311277457e+01 2.775486682990011644e+01
-9.563721276731106613e+00 2.036626105241691320e+01 2.770746211906029899e+01
-1.144991018524356718e+01 2.014406538119703427e+01 2.782221156715338850e+01
-1.207231371007737053e+01 2.007333107161529995e+01 2.789474537436276336e+01
-1.504981058057036236e+01 1.833276426126830927e+01 2.748459711039635422e+01
-1.550797317592995128e+01 1.783814317634258728e+01 2.739894510397243366e+01
-1.654320320783898168e+01 1.653493708603196310e+01 2.718417642505749043e+01
-1.593893004317457596e+01 1.750685904917639135e+01 2.747769723170843648e+01
-1.735218762128789649e+01 1.559702850658959861e+01 2.762266734721660200e+01
-1.667499526695503276e+00 2.030349992130717496e+01 2.763401485511677791e+01
-2.287369699691288893e+00 2.037386041458556818e+01 2.761655614481248477e+01
-7.581159216390938482e+00 2.048461594740809844e+01 2.759400459084444535e+01
-8.911536863912102646e+00 2.043345583726031478e+01 2.766004898973310944e+01
-8.275729698026324854e+00 2.046554369785840777e+01 2.763892245895949884e+01
-1.327622056788240990e+01 1.972833760554003391e+01 2.801941552695853233e+01
-1.451398119309635604e+01 1.889138629596664387e+01 2.770808305183604503e+01
-1.082752599385957382e+01 2.021587336794680567e+01 2.774965665751021859e+01
-1.270339383948739886e+01 2.003443663269010599e+01 2.802567860293499535e+01
-1.491603550399229761e+01 1.873041133880844811e+01 2.788187956244302157e+01
-1.706550314064517337e+01 1.605461003357353178e+01 2.738544275358326985e+01
-1.625351577095220534e+01 1.732581264467316373e+01 2.780587283349861494e+01
-1.548078666244513535e+01 1.821148293330557522e+01 2.781303972803898716e+01
-1.585686724901747446e+01 1.799911510198609932e+01 2.797293427557508494e+01
-1.778529064607787546e+01 1.436916321722624801e+01 2.742634792306273184e+01
-1.789253912133371927e+01 1.245520956101218069e+01 2.582671119674979465e+01
-1.804108383007872263e+01 1.332505054465448602e+01 2.706814214728613521e+01
-1.763879237566035840e+01 1.513957322954017037e+01 2.785985699938611404e+01
-5.013566433066317662e-01 2.055982679210129760e+01 2.810646477615308214e+01
-5.220497797984707589e+00 2.091456081901000275e+01 2.794820779952794254e+01
-4.474771170532395814e+00 2.089718505280453797e+01 2.793545588434317750e+01
-1.075450243092045710e+01 2.068968582312129456e+01 2.824981481018498997e+01
-1.199965501480670227e+01 2.054599753344943380e+01 2.839528207755946454e+01
-1.262204339859436786e+01 2.047506021943316412e+01 2.846795695892333100e+01
-1.374032429804911892e+01 2.000861230662768619e+01 2.860255103650845143e+01
-1.537143000601481013e+01 1.865754384568628055e+01 2.822341208904101251e+01
-1.697886279758848005e+01 1.652774728562119222e+01 2.790195432242537521e+01
-1.718303118551704145e+01 1.623919352607448374e+01 2.806595757090882159e+01
-1.750557412549884262e+01 1.572434748351808942e+01 2.833272308196231037e+01
-1.798333421238097429e+01 1.400342314010677569e+01 2.758319360578425261e+01
-1.809893328446203498e+01 1.264599112154268568e+01 2.655197695835633098e+01
-2.908449045597418348e+00 2.078286704933310602e+01 2.796273224400770729e+01
-6.714586747752118612e+00 2.094937309623932720e+01 2.797375556303922295e+01
-3.691611763841033067e+00 2.084002739105326540e+01 2.794909315199035049e+01
-5.967261258743085328e+00 2.093196037245033381e+01 2.796097689570337153e+01
-1.440689813242339135e+01 1.933281967379021182e+01 2.818894531239028112e+01
-7.409695113300919012e+00 2.092989986524530721e+01 2.801832873582118921e+01
-1.010194969049015334e+01 2.075682905691270363e+01 2.820230512926476152e+01
-1.137695886259033706e+01 2.061677777740154127e+01 2.832254577637595361e+01
-9.449438884714545850e+00 2.082396530141074464e+01 2.815478742312630800e+01
-1.318114898881028374e+01 2.024238427846899668e+01 2.853525961436477942e+01
-1.429980506143949448e+01 1.977440687818628362e+01 2.866986283922705780e+01
-1.487125900652471699e+01 1.906884114262195240e+01 2.828637052547191999e+01
-1.792562493385815969e+01 1.468175443121693036e+01 2.809732502789989184e+01
-1.782815137593030386e+01 1.520950983299103676e+01 2.859945975936624052e+01
-1.730059380404095393e+01 1.642386401286361775e+01 2.874628110407152448e+01
-1.689226942840880596e+01 1.700076903286616670e+01 2.841825092895769700e+01
-1.577494885631971222e+01 1.849061059616661851e+01 2.846732950182543576e+01
-1.820949820420137044e+01 1.330454837230364973e+01 2.793292182646619182e+01
-1.313358268862031109e+00 2.064276841272683782e+01 2.804141982875741945e+01
-2.125476044791318131e+00 2.072572018609433897e+01 2.797637196552687300e+01
-5.829966211160158451e+00 2.135316841792119291e+01 2.839349405979008267e+01
-8.104039166426762364e+00 2.091044653115962149e+01 2.806284573036766261e+01
-8.797791542812412047e+00 2.089101052694364924e+01 2.810732003278967639e+01
-1.123447528963331798e+01 2.104413024462035864e+01 2.881832157822384843e+01
-1.476411901794825710e+01 1.951043919486362910e+01 2.876722107506716597e+01
-1.522856305959207646e+01 1.924641331130317923e+01 2.886459131935664502e+01
-1.812652425570959380e+01 1.406100406241199430e+01 2.840698514351862869e+01
-1.815677218290217354e+01 1.196760304176279277e+01 2.603569913583828210e+01
-1.797028039068948857e+01 1.482907111891859486e+01 2.881314141222855696e+01
-1.648637679966065051e+01 1.763678556484133253e+01 2.862918697628414577e+01
-1.834276561875452671e+01 1.239276394065336717e+01 2.753573717192315584e+01
-2.620034100568418012e+00 2.109110585274080307e+01 2.829887929668850433e+01
-5.083646426911776928e+00 2.133572515842599771e+01 2.838067461703161243e+01
-3.500623946474884285e+00 2.128272637258057287e+01 2.841160758853930801e+01
-1.763325952517682893e+01 1.626555266307055447e+01 2.960385777641407756e+01
-1.773076016870984262e+01 1.573709729726534690e+01 2.910130629653758305e+01
-1.061873992632176034e+01 2.112343867279221143e+01 2.872247035563642115e+01
-9.966405139637462440e+00 2.119039706923324218e+01 2.867470501093323776e+01
-1.185708009473015601e+01 2.096955355564693235e+01 2.889127895492735476e+01
-1.361036156507027961e+01 2.054449015122755284e+01 2.917012567388987065e+01
-1.247969979354387604e+01 2.090110077265115152e+01 2.896420960168381598e+01
-1.305128785875474229e+01 2.077727322192994563e+01 2.910268413156720158e+01
-1.416946397546987235e+01 2.031051390558859993e+01 2.923754918146479653e+01
-1.461242774531682898e+01 2.004102220602500140e+01 2.937369486481514969e+01
-1.509572099547175661e+01 1.971042859493733701e+01 2.939481784226815009e+01
-1.832757099656112487e+01 1.343980756637226293e+01 2.871566287462973932e+01
-1.843575869120617483e+01 1.260545384516512613e+01 2.828125443165987818e+01
-1.824977091436109333e+01 1.218013875199529927e+01 2.678782958352643817e+01
-1.711188185088496994e+01 1.704148643426131926e+01 2.918060590610806315e+01
-7.266260600152145699e+00 2.135018287686996175e+01 2.846125679835585842e+01
-4.351470149425792577e+00 2.132766725974953204e+01 2.837953538160390821e+01
-6.576291956962674767e+00 2.137061190798758048e+01 2.840631326902334663e+01
-1.741818517099228814e+01 1.660859730928702405e+01 2.942643661379978681e+01
-1.680559575334558176e+01 1.747437478090864360e+01 2.893509331785480754e+01
-8.654907094916501009e+00 2.131085031101569527e+01 2.854984836551277994e+01
-9.314080561654421331e+00 2.125732309842942058e+01 2.862692946442588138e+01
-1.569299641490442987e+01 1.898241117307075143e+01 2.896194939103356703e+01
-1.109888312333094795e+01 2.147756250250036913e+01 2.929103487548592355e+01
-1.620605487848466808e+01 1.846491153683025388e+01 2.920672044662667588e+01
-1.819637243135077043e+01 1.413048802516691183e+01 2.915950814353736931e+01
-1.842255676045279600e+01 1.343164640891797212e+01 2.950409488206182829e+01
-1.852875512067644692e+01 1.281819700128166595e+01 2.902077004120866377e+01
-1.860076756583465496e+01 1.218493652082880985e+01 2.849060049634184821e+01
-1.801497422668916215e+01 1.497646706825630325e+01 2.952627785300496299e+01
-1.837695542370250124e+01 1.140759608366251321e+01 2.631681455298284789e+01
-1.849725238630820812e+01 1.155041064137755136e+01 2.710190647679841902e+01
-1.867270296656077733e+01 1.155269355633718398e+01 2.795456618140052640e+01
-7.960580072040285948e+00 2.133051815734192758e+01 2.850555550455340281e+01
-1.784653929360557711e+01 1.569454446104165513e+01 2.992281398790258606e+01
-1.753589730134313029e+01 1.679352680112369001e+01 3.010583643964492495e+01
-1.671902611079451972e+01 1.794755893933270130e+01 2.945138088146755351e+01
-1.712754159882835836e+01 1.737040688695030966e+01 2.977889815968330112e+01
-1.557901281056303766e+01 1.938043300707519023e+01 2.941672835176019163e+01
-1.171473638178558119e+01 2.139685435629978372e+01 2.938715971419942363e+01
-1.048304596122680543e+01 2.155683104013851903e+01 2.919489510579930069e+01
-9.830826106047513946e+00 2.162373987924037877e+01 2.914699736722135626e+01
-1.403935134129507745e+01 2.084422226868761996e+01 2.980427994468429631e+01
-1.492479443851560639e+01 2.030750215580555107e+01 3.007684843318081036e+01
-1.867188238419197077e+01 1.214265112919593825e+01 2.936521165989607951e+01
-1.850088521678960873e+01 1.295807263884382721e+01 2.977494335278134940e+01
-1.831642419841394087e+01 1.404513503202809943e+01 2.998938293748417294e+01
-5.692190656087691814e+00 2.177395235533047568e+01 2.882565298186219493e+01
-4.960189454179695367e+00 2.176598535709461757e+01 2.882459510128720126e+01
-6.438192635412230302e+00 2.179117727606548272e+01 2.883825926780592042e+01
-1.805970687349734760e+01 1.512393361437830031e+01 3.023423222844455793e+01
-1.791511989902016566e+01 1.577836159939789340e+01 3.066813588064516338e+01
-1.821042528597699928e+01 1.465825464724943039e+01 3.047416677741452418e+01
-1.772548799440205514e+01 1.628599809200781934e+01 3.038945727629008076e+01
-1.833418577482736467e+01 1.391313788897592829e+01 3.079739015887974674e+01
-1.840391898736410781e+01 1.352000506934747115e+01 3.017213919526303201e+01
-1.847301989292059687e+01 1.309818206585098466e+01 3.052994635655178612e+01
-1.820878723269500910e+01 1.464044120341959321e+01 3.131929454138968438e+01
-1.831310328905319196e+01 1.400942173055967643e+01 3.167859811402466974e+01
-1.826904002855660636e+01 1.398018633410051947e+01 3.246957785387600381e+01
-1.821543797189620761e+01 1.343891593121841233e+01 3.277499141128702576e+01
-1.809358835993993964e+01 1.399208302465681797e+01 3.311874739332652240e+01
-1.812077653533152244e+01 1.458207527019130900e+01 3.290140894712100561e+01
-1.841742639445518748e+01 1.337839860501009248e+01 3.203742585811336596e+01
-1.844519894973122476e+01 1.323830351507649716e+01 3.128405034048821065e+01
-1.844509159103930784e+01 1.262058548021814630e+01 3.242300871740423673e+01
-1.822013208265670769e+01 1.261860471401056039e+01 3.328935243704292191e+01
-1.742353167679830861e+01 1.728622356800823212e+01 3.056110172769716016e+01
-1.865422153235710212e+01 1.223532352751016106e+01 3.024693330351658815e+01
-1.661930592819410890e+01 1.839736043532075982e+01 2.990946791211739253e+01
-1.590221223428953756e+01 1.923722446038743428e+01 2.973643105680529075e+01
-9.171379562415490128e+00 2.167729595486627048e+01 2.906981877183736174e+01
-1.233737228691245136e+01 2.132557523406646993e+01 2.946041942921901224e+01
-1.348020328534133583e+01 2.107703943004942815e+01 2.973689040085465152e+01
-1.290877432885132059e+01 2.120221194421898403e+01 2.959867588433584373e+01
-1.446900449593882421e+01 2.051887455137471150e+01 2.984967723851456967e+01
-1.546514579994048688e+01 1.977817261564910112e+01 2.987107544241272095e+01
-7.817462221037944303e+00 2.175053646760224524e+01 2.894834489045541659e+01
-7.127825440387780986e+00 2.177085985235509114e+01 2.889330489900984489e+01
-1.810447762060814014e+01 1.527146153185221422e+01 3.095887281760044374e+01
-1.779248206660119180e+01 1.633263064028215084e+01 3.111141613026455843e+01
-1.803435961274849220e+01 1.540011792409132241e+01 3.166038795714908005e+01
-1.813997935007899542e+01 1.472456448807992935e+01 3.214149291849962964e+01
-1.856901984712942166e+01 1.264623409205556648e+01 3.087857520194247130e+01
-1.855246942879663763e+01 1.273188316664862541e+01 3.154275477077356626e+01
-1.868763189095663790e+01 1.208508021833601376e+01 3.104768671763602939e+01
-1.801348992544656369e+01 1.349955840815196417e+01 3.351257545163024787e+01
-1.791538358049033519e+01 1.433814801975076492e+01 3.371269360194914100e+01
-1.802730991073725164e+01 1.510591440149291564e+01 3.271284648353783098e+01
-1.797259736852715761e+01 1.518423674968835613e+01 3.333307681287728741e+01
-1.796433086291040837e+01 1.552885113958639884e+01 3.236177958951333977e+01
-1.859880933749059295e+01 1.184556745911438647e+01 3.189057030810207394e+01
-1.847275671110802620e+01 1.186284338876729727e+01 3.280847639297729756e+01
-1.684147813523352255e+01 1.821898400535195250e+01 3.027392664594792748e+01
-8.511940950439944586e+00 2.173082279866235567e+01 2.899263023778548742e+01
-1.535132485025959248e+01 2.017590562699406220e+01 3.032526876160235574e+01
-6.989393420577147964e+00 2.219142827897602999e+01 2.932530755997603578e+01
-5.568209431152735256e+00 2.220377525733200130e+01 2.926919309775950850e+01
-1.798199447267200668e+01 1.582528197542016812e+01 3.139540678219664116e+01
-1.756199345157146752e+01 1.702538171962087077e+01 3.097884794579537626e+01
-1.785956170524567810e+01 1.637933455246210102e+01 3.183158919048723590e+01
-1.775275666211389947e+01 1.506467494497345250e+01 3.417443612398935926e+01
-1.789439389365990607e+01 1.565765178938511326e+01 3.306311731111029673e+01
-1.800297613884529468e+01 1.298035320495074174e+01 3.388998045189019592e+01
-1.781111816221645228e+01 1.356044818490500070e+01 3.425190682306888590e+01
-1.827770419814270042e+01 1.173343300400029143e+01 3.364237771899312435e+01
-1.805465940566676508e+01 1.236304146510393664e+01 3.409171831449776136e+01
