1.307494611009611418e+01 -1.186028724224111564e+01 3.684607084845981717e+01
1.266864652910550859e+01 -1.175609641819479023e+01 3.795293652642725846e+01
1.307258017435406039e+01 -1.186463807667605863e+01 3.750054306853593289e+01
1.243476637123942830e+01 -9.069716475764561636e+00 4.376701368327259445e+01
1.579697362583985587e+01 -8.771577480000351201e+00 3.220359902465191482e+01
1.261047927345196129e+01 -6.998678569353573131e+00 4.491570939008553154e+01
1.478161264310350020e+01 -3.490570713046242890e+00 4.585561158320842878e+01
1.326667225879429246e+01 -5.333038140026608254e+00 4.547906134106752063e+01
1.238820406172406763e+01 -1.063330494149318106e+01 4.127069425888050347e+01
1.220801517785049839e+01 -1.090062460404056566e+01 4.048921054978653444e+01
1.216402823567699620e+01 -1.109344695559252614e+01 3.994540413949331281e+01
1.236823055292503248e+01 -9.902196705497191331e+00 4.262941102672019156e+01
1.231628496668368911e+01 -9.688420994805115427e+00 4.290322754759760926e+01
1.228377355858988373e+01 -1.123537048729088283e+01 3.965794286995004825e+01
1.401508883070054701e+01 -1.143899009194385030e+01 3.497954892262580273e+01
1.414275414917272755e+01 -1.122559753767495572e+01 3.444151482016278720e+01
1.614004345619928671e+01 -7.550710823494786617e+00 3.195390118996650486e+01
1.491854247876377215e+01 -9.938009561656548030e+00 3.251264840961429314e+01
1.463238639653453355e+01 -1.067747946485664201e+01 3.352527241044325024e+01
1.624727560245089109e+01 -5.584151269476397950e+00 3.184915753613557499e+01
1.622164592275663964e+01 -4.781133057958451005e+00 3.175052498846148907e+01
1.338977258488730548e+01 -1.186746227083917482e+01 3.601494179212321001e+01
1.219235164113469594e+01 -8.841430946030122584e+00 4.390787100189317016e+01
1.288302417937531530e+01 -5.864325675851773667e+00 4.533217691604798461e+01
1.211869024041162035e+01 -7.738107355746931759e+00 4.457838707715544757e+01
1.424980870769125829e+01 -3.646137396200107350e+00 4.588104351235340062e+01
1.223078664211969269e+01 -8.084209242537431450e+00 4.445475014381867140e+01
1.224244238175122490e+01 -1.046670786069754833e+01 4.150208710047598260e+01
1.179761074500975404e+01 -1.027083450388732544e+01 4.186113312094731498e+01
1.357628299594361998e+01 -1.160283375585813559e+01 3.521485491351639752e+01
1.501380653415121991e+01 -9.681092308113120382e+00 3.237309439317909465e+01
1.462599958540559797e+01 -1.042947535848156093e+01 3.303656319654393059e+01
1.592468731857620234e+01 -6.912615007989504790e+00 3.162790574192970539e+01
1.209290891878791108e+01 -1.137923595341479199e+01 3.894492228769730247e+01
1.228005753112140930e+01 -1.151694602203733453e+01 3.842722840751599733e+01
1.260898093136420606e+01 -1.184302951237428481e+01 3.711089768507940789e+01
1.212875257585979227e+01 -8.452326918916394760e+00 4.418224148797002471e+01
1.571454501073319143e+01 -7.870876518577832215e+00 3.149734714858698581e+01
1.555722864414531870e+01 -8.403375238974110317e+00 3.165530564436514993e+01
1.539995495463602815e+01 -8.935710608327804394e+00 3.181321919957927236e+01
1.196974818335366031e+01 -6.997725987032409556e+00 4.486330202605214623e+01
1.236467796312803102e+01 -6.242263781995532668e+00 4.515787886509694715e+01
1.350228158101428733e+01 -4.328583938192267055e+00 4.578942201274978885e+01
1.311806484854530019e+01 -4.860389391052486019e+00 4.564221525226640352e+01
1.499703384343477452e+01 -2.866911418365909014e+00 4.596317425440552995e+01
1.178894506010199805e+01 -1.062166520445918927e+01 4.116504450958076688e+01
1.180631622786594725e+01 -9.920474691133602363e+00 4.255659887836917932e+01
1.170129801700860384e+01 -1.100696471805718168e+01 4.007814036947916492e+01
1.375073173017400130e+01 -1.115529657121044949e+01 3.392022926174485775e+01
1.497529636240449236e+01 -9.351569049976177439e+00 3.188588455398233634e+01
1.413493613270725646e+01 -1.085366314970300117e+01 3.347735324892244790e+01
1.584127781128231405e+01 -5.974951083652035422e+00 3.142129035282147953e+01
1.583215766405688107e+01 -6.410666857010403952e+00 3.146005019225658117e+01
1.591504782744586777e+01 -5.350184412532732026e+00 3.145108046722269535e+01
1.642547068691247603e+01 -4.081733394685191030e+00 3.195531035119857677e+01
1.266935418775579336e+01 -1.184138891044501385e+01 3.650512016774107593e+01
1.165747589078624102e+01 -1.119984149117994576e+01 3.953420139868530470e+01
1.200317064487591701e+01 -1.168021475583267055e+01 3.778955491990168269e+01
1.172732980600683206e+01 -9.109180062284355728e+00 4.367866633201888504e+01
1.562134008718556899e+01 -7.369623995990992604e+00 3.132954993932514043e+01
1.379542299474618616e+01 -3.782104286757256961e+00 4.591796853295118552e+01
1.446526525402482122e+01 -3.022523542091368309e+00 4.598847072581467899e+01
1.174511885851265802e+01 -1.081426259066402551e+01 4.062168940520734850e+01
1.176684315691420579e+01 -9.515184500000334111e+00 4.311698605904980042e+01
1.346991088028786265e+01 -1.144704755862805001e+01 3.457157424396692136e+01
1.393541696793693951e+01 -1.098051391802512988e+01 3.360572494058074966e+01
1.455064035480842222e+01 -9.767415571677871000e+00 3.195855329775990228e+01
1.416105193076834290e+01 -1.042287670099733710e+01 3.265774742511385398e+01
1.273048772062445977e+01 -1.183976510310044183e+01 3.589935114951333617e+01
1.289344660426982614e+01 -1.184890992418165823e+01 3.564915427277632887e+01
1.313747552283853892e+01 -1.176659873548605795e+01 3.545016002211943373e+01
1.174144201373481877e+01 -1.171288381510322552e+01 3.717373163637579125e+01
1.163980778962317331e+01 -8.608079467128039397e+00 4.403168043567206524e+01
1.265996870243839467e+01 -5.155993356908819436e+00 4.557677070108523765e+01
1.230333223200677395e+01 -5.856423602661082306e+00 4.530714118307160021e+01
1.155232861465155914e+01 -8.107198881691513037e+00 4.438452928901313044e+01
1.184704979859100682e+01 -6.619650862561972993e+00 4.498437696568267086e+01
1.296961816544038371e+01 -4.387666849691439275e+00 4.580537132602479744e+01
1.401071898121342230e+01 -3.158431130050729951e+00 4.602530134834568543e+01
1.468149747906264402e+01 -2.399078807151455273e+00 4.609593496740790641e+01
1.528054987653110430e+01 -2.094231602287168759e+00 4.602523897479048287e+01
1.114479886186617108e+01 -1.033906579588123265e+01 4.150614706916358898e+01
1.134803127590038407e+01 -1.002198693898572124e+01 4.220154321043502677e+01
1.124201398416032127e+01 -1.088685686607708725e+01 4.020338356947844716e+01
1.383382467221340661e+01 -1.070570956391567918e+01 3.295180599899480001e+01
1.552797795724155172e+01 -6.867556159747214117e+00 3.116148274251344219e+01
1.580281218733638049e+01 -4.770355686142332630e+00 3.127328029562973555e+01
1.602168062290634154e+01 -4.120656406810510042e+00 3.149712523119044860e+01
1.144417506330164791e+01 -1.146956777929571203e+01 3.826175356770023228e+01
1.155077279975626148e+01 -1.133472896866179980e+01 3.889778526427971173e+01
1.180889843123537375e+01 -1.156063645840161058e+01 3.802672598062804354e+01
1.214549607224344996e+01 -1.182143272398908529e+01 3.672134402211305826e+01
1.523825057754667611e+01 -7.957831569583189157e+00 3.104955746930343707e+01
1.535071367169501144e+01 -7.744310995807472509e+00 3.106296654117068812e+01
1.500236175133158945e+01 -8.756455103568978160e+00 3.128651802573489960e+01
1.496238016555369299e+01 -8.950327511610518982e+00 3.142562631107976046e+01
1.144095379707539806e+01 -7.551691417101976889e+00 4.459828019012019240e+01
1.172352375558960524e+01 -5.848520255030691395e+00 4.528265916632712873e+01
1.399944089351566134e+01 -2.603145512857128807e+00 4.615099633088122744e+01
1.128583594204098794e+01 -1.069420741738691660e+01 4.074691309057069333e+01
1.107701267541218826e+01 -9.861094182364601224e+00 4.243930140023330466e+01
1.122050488040361849e+01 -1.057337268123327156e+01 4.106855730239598756e+01
1.078272022213889869e+01 -1.076675057095904009e+01 4.032879824553013037e+01
1.288494017666652880e+01 -1.166571537717718066e+01 3.488545384651650494e+01
1.343479774535056315e+01 -1.095953424632020834e+01 3.320882142203536347e+01
1.306548502790977295e+01 -1.130916136799418048e+01 3.383801801948739296e+01
1.353252525476561097e+01 -1.055766072733582384e+01 3.242593256981555783e+01
1.525735461295234074e+01 -7.242621734082864471e+00 3.089493915074573138e+01
1.543531779122757541e+01 -6.365692761600905136e+00 3.099348720123435186e+01
1.207178033603486256e+01 -1.181207441053404850e+01 3.578378810752310812e+01
1.239692884102322701e+01 -1.183037132330379748e+01 3.528341977874246993e+01
1.119483643840314890e+01 -1.123013260368247224e+01 3.913626198117262334e+01
1.133772499973654213e+01 -1.160433648388611516e+01 3.762620773319676459e+01
1.100871926451407745e+01 -9.047043016208254684e+00 4.355565191930917734e+01
1.207780663933766618e+01 -5.418777554603265045e+00 4.545413555314684828e+01
1.132972447067791499e+01 -6.996774479967820426e+00 4.481178533373351769e+01
1.243698858560373921e+01 -4.446745267492022258e+00 4.582163097626919779e+01
1.200526079972459037e+01 -4.911982252801823989e+00 4.563329046227345032e+01
1.326286321869644702e+01 -3.841172841865346577e+00 4.593371440773524483e+01
1.355619136987341200e+01 -3.294336451604176652e+00 4.606229633780501587e+01
1.488078926281358427e+01 -1.637994031051732691e+00 4.617737750724548818e+01
1.119902596192505939e+01 -9.267475132534618965e+00 4.331025882827739082e+01
1.065159405001757165e+01 -1.052504078944672017e+01 4.097228647564230641e+01
1.092219185823152827e+01 -1.095636764904674010e+01 3.987390133052080898e+01
1.462258726418682997e+01 -9.298418584788482377e+00 3.150091126653533635e+01
1.389116018909062866e+01 -1.008846496934756587e+01 3.192941904282426435e+01
1.292503030123844532e+01 -1.145509403735065490e+01 3.416382079908797920e+01
1.369621484719990789e+01 -1.041627491921514270e+01 3.227902199309733078e+01
1.106168512629847811e+01 -1.114599057303309415e+01 3.941916118849020023e+01
1.168202053062606183e+01 -1.179984426530253394e+01 3.633179141409473090e+01
1.105755531798081748e+01 -8.311196470510871848e+00 4.411615668064693807e+01
1.086890880237601564e+01 -8.030340541497661633e+00 4.428320666032758623e+01
1.123669992702618181e+01 -6.419126040005409983e+00 4.503519842106459947e+01
1.273029974948506826e+01 -3.900240561513915516e+00 4.594972654571836301e+01
1.331760311082373960e+01 -2.807226620090653046e+00 4.620641762982269540e+01
1.435095029895303753e+01 -1.904858018546577991e+00 4.625617143163396605e+01
1.072066424284622954e+01 -7.289763756525657890e+00 4.456940148433130844e+01
1.088958957969840746e+01 -1.012352822038348599e+01 4.184644432456813945e+01
1.043055393534320352e+01 -1.022519597349521447e+01 4.149097695469900771e+01
1.421612294676154775e+01 -9.577819990324087485e+00 3.143790912408136862e+01
1.265695270204580503e+01 -1.120084639128609894e+01 3.328383325438897344e+01
1.504931718126180584e+01 -6.583786924783828098e+00 3.057587483522871352e+01
1.091249102482233013e+01 -1.140707236883964981e+01 3.821873601834337109e+01
1.073187220821373344e+01 -1.126044866522976484e+01 3.873804442543660542e+01
1.046543937879608066e+01 -1.109210068639371549e+01 3.930414557607068105e+01
1.114330175819922530e+01 -1.165510690064385990e+01 3.693500347057609901e+01
1.141334537806149996e+01 -1.178438495290678389e+01 3.566823263268623379e+01
1.056295091351540272e+01 -8.515083712405603578e+00 4.384416610829327254e+01
1.498672213721329527e+01 -7.617686316204064667e+00 3.062839530683356770e+01
1.452492800005762241e+01 -8.964935659935697743e+00 3.103814188357789305e+01
1.157449001382065745e+01 -5.376275806532128776e+00 4.544579081742644178e+01
1.302400077859583938e+01 -3.353339419396024645e+00 4.607809307873898064e+01
1.367026078506097342e+01 -2.108920111691781507e+00 4.631137329570088923e+01
1.068580363393676791e+01 -6.897022073554677668e+00 4.473599776545486151e+01
1.067124979572149002e+01 -9.425589260267869918e+00 4.294202346399076475e+01
1.010129459116521566e+01 -1.063058202799637719e+01 4.043946444118147809e+01
1.027969604148021965e+01 -1.083927912416622164e+01 3.991079049024249059e+01
1.211810847455685547e+01 -1.166538471675763589e+01 3.443895425299506741e+01
1.408275927113686876e+01 -9.746343479596450976e+00 3.155730735773332896e+01
1.293418386064670678e+01 -1.093854983613602805e+01 3.281192289777063564e+01
1.237972285694244157e+01 -1.146314067583288754e+01 3.375574744673308913e+01
1.323134858201380126e+01 -1.040966845194744828e+01 3.190027345891383348e+01
1.493384461856235923e+01 -7.097570293565045318e+00 3.050478017586442547e+01
1.190041148299232354e+01 -1.181184634053760263e+01 3.491768642262843514e+01
1.083059548372349568e+01 -1.159800357169642204e+01 3.720536543334218749e+01
1.460497759356665526e+01 -8.577290532610733820e+00 3.076009568469368816e+01
1.114370627724791873e+01 -5.840616841117874714e+00 4.525890824301885118e+01
1.227659960218987933e+01 -3.939921072435331961e+00 4.598441358235337617e+01
1.165922725354059608e+01 -4.394884098663532690e+00 4.582287152833673360e+01
1.148702363619835864e+01 -4.877419142532474439e+00 4.563448678554353677e+01
1.455020943805503109e+01 -1.143716414895789901e+00 4.633755578759985383e+01
1.034629770907208623e+01 -9.801604315581384341e+00 4.232259472185778293e+01
1.029133592413571385e+01 -8.985022782219633797e+00 4.342788353696300874e+01
1.008216480813514515e+01 -1.047666726831062434e+01 4.087632455544745369e+01
1.029260114469936482e+01 -1.000558653109564311e+01 4.189140231241764667e+01
1.263239865207920865e+01 -1.156445911249519476e+01 3.432074553206324907e+01
1.300776774472673480e+01 -1.067617877833687245e+01 3.230768551599303606e+01
1.072310483684019644e+01 -1.154871335385851339e+01 3.750571022859397630e+01
1.026857945676234962e+01 -1.129079012731567389e+01 3.833954729991017274e+01
1.041476043791202777e+01 -1.141509475431599618e+01 3.789526558847728666e+01
1.094905313890121512e+01 -1.170589185564017320e+01 3.624383249080135272e+01
1.121855049064765097e+01 -1.177826510162318208e+01 3.594223817977738378e+01
1.056138562254563595e+01 -6.126259581585290270e+00 4.503495715229404794e+01
1.263702991608791493e+01 -2.866689690912060051e+00 4.625789534806717285e+01
1.308248461694624254e+01 -2.282814754649562961e+00 4.638020177515276998e+01
1.211627775284282471e+01 -3.432568160426966664e+00 4.614733784009801809e+01
1.402036124425773700e+01 -1.410542288589641480e+00 4.641646009574749598e+01
1.011092422718953721e+01 -7.582989883288119515e+00 4.432124352526300726e+01
1.004174655766327007e+01 -6.797255035387494537e+00 4.465466456202559442e+01
1.006821415387320151e+01 -8.718977980705879816e+00 4.357213602624570115e+01
9.972108109876776538e+00 -1.032672898328203281e+01 4.113607409221498301e+01
1.350091246440689829e+01 -1.005088675700775092e+01 3.156416780079539919e+01
1.361457031166042775e+01 -9.725251479927040421e+00 3.115579829901842857e+01
1.388164146080984551e+01 -9.388239194558421374e+00 3.091732209533684994e+01
1.243373717854936444e+01 -1.091756636970247207e+01 3.241515514974124557e+01
1.214307386343134354e+01 -1.131621706358596136e+01 3.322215282623249522e+01
1.021456862775155550e+01 -1.116941952856759634e+01 3.882765908053553261e+01
9.776613911167881810e+00 -1.091181995098819613e+01 3.949275583715165538e+01
9.818929774092129747e+00 -1.074450311333487385e+01 3.999342961066903257e+01
1.032346205320890675e+01 -1.159167564780518589e+01 3.678452006735773949e+01
1.107947696462005993e+01 -1.177500514896298256e+01 3.505230306782733862e+01
1.408741083824134677e+01 -8.979543860132539024e+00 3.065060252278701469e+01
1.105615994874861130e+01 -5.341748668322087390e+00 4.544760438577865358e+01
1.177357158895370581e+01 -3.828831391457203637e+00 4.601054854324738130e+01
1.343462141307697344e+01 -1.584257265876160448e+00 4.648509796957965534e+01
1.018494787192373963e+01 -7.953433441871083254e+00 4.417805716513586134e+01
1.014318082491954520e+01 -9.583769873269220696e+00 4.257124878049575756e+01
9.513283468248550534e+00 -1.042834267992820863e+01 4.078100735086523088e+01
9.614708699304859607e+00 -9.742049347245986368e+00 4.220022700390936876e+01
9.563989807929726084e+00 -1.008517618243578440e+01 4.149150607583707995e+01
1.140389096984581130e+01 -1.179315086699266146e+01 3.455195021057127747e+01
1.184437258555982453e+01 -1.142014368482129072e+01 3.333231877523417808e+01
1.263182919398985504e+01 -1.056504521037566668e+01 3.180751710367943019e+01
1.075508963610531943e+01 -1.175669693099865398e+01 3.555268656362382274e+01
9.869116378051712601e+00 -1.103820540273068396e+01 3.918926214634254990e+01
1.010847247800356641e+01 -1.149308782995189659e+01 3.738523383757480900e+01
9.805347321761150425e+00 -1.132113218473102201e+01 3.794110523263773871e+01
1.056172671458511125e+01 -5.734763672220703157e+00 4.521738178269907138e+01
9.978683624440405353e+00 -6.412053342703629255e+00 4.480391613611137558e+01
1.096877948431554906e+01 -4.842852770221807823e+00 4.563628400256498452e+01
1.240154103938693275e+01 -2.342335061492950121e+00 4.643185507655383049e+01
1.195649409175466182e+01 -2.926151527218699311e+00 4.630992956239314395e+01
1.159822478325287065e+01 -3.398092997861534847e+00 4.614812495800224923e+01
1.004333340244495076e+01 -8.313017950967527270e+00 4.387274874748569431e+01
9.593934497050600640e+00 -9.332523049980848029e+00 4.275008384650781323e+01
9.573175871696721018e+00 -8.922943076996912026e+00 4.329998323632785429e+01
9.433300725453928948e+00 -1.061373904993155648e+01 4.021168510789870965e+01
1.149667592135675420e+01 -1.167027943403368262e+01 3.409845445003897879e+01
1.297639633442040008e+01 -1.022268538226203560e+01 3.141324081467301355e+01
1.314706696388987162e+01 -9.704184330216893528e+00 3.075487814823729593e+01
1.190646223027085604e+01 -1.116930919183188919e+01 3.268863960015269754e+01
1.176305650764987476e+01 -1.153159492506994432e+01 3.368045682512383365e+01
1.274112334406279601e+01 -1.035118740010691774e+01 3.147225860630902972e+01
9.762178448660238317e+00 -1.115345075134992392e+01 3.863372533605044623e+01
1.028546267021233263e+01 -1.167102087470020422e+01 3.595815888210644573e+01
1.088141645686405568e+01 -4.343021049312056903e+00 4.582528792324167455e+01
1.047420675481363261e+01 -5.235687440841872764e+00 4.540663888556576921e+01
1.123960814879903758e+01 -3.870760062373007848e+00 4.598641329654090981e+01
1.284753381215832135e+01 -1.758020959703859631e+00 4.655411410722882692e+01
9.500408438253725052e+00 -7.876469820556321721e+00 4.407281843093998930e+01
9.448643067268863049e+00 -7.287057901103493940e+00 4.432297470660338945e+01
9.536805805440941697e+00 -8.399866384670939823e+00 4.368629859866843645e+01
1.193367835883362993e+01 -1.089659533961183158e+01 3.201869776912860033e+01
9.273467881876731767e+00 -1.098437280338523436e+01 3.907469833462798192e+01
9.353349452150149901e+00 -1.079910782168154348e+01 3.964285924666020833e+01
9.493668040534972263e+00 -1.143744611444208914e+01 3.726476113270672386e+01
9.816327558391705566e+00 -1.158535305863133225e+01 3.636367845588986825e+01
1.090737188026639082e+01 -1.177437481652044404e+01 3.418621506703078694e+01
9.980062848356469729e+00 -5.628972418435385094e+00 4.516895563185310891e+01
9.396833461303716106e+00 -6.697361872655466897e+00 4.457321424654474384e+01
1.038682565738013075e+01 -4.736533906494617696e+00 4.559552840669122276e+01
1.127841305919029757e+01 -2.829413112979708433e+00 4.635000157381942643e+01
1.178456830426334712e+01 -2.383228316981813144e+00 4.649359150697132748e+01
9.005343765956459023e+00 -1.045931833571086678e+01 4.034202669230798932e+01
8.895445815063698802e+00 -1.008306351096344855e+01 4.110692564500191537e+01
9.139952059147077534e+00 -9.793374054078316959e+00 4.182257260274828781e+01
1.272134879179885658e+01 -1.003563004518822588e+01 3.092602824730369804e+01
1.114682117334788458e+01 -1.159999991298714761e+01 3.360521884853858410e+01
1.130879869042454011e+01 -1.137712108223707119e+01 3.290871186553344785e+01
1.203278711753910102e+01 -1.072029377555117513e+01 3.171483606947270673e+01
1.054497227156705108e+01 -1.175195410226368153e+01 3.502818752740057562e+01
9.397482817197122529e+00 -6.110266745842918290e+00 4.484688732686802837e+01
1.222995556199063749e+01 -1.798747179420496778e+00 4.661555710378144823e+01
9.031128543564820532e+00 -9.316627611208378568e+00 4.251303207431183040e+01
9.015436511796341534e+00 -9.009514001268096095e+00 4.292528692538955681e+01
8.944896483350408545e+00 -1.032080865344207687e+01 4.066503937829115500e+01
8.963267973491982232e+00 -1.062925110545778651e+01 3.984183166576908519e+01
9.046897595920700752e+00 -9.623733005791693884e+00 4.210077360971602189e+01
1.166996909578511321e+01 -1.102246985226694598e+01 3.215539697376630102e+01
1.225036939307901562e+01 -1.029263616774764145e+01 3.104378455419986693e+01
1.020632404579755992e+01 -1.172917823696949036e+01 3.512567295694943681e+01
1.013983451686129733e+01 -1.170912949391974855e+01 3.543978998628147536e+01
9.142001993519571101e+00 -1.111680904843444928e+01 3.843109778062309090e+01
9.341988776684740259e+00 -1.135148751847929383e+01 3.754255855577810763e+01
8.678020311414483601e+00 -1.072265186978919083e+01 3.938476301793358658e+01
9.309193478436524671e+00 -1.157903713200262885e+01 3.594283731310604679e+01
9.347643795974493131e+00 -1.148358496193537626e+01 3.675393956636266068e+01
1.033527024615728429e+01 -1.174697092618591121e+01 3.450370088701531301e+01
9.892891994686674906e+00 -5.129582177934170595e+00 4.535839259364122711e+01
1.078748667941298578e+01 -3.806163794841036729e+00 4.601391371357835425e+01
1.036291771973468911e+01 -4.211565781863054525e+00 4.581506925130741337e+01
1.069372342840539680e+01 -3.268993311440097305e+00 4.620261097465068190e+01
1.110612208080294394e+01 -2.286315075148627862e+00 4.653393948030542759e+01
1.161265882011777961e+01 -1.839458214346475717e+00 4.667751962670492105e+01
8.807233778872118890e+00 -7.680541995993113602e+00 4.399461656596891856e+01
8.737961199089607334e+00 -6.894558162435426851e+00 4.432811435370585684e+01
9.006257725563042271e+00 -8.773299479529592659e+00 4.322028531704171428e+01
8.496915678366178781e+00 -1.049032505526539438e+01 3.990264303457622219e+01
1.143345789025851467e+01 -1.087561225165562817e+01 3.162211192996786124e+01
1.110355389493694744e+01 -1.110486889234732999e+01 3.205377400234419838e+01
9.010513701361633210e+00 -1.124930319155151004e+01 3.778761992700847827e+01
8.698132588816044120e+00 -1.088413594631118109e+01 3.895172071362735977e+01
9.868386597974398100e+00 -4.604971227378184651e+00 4.557919270230517128e+01
9.398298766289061135e+00 -5.523164066933674121e+00 4.512051053848895776e+01
8.777736442965583308e+00 -6.504466530299215066e+00 4.452496232888134386e+01
8.951400304372478800e+00 -7.988428632468707491e+00 4.379988654174960061e+01
8.895890345899967855e+00 -8.378073914641948505e+00 4.348385747128858014e+01
8.458821846772559994e+00 -9.095950094710900657e+00 4.255112876820346912e+01
8.377029622880863613e+00 -1.021338373143255751e+01 4.054749209312919334e+01
8.664830557894669383e+00 -9.844733608639771205e+00 4.144464327638680601e+01
8.479703772466164580e+00 -9.505503687802166368e+00 4.200138463972378133e+01
1.065211711569122066e+01 -1.150126930013601090e+01 3.300770847481532400e+01
1.077364773416735133e+01 -1.133412538355756638e+01 3.248543957368431023e+01
1.053058042362387425e+01 -1.166840460907732968e+01 3.352998151643247837e+01
9.524772163003744296e+00 -1.166156212744675003e+01 3.532690239316007563e+01
8.817106528227581563e+00 -1.098836315560947519e+01 3.867347581153293135e+01
8.879051951993428560e+00 -1.138182190425506235e+01 3.714437479435030554e+01
1.026921939964138630e+01 -3.674649325336259764e+00 4.600371190224654327e+01
9.374005900132074132e+00 -4.997814077937834831e+00 4.534171057006398087e+01
8.778865481892285771e+00 -5.721673109080803954e+00 4.488988767479136044e+01
1.060033653711331958e+01 -2.732674241512492497e+00 4.639096557711295787e+01
8.439570699473458504e+00 -8.623628729822993222e+00 4.314056584367060765e+01
8.190222350149374719e+00 -9.896033473455965179e+00 4.106713886876073616e+01
7.820356556831898232e+00 -1.027601820570824742e+01 3.999024521481879901e+01
7.988395357036848665e+00 -1.052133958268654723e+01 3.946296577504234904e+01
1.041085385815553011e+01 -1.175559423835846751e+01 3.382048072963632990e+01
9.657557804009828217e+00 -1.170157219145833949e+01 3.469865777105470528e+01
8.360693121869253730e+00 -1.099235617295210865e+01 3.827221404466430954e+01
8.122646886586757375e+00 -1.078387910380945947e+01 3.882896143035883085e+01
8.684284636857189099e+00 -1.144333841072061198e+01 3.646321869248426140e+01
9.844811242982865807e+00 -4.080213707894357889e+00 4.580011861306116572e+01
8.824665966426026742e+00 -5.291943041140537041e+00 4.508579587147129075e+01
1.099936567463084813e+01 -1.719003953163940723e+00 4.673675787276737026e+01
1.017559994252686728e+01 -3.137877444946436611e+00 4.619224938980170947e+01
8.403256442210674138e+00 -8.100286546745227412e+00 4.352714318647677061e+01
8.158916194328973859e+00 -6.311679951726903326e+00 4.447672541910944233e+01
7.809293404654328086e+00 -1.010600024759737892e+01 4.042997778217957716e+01
7.716029145200951511e+00 -9.947297101281828091e+00 4.068989958083092517e+01
1.023781355883758870e+01 -1.129106767228703667e+01 3.206162699773037161e+01
1.025059964022258718e+01 -1.146901906618073319e+01 3.269015883282917656e+01
1.012631821721622849e+01 -1.174189327858969456e+01 3.397921808964728996e+01
8.802055259544429688e+00 -1.157272863468714164e+01 3.552199432762429865e+01
9.914334971695234699e+00 -1.173680913886385291e+01 3.345474587621224316e+01
8.412097398665201453e+00 -1.117390367566107301e+01 3.758564437886735732e+01
9.349938190350290057e+00 -4.473407978042825306e+00 4.556247856038781663e+01
9.750944254690365298e+00 -3.543136591655991818e+00 4.598909695328279668e+01
8.078920069320274067e+00 -7.091739555084569879e+00 4.408294931228507352e+01
1.049289139180456765e+01 -2.165696654458728609e+00 4.659385095240629227e+01
8.114476946954271241e+00 -7.484591880582151191e+00 4.391639251868493687e+01
7.901809640510614408e+00 -9.182436654512018848e+00 4.217670390231117494e+01
7.887512436551635808e+00 -8.828245812673847226e+00 4.261879691871988740e+01
7.870240899386800493e+00 -9.643922688410375699e+00 4.137433696339456901e+01
8.489555119960691343e+00 -1.150487445568927569e+01 3.578212438069246559e+01
8.909816107764539694e+00 -1.161399540503155592e+01 3.521402176807742279e+01
7.904259591501197058e+00 -1.099635108973386544e+01 3.787094411278753370e+01
7.725740078222508522e+00 -1.083999297195490463e+01 3.828834351889445031e+01
9.511968983004159384e+00 -1.170530441872930183e+01 3.386318519644203917e+01
8.386618135470811808e+00 -1.136291362313122022e+01 3.673310031102834472e+01
8.293081418375154001e+00 -1.128849229558558243e+01 3.702482347326018441e+01
8.800419239438836527e+00 -4.767118988521583667e+00 4.530677274658133769e+01
8.159661020781280527e+00 -5.920048781091605150e+00 4.465934009878384359e+01
8.289114850770817000e+00 -5.492632106824092197e+00 4.487388643430566049e+01
9.925036588418352679e+00 -2.492251377819673319e+00 4.642184761693989969e+01
7.903192500988965641e+00 -7.811117771527373854e+00 4.358737124433041288e+01
7.912592050848449077e+00 -9.387239643851764015e+00 4.190195492111782016e+01
7.241681799611783710e+00 -9.998593225400986384e+00 4.031243773159181387e+01
7.531400119592471576e+00 -1.037339957121657541e+01 3.953024361154393063e+01
7.479657315880770874e+00 -1.055237069986152321e+01 3.902268360079792586e+01
9.727544285111521916e+00 -1.160391043230193020e+01 3.289487609851596517e+01
7.958208733870214324e+00 -1.113116653524085464e+01 3.737440602270012846e+01
8.701649958703708165e+00 -1.162022191894256196e+01 3.468637295197515868e+01
9.108796054511092422e+00 -1.167379689174662083e+01 3.427164342221665549e+01
9.326053722447545269e+00 -3.948696028605174657e+00 4.578333808886548439e+01
9.695984718547904890e+00 -3.048359984840414594e+00 4.617876766520869580e+01
8.250533947390181311e+00 -5.060528736751194856e+00 4.505104365381942699e+01
1.038567612161347320e+01 -1.598460661938386984e+00 4.679675612372169269e+01
7.855056444608120358e+00 -8.212138715413017209e+00 4.325435558921430612e+01
7.480194144512094745e+00 -6.703902718265762672e+00 4.413316240166906823e+01
7.873233273641150554e+00 -8.474046910246112674e+00 4.306088637020408783e+01
7.151486149450766661e+00 -1.019342217552797258e+01 3.973622217402981249e+01
7.276111340381290482e+00 -9.755273193336758908e+00 4.080926832083248001e+01
7.547202730702841755e+00 -1.068363708322558914e+01 3.870654614365164292e+01
7.325437199708765945e+00 -8.796775395894650629e+00 4.239145062894197480e+01
9.540743675223010811e+00 -1.147099615353651636e+01 3.233498822832060426e+01
8.294918669464539818e+00 -1.156642874671911514e+01 3.510115425938464995e+01
9.302789609489819256e+00 -1.170021805155088757e+01 3.333870947741336010e+01
9.433992635830977136e+00 -1.169003391033839812e+01 3.308233910937936884e+01
7.447544903899175672e+00 -1.100035262271009984e+01 3.746942896108072318e+01
7.371866026781028758e+00 -1.083890478848687877e+01 3.799244093535426714e+01
7.894060884149758373e+00 -1.134400350929475998e+01 3.632172368472470225e+01
8.776330676893492111e+00 -4.242209336627231764e+00 4.552774990516328302e+01
9.300161681130195035e+00 -3.382902003196134100e+00 4.600424039577946189e+01
7.539304098280462441e+00 -6.118675505322452857e+00 4.442842266118077532e+01
7.421500963015421171e+00 -7.288576693099675374e+00 4.383812958668571014e+01
9.817371079768157927e+00 -1.925036063632545646e+00 4.662475811572490869e+01
9.274483995046132634e+00 -2.817163315035030369e+00 4.622507963353538685e+01
7.345043562405401794e+00 -9.268879324137882847e+00 4.180243937160938827e+01
7.310551535207408413e+00 -9.512122418296968362e+00 4.130575823166875438e+01
7.305841946214888694e+00 -8.324185176216397863e+00 4.298104722431209979e+01
7.848016211314505775e+00 -1.144574728470863434e+01 3.550555390091782471e+01
7.706976833056805809e+00 -1.119514506960270062e+01 3.690531365267132458e+01
6.971557078336371838e+00 -1.058336823761648660e+01 3.858295627165513508e+01
8.560031884553159998e+00 -1.164601632520290408e+01 3.384463676482958050e+01
8.838186023996689400e+00 -3.703218248768784804e+00 4.577806100859176297e+01
8.226572754667831333e+00 -4.535758842314345785e+00 4.527205657448552500e+01
7.608064148384112713e+00 -5.473709476714449629e+00 4.472252274948867523e+01
8.812648022615338306e+00 -3.137631138468055081e+00 4.599895150199533589e+01
7.363669977994367954e+00 -7.806403159394132985e+00 4.340959094341783953e+01
6.716031840003589437e+00 -9.983424764032042376e+00 3.987646937839982542e+01
7.061508998481773602e+00 -1.038843233085401430e+01 3.915947565484326987e+01
7.401181020865680082e+00 -1.132508322193058525e+01 3.591008592511710873e+01
8.086690743437960904e+00 -1.157260301802983804e+01 3.457349174920061330e+01
7.676808666510363643e+00 -4.829287070876137733e+00 4.501630868562639876e+01
9.801274096726453777e+00 -1.333779941641204614e+00 4.685996149865851379e+01
9.249031943745526618e+00 -2.251578203648204379e+00 4.644581220300809576e+01
8.787203293593819353e+00 -2.571852294028091457e+00 4.621985503501252168e+01
6.908355112745760529e+00 -6.143568171148728219e+00 4.424832188886936279e+01
6.637177653185180048e+00 -9.812728217798929009e+00 4.020605360389957639e+01
6.806237014171688138e+00 -9.509336105637894221e+00 4.092266793202345099e+01
6.666389250748435913e+00 -1.016465274604250268e+01 3.937148439383955889e+01
6.840670830527154855e+00 -9.266138819798023007e+00 4.141921431404067988e+01
6.722501677595158931e+00 -8.696682723346903288e+00 4.219569120677761731e+01
6.774147512741369503e+00 -8.340398213098460189e+00 4.267575251491295774e+01
8.953625922512808089e+00 -1.164325063825483397e+01 3.270991558998042592e+01
8.688696659976324455e+00 -1.166362629433576892e+01 3.322267599151174267e+01
7.702141160205815851e+00 -1.149195084078577089e+01 3.499466402013851507e+01
6.825679211544430025e+00 -1.072509554259414344e+01 3.794400887754412111e+01
6.990970067178926328e+00 -1.100435535973820578e+01 3.706804633211345390e+01
7.878524870960534443e+00 -1.157855593952068851e+01 3.404584517201075755e+01
7.120530830054908833e+00 -1.110174800190119271e+01 3.678581935772130151e+01
6.967673772067158211e+00 -1.116671765541638273e+01 3.628806157041474023e+01
8.288653063761051598e+00 -3.996836148482644013e+00 4.552247327802490418e+01
8.350644864383754751e+00 -3.457909271418815766e+00 4.577278061221380057e+01
7.005310191473068215e+00 -5.844534091560507960e+00 4.441014020606187529e+01
6.820847376515729366e+00 -7.021180182840646822e+00 4.380563319896480579e+01
9.232873009083265359e+00 -1.660771776792924426e+00 4.668115947443574498e+01
6.877994002798107687e+00 -7.291659144020258942e+00 4.363127164382733980e+01
6.670870649842926881e+00 -9.052960844660624673e+00 4.171562535778554803e+01
6.766459352164368113e+00 -7.680314402964054210e+00 4.328398496306748910e+01
6.654927894284213608e+00 -8.068935802618565134e+00 4.293669961970010718e+01
7.762095153962325078e+00 -1.153615955836242435e+01 3.468789747047716787e+01
6.908389687387450628e+00 -1.130616983125076125e+01 3.549852308044081184e+01
6.679946854834270198e+00 -1.086668373446519098e+01 3.730508610823355298e+01
6.512798860310518023e+00 -1.055774187485262772e+01 3.819232300290282467e+01
8.011269140269734024e+00 -1.161823116204542039e+01 3.341762376769369070e+01
8.325128704427507742e+00 -2.892358690352065054e+00 4.599365685010782556e+01
7.738820100388632106e+00 -4.290207127857001979e+00 4.526684648564186375e+01
7.108596210506119562e+00 -4.877743886860701039e+00 4.485100056548039760e+01
6.775903887066853315e+00 -6.564946077785560163e+00 4.401166172845102409e+01
8.656762693037476808e+00 -1.861261479761571414e+00 4.648438876691653832e+01
6.405347575026086204e+00 -9.515635518743916776e+00 4.060168572415027199e+01
6.032758959734018767e+00 -9.626885953630322845e+00 4.009966814294487136e+01
6.365336370498873464e+00 -1.023838942420232634e+01 3.891237970116658573e+01
6.381859492844093040e+00 -1.041816595682328916e+01 3.847046599312541559e+01
6.190533854165948924e+00 -9.968263932732650545e+00 3.944062281614993282e+01
6.242852855740453677e+00 -8.356591705014766447e+00 4.237068044566189684e+01
5.996642678582284169e+00 -8.837012777591402468e+00 4.162879109663804655e+01
8.472826632058286123e+00 -1.159646183185861723e+01 3.233749547787692080e+01
7.670449430052550532e+00 -1.158450217571862950e+01 3.351821762639985280e+01
8.353929669107955647e+00 -2.376681001425477113e+00 4.621102040528177923e+01
7.800966110568268164e+00 -3.751463186170418851e+00 4.551718926794545439e+01
6.970516526345945429e+00 -5.343419691809998540e+00 4.461619620127972041e+01
9.216917968718160381e+00 -1.069110753580020834e+00 4.691675049170693512e+01
6.471978239380011821e+00 -5.570600226580506131e+00 4.439186707982837277e+01
6.336391021546109670e+00 -9.263397845011867915e+00 4.103605706325304681e+01
5.710731471907058321e+00 -8.372802102308540384e+00 4.206512933119822151e+01
6.005030442992917550e+00 -7.814076199976363490e+00 4.289241010088210260e+01
6.334452679771304773e+00 -7.294725782216155530e+00 4.342438783382024781e+01
7.109331883978852851e+00 -1.141746764639758993e+01 3.488818315607399967e+01
7.229264429460275032e+00 -1.150571240059476885e+01 3.427464202073634425e+01
6.534138204874076372e+00 -1.100836459571068282e+01 3.666644217093288205e+01
6.054487014398548972e+00 -1.053214260585326834e+01 3.780206607282362086e+01
8.075409362275477676e+00 -1.162703380304846412e+01 3.310664065933124789e+01
6.330204525078348077e+00 -1.109500434384807122e+01 3.600241778448913976e+01
7.863312090541165311e+00 -3.212708451109095975e+00 4.576749614497774843e+01
7.930132868795412904e+00 -2.631733386084792681e+00 4.601950407175063873e+01
7.067920677376755556e+00 -4.457925044471896747e+00 4.501225550565817457e+01
6.219381420598008248e+00 -6.753415414832734776e+00 4.377308737766533397e+01
6.277469993586853647e+00 -6.168436790775212231e+00 4.406813620075040916e+01
8.640308944235201238e+00 -1.270096908149439097e+00 4.671982731714300741e+01
5.832371715650493726e+00 -9.260657429734852286e+00 4.065309866009413753e+01
5.774014313831515643e+00 -8.056493617503683424e+00 4.247791662769234478e+01
5.826166586788372292e+00 -9.017690180516652276e+00 4.113529555532171855e+01
6.415318690927283463e+00 -1.128724880365470007e+01 3.508673230839396950e+01
6.079707324252656697e+00 -1.073934217224416088e+01 3.711554940365177657e+01
7.462506639542327846e+00 -1.159044095098612281e+01 3.299061044864732395e+01
7.380935866916130017e+00 -2.835385534426579479e+00 4.578915797993500547e+01
7.997057602592587244e+00 -2.051448386534825197e+00 4.627117327241886358e+01
7.130099031518188468e+00 -3.919141467551643832e+00 4.526269364775289716e+01
6.540781306780139914e+00 -4.926133103952862413e+00 4.468580979398986130e+01
5.465592430560038295e+00 -9.647550254035060391e+00 3.954245070696826048e+01
5.428161893362593915e+00 -9.440982826833694830e+00 3.999324095739954288e+01
5.791814383603922423e+00 -1.025288004457913971e+01 3.835791260323632201e+01
5.664828157301007749e+00 -9.953101167080308898e+00 3.900460066618573052e+01
5.322319161952195898e+00 -8.621022075832451392e+00 4.154193075979705441e+01
5.791024769338576128e+00 -7.297774556274823965e+00 4.321753539412141976e+01
7.726313307108705786e+00 -1.157005962657081177e+01 3.247783077906789373e+01
6.126234231101764571e+00 -1.118167959622406116e+01 3.533849220353019405e+01
6.516107942412781462e+00 -1.134293321633377616e+01 3.478164889389515224e+01
7.079276117427243165e+00 -1.153284585632001935e+01 3.342598512809809819e+01
7.448210558468941755e+00 -2.254798768856072666e+00 4.604112089441926514e+01
7.192448589692880034e+00 -3.380272579925886145e+00 4.551313168902692752e+01
6.459242050154942127e+00 -4.086698231925911529e+00 4.500819918162994782e+01
8.064215118431297569e+00 -1.470764664096236851e+00 4.652297156827563640e+01
5.328293541414794277e+00 -9.257920013795066794e+00 4.027009268566234113e+01
5.198076186624979833e+00 -8.021863248986560890e+00 4.220967077355443564e+01
5.269578260731540453e+00 -8.974599066898163002e+00 4.079268912574141126e+01
5.354183372297507404e+00 -7.558830389872350786e+00 4.284804876379229910e+01
6.050527977181626049e+00 -1.097015416214873618e+01 3.626639989220804239e+01
5.595832533600258785e+00 -1.050652741513561494e+01 3.741076570220254638e+01
5.955999084871049121e+00 -1.086372522501470783e+01 3.655913159081626418e+01
6.696431384566003508e+00 -1.147524266662518677e+01 3.386139237816153980e+01
6.899278283907505305e+00 -2.458627143871397358e+00 4.581078385740549663e+01
6.216018680963018461e+00 -4.530639671837205285e+00 4.476440246139433299e+01
5.793018479801702370e+00 -5.744978077981786058e+00 4.413089532639440904e+01
5.617944695347370399e+00 -6.485656853089414753e+00 4.374053753803759292e+01
6.521507461852651844e+00 -3.547823634682424121e+00 4.525868288298204334e+01
8.709269058446949430e+00 -6.488248719400545594e-01 4.698929484212335694e+01
7.515068163914179422e+00 -1.674394253199312343e+00 4.629281068605475724e+01
4.823934131611211207e+00 -9.255188734097458791e+00 3.988686668470650432e+01
5.479177843588861840e+00 -1.031577940087593781e+01 3.785495635110048340e+01
5.179478728461365478e+00 -8.388980187127108579e+00 4.176007146498597677e+01
5.247511582905432626e+00 -7.300811442960972286e+00 4.301063537992528296e+01
5.432720238914846789e+00 -6.893255996167466648e+00 4.337558652851043206e+01
5.566776529507534654e+00 -1.093193512720515059e+01 3.586627695159059215e+01
6.309382726812842179e+00 -1.137197553142224216e+01 3.426814725991621913e+01
5.922379500853846679e+00 -1.126833794787850884e+01 3.467504746309010244e+01
6.871139773980824650e+00 -1.153878416399298779e+01 3.289831721215403348e+01
6.710231706020575615e+00 -3.003182224192004757e+00 4.553475332133047715e+01
6.966285058803499020e+00 -1.877864082390187761e+00 4.606273440871465397e+01
5.938608294925606046e+00 -5.296645195488574487e+00 4.437358962272307394e+01
5.647560777564724965e+00 -6.193239579894959768e+00 4.388819803112413354e+01
8.132707932114932703e+00 -8.497359397063275477e-01 4.679236717533655110e+01
5.169570165749212798e+00 -9.731764386702261405e+00 3.907942751252370783e+01
4.753938454611883024e+00 -9.477667437385852267e+00 3.930245031620889762e+01
5.139475448396170876e+00 -9.937953715254847609e+00 3.856886834785136386e+01
5.202752162521187884e+00 -1.008782223535361666e+01 3.824550763300297263e+01
4.706840249711305546e+00 -8.688541560957249388e+00 4.093226446552095865e+01
4.685453706822912068e+00 -7.670923572982429661e+00 4.235420937607337777e+01
4.860365312181756714e+00 -6.761151963539723475e+00 4.325571107182475572e+01
5.590402620518942989e+00 -1.105188826730631035e+01 3.531674976439997948e+01
5.640153798878269065e+00 -1.066067215444005356e+01 3.692671240444354197e+01
6.163565495087016011e+00 -1.144476861439073723e+01 3.344812409598519309e+01
5.972858758185014771e+00 -4.974492036715150611e+00 4.452060424480250589e+01
5.850386222946852399e+00 -3.715369149961643913e+00 4.500413814007826119e+01
7.547006075616288001e+00 -8.999014050802254250e-01 4.659821221963989046e+01
4.765379219703231861e+00 -8.971986837708408657e+00 4.040933502810607081e+01
4.648398628941032840e+00 -8.405148366377485303e+00 4.145510794167003610e+01
4.666922279237837756e+00 -8.037980538931156715e+00 4.190472826480643675e+01
4.704002881942984438e+00 -7.303833517678032905e+00 4.280372362137217834e+01
5.016850822010729516e+00 -6.218043889095470789e+00 4.370800055448739130e+01
5.405529850414743542e+00 -5.022840525341817575e+00 4.435531808791659358e+01
5.083325290783627715e+00 -1.089374284204420285e+01 3.546643530877827999e+01
5.377939501416762802e+00 -1.071911420053878139e+01 3.645196851760782408e+01
5.647317072301439644e+00 -1.130710828345250007e+01 3.399016424332802444e+01
4.991131551444408565e+00 -1.025536190232907074e+01 3.753709742968068497e+01
6.228014767636612881e+00 -2.626093856475923083e+00 4.555637085770047889e+01
6.417089206620119057e+00 -2.081453559366586159e+00 4.583243066757599848e+01
5.627366619714080365e+00 -4.369314205813315866e+00 4.467966610228731383e+01
5.211033961286799077e+00 -5.620629627562817809e+00 4.403159492546808451e+01
6.039113360400567565e+00 -3.170765595942913961e+00 4.528025615983054308e+01
8.201398175522131240e+00 -2.283234847420430591e-01 4.706186574603678707e+01
4.683998315864942974e+00 -9.700220432392034908e+00 3.871784012926198670e+01
6.279941548112001115e+00 -1.148712699323441555e+01 3.280602317469440976e+01
5.411795215851514129e+00 -1.122330520380107544e+01 3.427390207661478172e+01
5.216591625063443871e+00 -1.101986890166290145e+01 3.501964371457896874e+01
5.137501808129163017e+00 -1.048093201225243121e+01 3.701975318246013558e+01
7.615489060355113971e+00 -2.787147734807315924e-01 4.686768114534991980e+01
4.218392032870518449e+00 -9.013280201760043298e+00 3.987763563146093304e+01
4.315627157538129310e+00 -9.188052295941716352e+00 3.958483597842008095e+01
4.614115310258397606e+00 -9.922813041436867820e+00 3.813312521215512163e+01
4.078157199346264861e+00 -8.333276820965204834e+00 4.113224599906457968e+01
4.064214123693613345e+00 -8.650887859444759798e+00 4.048114687426007663e+01
4.132505939469661271e+00 -7.248446519457009352e+00 4.251549912791163166e+01
4.411714066692860037e+00 -6.148409297118312189e+00 4.350363791755412279e+01
4.161613369653837324e+00 -7.017060806977260867e+00 4.278023106195495728e+01
4.028850618008407380e+00 -7.665197279574500477e+00 4.195396622631385242e+01
4.313938332884054816e+00 -9.405819397498303758e+00 3.907317822760951032e+01
4.941594736982426461e+00 -1.073412054572191288e+01 3.590533944413199663e+01
5.349848287659832557e+00 -1.114600864708558170e+01 3.457299125732652811e+01
5.199146198294198662e+00 -3.668238195376024358e+00 4.483242774527781904e+01
5.401784217575768210e+00 -3.343500590630450464e+00 4.500811454298642644e+01
7.814861531753872548e+00 3.437629972518739252e-01 4.715504874941150604e+01
4.086973859312175605e+00 -8.129163669630505851e+00 4.143637698970310623e+01
4.194778293247992451e+00 -6.554252841657598694e+00 4.312366124761856412e+01
4.830887459267098727e+00 -4.964252404133039143e+00 4.420893955566097588e+01
4.865678860306487330e+00 -4.648768001819285622e+00 4.434571454774006583e+01
4.045540660131067945e+00 -9.708654606621525573e+00 3.812113134640049594e+01
3.926338518359687946e+00 -9.414780435858840946e+00 3.870194726723262590e+01
4.567782679224560383e+00 -1.070096169454383173e+01 3.560969713042959484e+01
4.799848298094251398e+00 -1.057450255243547055e+01 3.634498135268399466e+01
5.372401763589932600e+00 -1.134546357422975227e+01 3.330567717128221972e+01
4.599844084448091230e+00 -1.085555057409557556e+01 3.506660413181163705e+01
5.826263305253051250e+00 -2.117871011964238992e+00 4.562926008936700129e+01
4.395693134109508904e+00 -5.845743375287970167e+00 4.368687141228157600e+01
4.940397861878481400e+00 -4.126190596592043569e+00 4.457512679742750805e+01
5.553064235354555400e+00 -2.700666536425470721e+00 4.531115139423109639e+01
3.807231095546085076e+00 -9.120908866984859031e+00 3.928274886903646745e+01
4.482842969825780344e+00 -1.009164954487363097e+01 3.750300131334184073e+01
4.521841439843406363e+00 -5.372149238990194142e+00 4.393508887212480829e+01
4.777019241409362849e+00 -1.102362188170369528e+01 3.447088340837775888e+01
4.352091939296763634e+00 -1.026065489983178303e+01 3.687223403522011012e+01
4.679216352837912929e+00 -1.045534283504304618e+01 3.662879777535528092e+01
4.221264279368302397e+00 -1.042977571561248418e+01 3.623814758192196450e+01
3.612943052028597890e+00 -8.771398169939313760e+00 3.986840526225396530e+01
4.140408081154302700e+00 -9.866168340545932836e+00 3.776637468320762991e+01
3.507724078515266353e+00 -8.261385226984033991e+00 4.080927588094272807e+01
3.526391453928125586e+00 -7.853573445025293864e+00 4.141767065190708053e+01
3.619356284930340006e+00 -6.730341579816513153e+00 4.275673693442829659e+01
3.560422625594112489e+00 -7.192994447885673104e+00 4.222696538493485008e+01
3.806553523559426555e+00 -6.078747065739123379e+00 4.329924276674660888e+01
4.256757140093132996e+00 -4.905687619884806061e+00 4.406266170354409439e+01
4.952807798848772869e+00 -2.971322844195857904e+00 4.501209363198449154e+01
4.548106206916325611e+00 -3.621092216583991608e+00 4.466075044115495274e+01
3.474597419187223757e+00 -8.493529386781997204e+00 4.031460641329005057e+01
3.460689115517936454e+00 -7.499101961751560630e+00 4.179988941639832944e+01
3.775510594587353275e+00 -5.474010145180199238e+00 4.366577229526160409e+01
4.325955798681890840e+00 -4.274784013403013283e+00 4.433611126875258890e+01
3.476909646746746407e+00 -9.494473093479980363e+00 3.810913214578575747e+01
3.297982457562122605e+00 -9.053657753428323574e+00 3.898015357686625748e+01
4.045582147040840404e+00 -1.002436603519774394e+01 3.720737157436246179e+01
4.025138099327691066e+00 -1.054621206858068660e+01 3.558029705544172572e+01
4.116409839102021628e+00 -1.081736560048215345e+01 3.466684084527030763e+01
3.728642008523376905e+00 -1.005250312521461176e+01 3.677249466683078793e+01
5.020133690578147068e+00 -2.537487647707908245e+00 4.520548482641022048e+01
5.236107277988866215e+00 -2.154232516515181661e+00 4.542630102091020916e+01
3.115147690716621121e+00 -6.815853054540907507e+00 4.235894667243396583e+01
3.202009858502839368e+00 -6.009127589215593979e+00 4.309503276566127994e+01
3.306311013815306676e+00 -9.252884911258849598e+00 3.852097799108158682e+01
3.666363936384683608e+00 -9.809484992256585656e+00 3.739935256856684020e+01
3.152739374965965347e+00 -8.791604366283468863e+00 3.941967028699787079e+01
3.828967517212116256e+00 -1.066268090414493486e+01 3.492334372634554285e+01
3.737382475671361615e+00 -1.036612962409763661e+01 3.586254873981165758e+01
