-3.212225744269353367e+00 -8.001484908468114554e+00 1.980359302608122363e+01
-2.899655217985193101e+00 -7.654439251509420394e+00 1.959701475728949305e+01
-6.781869515927281267e-01 -5.225741432996425573e+00 1.868884206741446263e+01
-1.018688833784634040e+00 -5.643575440694610812e+00 1.879094083626474543e+01
-1.527360389482671055e+00 -6.589197777876836248e+00 1.914447234500870820e+01
-8.658325070964103531e+00 -7.149783040968707759e+00 2.779412548322233079e+01
-7.904594214288435339e+00 -7.820688866114953619e+00 2.721510367337731395e+01
-4.740342144051055584e+00 -9.372992303340016207e+00 2.149507032796883976e+01
-6.713043966343868796e+00 -8.990158767747777446e+00 2.453020638603495485e+01
-7.080995825194892568e+00 -8.658457727957610928e+00 2.471141051099733588e+01
-2.829327792653129128e-02 -2.282189712566154771e+00 1.824891340285606489e+01
-3.981183253759586482e-01 -1.210755974103779886e+00 1.818065879118185535e+01
-4.778652897943024280e-01 -3.813637428158754172e+00 1.830176073012633609e+01
-3.339764841963532294e-01 -4.435940798599950163e+00 1.844854371177647678e+01
-9.187870414288067389e-01 -6.157930548967287976e+00 1.897877081865782856e+01
-8.717825693330373937e+00 -6.954317571309302615e+00 2.853355419221928813e+01
-9.100906836601820871e+00 -6.528286266630380474e+00 2.874400342315697898e+01
-8.091691933931508984e+00 -7.602842736943784985e+00 2.779442918411029950e+01
-2.973629511569533701e+00 -8.512755476060982929e+00 2.013393258874020475e+01
-3.109628652761084577e+00 -9.049188956677419071e+00 2.077830511197532459e+01
-4.956019166960555111e+00 -9.742149219552569406e+00 2.265758399000161916e+01
-5.063976350411032890e+00 -9.926877487974531178e+00 2.323919996019509426e+01
-6.290128816926390698e+00 -9.255136630370561335e+00 2.428061839013830081e+01
-4.947322193802420470e-02 -2.941683681157472474e+00 1.829200020306180008e+01
-2.411741188385258194e+00 -8.072413388359851893e+00 1.987789282539451818e+01
-5.237777730998215420e-01 -5.798959034428963655e+00 1.890331803555984180e+01
-1.355579867741522948e+00 -7.211534146492723174e+00 1.945358319791487745e+01
-1.849554345445595605e+00 -7.631781631460230919e+00 1.962168420653350154e+01
-6.903548969780278988e+00 -8.738676170950387956e+00 2.649564409652675678e+01
-7.320482766023847176e+00 -8.293676176044552761e+00 2.716263437864610353e+01
-6.876314166782290904e+00 -8.853197363955271015e+00 2.584580123781901051e+01
-3.609572595086401492e+00 -9.159219618163366050e+00 2.098012457955159960e+01
-3.992825123995372039e+00 -9.479310308971285792e+00 2.145881418349772218e+01
-4.329221173072753004e+00 -9.714400406831236623e+00 2.206504534679522322e+01
-5.874675868097672726e+00 -9.532345560752919056e+00 2.419739515587689027e+01
-6.848820581906960747e+00 -8.967800404703847761e+00 2.519466863603209106e+01
2.515260035589268472e-01 -1.628422652801623904e+00 1.828764478540847804e+01
3.112780519558091402e-02 -3.547872529890276905e+00 1.834341531828927074e+01
-1.021583851977703600e-01 -5.295840711879551854e+00 1.877024868040792072e+01
-8.623121122740200484e-01 -6.791833907776489987e+00 1.928570486623226188e+01
-8.777368671572109093e+00 -6.758879457873767649e+00 2.927274695978692876e+01
-8.250401608208946413e+00 -7.370836215602138530e+00 2.840191042725738058e+01
-7.524600338727124971e+00 -8.056157720306698522e+00 2.779470665646991279e+01
-2.135424642139879481e+00 -8.454364386411651111e+00 2.030221241198386295e+01
-5.142901430457087031e+00 -9.961316929398330799e+00 2.388676938159334284e+01
-6.102659296468489813e+00 -9.427146815420410775e+00 2.469238874943809492e+01
5.103230671889326109e-01 -2.649323373919273195e+00 1.833782425241678737e+01
3.188727827274849824e-01 -4.792453288048990068e+00 1.863704356576881693e+01
-3.693398587485590689e-01 -6.372311921328536855e+00 1.911790208681318148e+01
-7.454211265893194716e-01 -7.344720727857017017e+00 1.972085628099155485e+01
-8.309785532458819901e+00 -7.175419993377123440e+00 2.914140746639888491e+01
-7.758990712562929382e+00 -7.770032817599980213e+00 2.836584945165322225e+01
-6.930587810232180068e+00 -8.624107019849308386e+00 2.714507507285468080e+01
-2.510202865027703734e+00 -8.747938667703266447e+00 2.047287720814394874e+01
-3.245650636346739226e+00 -9.585602035634668283e+00 2.142247544442457041e+01
-3.918065400862051462e+00 -1.005584678536311216e+01 2.263495229109192408e+01
-4.285784171505903295e+00 -1.016181300395883369e+01 2.322162907308006652e+01
-6.330645275564452668e+00 -9.321918757089227014e+00 2.518842533289754471e+01
5.305285534771054801e-01 -2.114137587198105184e+00 1.833631353164851419e+01
5.399653253020840760e-01 -3.282120388899821606e+00 1.838507618844408142e+01
5.146654536447390349e-01 -3.993003735132135468e+00 1.851807823682920429e+01
-1.760668344193627277e+00 -8.160779823135470679e+00 2.013153940603351089e+01
-1.347585157358638375e+00 -7.784438718072788532e+00 1.987293223268223841e+01
7.814998142632620381e-02 -5.964689757044632223e+00 1.902057529220876830e+01
-6.151478199439894823e+00 -9.238475811858403830e+00 2.619208667085554865e+01
-6.367129185087990528e+00 -8.998971463013381467e+00 2.691806461004996365e+01
-6.957492552001644626e+00 -8.509341258281210685e+00 2.779494663813093425e+01
-6.499848163664294631e+00 -9.103266867295522147e+00 2.569384814220787661e+01
-3.333043197714657069e+00 -9.856460162089675237e+00 2.201771844913740850e+01
-4.705031206840753377e+00 -1.012684367399876528e+01 2.373364240552588456e+01
1.000770522026873888e+00 -1.792222003209765102e+00 1.840831234075474043e+01
-2.414233452065309482e+00 -9.402077763826614643e+00 2.128693017142993682e+01
-1.671792672721223560e+00 -8.689673295245446738e+00 2.064138452180027983e+01
5.255366277331627867e-01 -5.557040103355282312e+00 1.892324115735063472e+01
1.676523324407193649e-01 -6.487811863192533224e+00 1.934103033672660032e+01
-2.377952530078730753e-01 -6.839948791849121079e+00 1.949505623956804001e+01
-7.337954268147178105e+00 -8.047772944940243534e+00 2.870630701283318587e+01
-5.803769123446188338e+00 -9.373781667004234208e+00 2.669070706416765049e+01
-5.587546379953198361e+00 -9.781410257708957445e+00 2.469018754359015944e+01
-5.815694087583432648e+00 -9.676045705894422255e+00 2.518481635377668937e+01
-5.849193708788758883e+00 -9.503940001125734227e+00 2.590768453076707090e+01
9.768264191372458827e-01 -1.179992765313305991e+00 1.839909832974118586e+01
1.024689563521530289e+00 -2.404349234021893711e+00 1.841752754625450450e+01
1.048577589322593928e+00 -3.016382209083470212e+00 1.842674426322582093e+01
9.979014006019392147e-01 -4.438032518821183103e+00 1.869276867554326671e+01
-2.046836043468254207e+00 -8.983095175329257387e+00 2.081184162959144857e+01
-8.462389408255274192e-01 -7.936915028690516571e+00 2.012393032621773870e+01
-9.244725465093578398e-01 -8.414913635842943052e+00 2.055006319832473238e+01
9.725205636070853865e-01 -5.149581568431568002e+00 1.882595281014579314e+01
-6.974971199828611468e+00 -8.390492349208377831e+00 2.840212212740062014e+01
-6.340556695568404066e+00 -8.887883157001128964e+00 2.775945001725866490e+01
-5.221854890273412764e+00 -9.995728497218649977e+00 2.453444970189900687e+01
-3.507456943335993671e+00 -1.039684614980122035e+01 2.320404999999999873e+01
-3.420254867717889891e+00 -1.012669914170371577e+01 2.261106691055602624e+01
-4.346070379964189989e+00 -1.032681413317653174e+01 2.422810647204576995e+01
1.023249205368923720e+00 -3.727083766743987336e+00 1.855971972448785934e+01
1.630475023418292535e+00 -2.270554512959869875e+00 1.859970945220314320e+01
1.653853881030256767e+00 -2.882641109117087819e+00 1.860883663720708014e+01
7.047715698053123035e-01 -6.099494850242682453e+00 1.928100963411734625e+01
2.455757106592807437e-01 -6.910200590619441918e+00 1.967119942190760185e+01
-1.063061241360074710e-01 -7.307367443797346596e+00 1.987210896625306944e+01
-4.278676584814499195e-01 -7.667648564760734864e+00 2.004466817282308355e+01
-5.975016257298944033e+00 -9.181327639828559484e+00 2.727885372109195572e+01
-6.551124633146120146e+00 -8.657523357411555764e+00 2.825887979709028031e+01
-2.839214003553275578e+00 -9.777510912352788353e+00 2.183064024987801943e+01
-3.547296110274998693e+00 -1.050692567990483717e+01 2.387508654076868098e+01
-5.300839446389094434e+00 -1.003010419872997971e+01 2.518225001244148586e+01
1.600723174994898912e+00 -1.505011597011945090e+00 1.858817364821327089e+01
1.511478764546023479e+00 -3.499860352001121999e+00 1.868616866207085181e+01
-1.582916167980012334e+00 -9.218534636924523795e+00 2.115127366670907350e+01
-1.002709695642501231e+00 -8.892867935758415499e+00 2.097619843780540094e+01
-3.444566895873695800e-01 -8.089534524242399272e+00 2.037521831191266841e+01
1.241162947284888851e+00 -5.711022167815742456e+00 1.922077004333489469e+01
7.053309345329515923e-01 -6.603488515045101259e+00 1.956454354942856000e+01
-5.252971888911272202e+00 -9.933818284674361010e+00 2.580530284086547255e+01
2.258482726037311483e+00 -2.748816070607284612e+00 1.879109652169795908e+01
1.473424262394065654e+00 -4.123895435038256174e+00 1.879740913138701686e+01
1.615357205371050986e+00 -5.083123885324424052e+00 1.903905891966552844e+01
-4.232729610714681678e-01 -8.567579575076242904e+00 2.080131566599112602e+01
2.513023054662872138e-02 -7.774578137778038744e+00 2.024906897470702205e+01
-5.723078289651982509e+00 -9.266332703562394357e+00 2.772377782258698176e+01
-5.205104561930689044e+00 -9.837470915936131988e+00 2.643202561679738594e+01
-5.456193240779747988e+00 -9.509206330066756863e+00 2.718978705580160948e+01
-5.778019563337157827e+00 -9.091209434235926423e+00 2.840964241385803746e+01
-2.433051419482242572e+00 -9.969288024007362026e+00 2.223846451922856104e+01
-4.743217121935767722e+00 -1.026238799389289547e+01 2.519426097738296022e+01
-2.878916861213731693e+00 -1.038195314773776445e+01 2.315343070668471270e+01
-3.986860604081944093e+00 -1.052691894431303687e+01 2.472291343018165932e+01
-3.042680958908425382e+00 -1.054464822934593649e+01 2.370744865799944279e+01
-4.893617376607759084e+00 -1.013850917109123806e+01 2.562585057986167669e+01
2.126947778074210760e+00 -1.954810618412103906e+00 1.874849756345373208e+01
2.116426154203895571e+00 -3.366126111883935845e+00 1.886844160123125036e+01
-1.595993224333869254e+00 -9.596737637046015124e+00 2.178588737585200974e+01
1.794790332770726859e+00 -4.533402618883222601e+00 1.899244284455634357e+01
1.974196960149676494e+00 -3.983638792237959692e+00 1.894582349982129088e+01
1.509957834804896759e+00 -6.272843274174460859e+00 1.961595681811592229e+01
5.838345008184927520e-01 -7.216096429048207916e+00 1.998301111858371826e+01
-2.602022660536488452e+00 -1.020115120711050238e+01 2.275028132084914034e+01
-3.587200138833699370e+00 -1.061701583850712538e+01 2.454621993054885465e+01
-4.486143572942189017e+00 -1.024697371803692114e+01 2.606973278678996309e+01
-1.055042148647286959e+00 -9.350759193600838515e+00 2.154028671891475000e+01
-3.738523132714406394e-01 -9.021403386827644866e+00 2.140259724871611979e+01
1.566187484298673938e-01 -8.241955263597903425e+00 2.062623809175068246e+01
1.883428002578079186e+00 -5.644732934173040562e+00 1.943388022598220388e+01
1.241835710970753848e+00 -6.718954520343070946e+00 1.978770015865017484e+01
6.971345491124000260e-01 -7.773254634590855083e+00 2.042140470576503120e+01
-5.157160347243322285e+00 -9.740902847208340987e+00 2.706063072518156787e+01
-5.109271000836248078e+00 -9.644367251616669634e+00 2.768792260746707257e+01
-1.609069108957631666e+00 -9.974620124672105348e+00 2.241957804248940178e+01
-2.027588439622705963e+00 -1.016073360206537046e+01 2.264542855711476932e+01
-4.185617552068815250e+00 -1.049465718304629824e+01 2.520627235118121945e+01
2.200035055294690345e+00 -1.217854553490343772e+00 1.876802267855070738e+01
2.727209866047931808e+00 -3.232439139445412835e+00 1.905070088138035445e+01
2.556376307341413412e+00 -2.229270543613332656e+00 1.887902986053884291e+01
2.256524170582230759e+00 -5.016733397320029653e+00 1.925199835852969699e+01
2.436810308575585005e+00 -4.467339896950024425e+00 1.920550875324615347e+01
1.238331805655269680e+00 -7.303728614135321706e+00 2.021621048294589329e+01
-5.061697684833025512e+00 -9.545806052206357251e+00 2.829309518724741679e+01
-2.250431717184593783e+00 -1.036706000046234877e+01 2.310281165345779542e+01
-3.627229567956795631e+00 -1.072725404997501286e+01 2.521829999999999927e+01
-2.413910262365883241e+00 -1.052982905794132407e+01 2.365707797006694335e+01
2.622588821989664254e+00 -1.639103194661346352e+00 1.889727488607638861e+01
2.872826671672025878e+00 -2.614955329736722511e+00 1.897346481438583510e+01
-8.618094940093742329e-01 -9.734387662231094751e+00 2.224859188974684443e+01
-5.272748020937468860e-01 -9.482961265694203945e+00 2.192918430268429120e+01
2.494047002715053529e-01 -8.618368952149848994e+00 2.114656017125172838e+01
2.582041885531543457e+00 -3.849769845572720062e+00 1.912808102443411684e+01
1.778662153113309996e+00 -6.834552792261444409e+00 2.001116985785170854e+01
1.400517079534767007e+00 -7.836256793299539503e+00 2.079569969181412858e+01
-4.617899421393536485e+00 -1.004820192327429496e+01 2.678766698046477757e+01
-1.622143354633902801e+00 -1.035216848686011737e+01 2.305220026708155245e+01
-2.577447695585128873e+00 -1.069259517470579546e+01 2.421134345769108620e+01
-2.967269096660616778e+00 -1.081421537721595527e+01 2.521803353850568641e+01
-3.987432537360888318e+00 -1.047860116830704946e+01 2.591107390505046126e+01
-9.059426290445395935e-01 -1.015068680540461976e+01 2.293685593024720148e+01
-4.945389908301452142e-02 -9.275744520428778728e+00 2.186308785397932652e+01
3.421071157684720809e-01 -8.994428371926481702e+00 2.166631530709108233e+01
7.500783939038895287e-01 -8.324561194734618752e+00 2.096998285562638031e+01
2.151869554547857444e+00 -6.206607845930457223e+00 1.982911114984177559e+01
-4.494500136104214505e+00 -9.953518711369834904e+00 2.759458152262654806e+01
-4.632076463141046041e+00 -9.761255904213932411e+00 2.813242413521408380e+01
-2.772323907697781475e+00 -1.075340781601842366e+01 2.471468955534616896e+01
-3.215395860525489979e+00 -1.083029582818926606e+01 2.566699187929671666e+01
2.944162952291118796e+00 -9.773607564088545585e-01 1.903955004269562679e+01
3.343117068116445711e+00 -3.098726797755607887e+00 1.923302871894806998e+01
3.197820866272353069e+00 -3.715942946112848144e+00 1.931032161420513305e+01
3.055190058608096226e+00 -2.060126921542446254e+00 1.902647046146559262e+01
2.526320445711290219e+00 -5.578457411136494848e+00 1.964699775603449083e+01
-2.913906841074051512e-04 -9.614972527236263389e+00 2.231734384536614257e+01
8.429755624790975510e-01 -8.700814055716143969e+00 2.149009989263440801e+01
2.907093140592181157e+00 -4.950368000776549593e+00 1.946490827561143888e+01
3.052503505747931278e+00 -4.333057999674717387e+00 1.938760338490605051e+01
2.356765359037429786e+00 -6.853096658233574168e+00 2.029843327690092281e+01
1.966523311478906466e+00 -7.269127118680274613e+00 2.050887973721135182e+01
-4.078640478795207081e+00 -1.035543978845314861e+01 2.651387741660780861e+01
-1.630875299038955006e+00 -1.056421391527397802e+01 2.377429202509916450e+01
3.154016391681775389e+00 -1.557045588031999328e+00 1.908429722892875091e+01
3.488428674515760886e+00 -2.481235604704205677e+00 1.915570457716075836e+01
-1.897945403661347175e-01 -9.949181633652855794e+00 2.282150083060511037e+01
-1.155309057731592981e+00 -1.044047280113196408e+01 2.346036636638969242e+01
4.348464891865816973e-01 -9.370622365232321727e+00 2.218602339913113752e+01
1.343621581323532155e+00 -8.407200162000517452e+00 2.131386384772731191e+01
2.544581107331696845e+00 -7.287595680185158464e+00 2.079607223807194316e+01
2.154329537415447415e+00 -7.703556467029072152e+00 2.100644387076966169e+01
-4.181709363007029445e+00 -1.019639316574683008e+01 2.709586182858485870e+01
-5.016772588903158692e+00 -9.447062207144217183e+00 2.889923932664920159e+01
-4.132866662979324701e+00 -1.002550158961678228e+01 2.800118128716068711e+01
-3.506004561100268369e+00 -1.067566862395831961e+01 2.594624758415531929e+01
-2.112852153880943273e+00 -1.084033859945371425e+01 2.471454808058292585e+01
-2.307837044693471285e+00 -1.090111272916682950e+01 2.521776726743694041e+01
-2.803436688142379563e+00 -1.093336916742078202e+01 2.611582412895293004e+01
3.851878865615729008e+00 -2.951402530709481997e+00 1.944476486728717290e+01
3.558725107849986635e+00 -1.899829232590990458e+00 1.920746493948002964e+01
3.628983151010579888e+00 -1.318465639853100502e+00 1.925931648532239038e+01
9.361782093962824902e-01 -9.076971459533600850e+00 2.201001561913117044e+01
1.805204497909680184e+00 -8.093991865151105358e+00 2.122198409550616915e+01
3.861548645171650751e+00 -4.171280433446820979e+00 1.974164416509341535e+01
3.695268500512028265e+00 -3.481151490459455822e+00 1.949558669218278695e+01
2.908919784818380538e+00 -6.009610277807336587e+00 2.007553159497128092e+01
2.802768756127435701e+00 -6.469202349269086660e+00 2.029011686689953819e+01
-4.153987299269243927e+00 -9.878364785076207966e+00 2.857776363916590157e+01
-3.879118345092746001e+00 -1.026293298764540651e+01 2.750080809335993237e+01
-1.639653405169751776e+00 -1.077614807881139569e+01 2.449601704934521962e+01
3.699212919030091751e+00 -7.370404375879547887e-01 1.931125515833969075e+01
3.208464565524023371e+00 -5.440489742647121929e+00 1.988911540497256070e+01
-2.592338968592849957e-01 -1.027687065813798029e+01 2.351079432665755320e+01
3.507501753842482195e+00 -4.920779181313660544e+00 1.974925952461510903e+01
2.938255847795171238e+00 -6.871645606279393803e+00 2.058570764936974484e+01
-3.671407162305689642e+00 -1.046382805704443619e+01 2.696009796128701907e+01
-3.384925378930084605e+00 -1.062407995020420870e+01 2.667332632756748012e+01
4.130913256870444528e+00 -2.458499139410935452e+00 1.945131152586030154e+01
4.015382729114163496e+00 -1.726355302196436403e+00 1.942293904558829709e+01
5.276947609664801586e-01 -9.747243147266621222e+00 2.270590089859724969e+01
-1.183471075907076786e+00 -1.062871032213761424e+01 2.409671956085223954e+01
1.436823172466459297e+00 -8.783419212332532311e+00 2.183392117876364935e+01
1.937145194225159406e+00 -8.489867982080403053e+00 2.165780385744536218e+01
2.342116643600918646e+00 -8.137924226181478815e+00 2.150388793782578745e+01
4.215425483414512620e+00 -3.421803297144889733e+00 1.973400244672114567e+01
-3.640925359269221229e+00 -1.018248246576494331e+01 2.830614979833752543e+01
-1.648489023084245497e+00 -1.098800731945720877e+01 2.521750099999999861e+01
-2.185778367650137888e+00 -1.099529783511772507e+01 2.593650266342131516e+01
-6.884592244503408009e-01 -1.052878134481706063e+01 2.386855232814578187e+01
4.231377590755229789e+00 -1.081625534528997568e+00 1.954403400325272955e+01
3.509416204142380646e+00 -5.929946750072864425e+00 2.031279733629230932e+01
5.739751296228586819e-01 -1.000891508776928340e+01 2.330289403269127035e+01
1.028804976785192338e+00 -9.453483968687383054e+00 2.252969666950350458e+01
1.530088242324237013e+00 -9.159510892930185832e+00 2.235336385238404944e+01
2.732391833703637030e+00 -7.721993717993976603e+00 2.129358586504777051e+01
4.107060581323398019e+00 -4.891241101213787523e+00 2.003337939141134072e+01
3.808357818742297951e+00 -5.410576924074323557e+00 2.017308506613044372e+01
4.578923811345099182e+00 -3.892232882089094126e+00 2.002328494593854202e+01
3.223914587637425555e+00 -6.400795201598731943e+00 2.044925153126326478e+01
3.126427429910297207e+00 -7.306074819334352100e+00 2.108328135097847778e+01
-3.263673884597193542e+00 -1.057234369034680377e+01 2.740666843644124384e+01
-3.127866293163370948e+00 -1.048654230058431835e+01 2.803123874287190276e+01
-3.676137777602761503e+00 -9.995416709173770897e+00 2.902288414405060024e+01
-8.685053922883434474e-01 -1.075418053777719152e+01 2.459711446219408870e+01
4.418463946012786359e+00 -2.894903530297906702e+00 1.969634386185124697e+01
4.642527974492870690e+00 -1.740967400563626200e+00 1.971062800698296158e+01
4.097759577087803251e+00 -5.060096965910459987e-01 1.950221309286024152e+01
1.032489379453919831e+00 -9.805903970628019550e+00 2.306648998722657140e+01
6.202164187349900049e-01 -1.027042712737855545e+01 2.389953389836819753e+01
2.030253510478386758e+00 -8.866020087476124800e+00 2.217731929216096631e+01
4.416706342435056776e+00 -4.425444875680963008e+00 2.007221382527443865e+01
3.525213028659494707e+00 -6.890207247987771844e+00 2.087310872266841955e+01
-2.897434578589263676e+00 -1.081326539687781185e+01 2.671586953066731951e+01
-2.391877206176960868e+00 -1.103634286697358746e+01 2.656422527957428059e+01
-2.209332758981519262e-01 -1.061722011040390257e+01 2.427733997851911596e+01
4.773608287590708876e+00 -2.435884183203957498e+00 1.974733471398788609e+01
1.036870744967948399e+00 -1.004315263355570664e+01 2.359051611809761440e+01
1.557419869212734342e+00 -9.485131925311206302e+00 2.286218986957224786e+01
2.529996276177051584e+00 -8.572489678201607788e+00 2.200124941615409568e+01
2.920154409961224218e+00 -8.156578696736826117e+00 2.179101960803596327e+01
4.706022629774547994e+00 -4.861747966751199357e+00 2.031732534787425237e+01
4.407748997498726062e+00 -5.380983578301754555e+00 2.045711744104797347e+01
4.109176242798029399e+00 -5.900189624086060292e+00 2.059682545995001846e+01
4.997413757244717480e+00 -3.152709646659048737e+00 2.003318642802802785e+01
3.810375145358579019e+00 -6.419431583642812633e+00 2.073653861118279451e+01
-2.719683612109638382e+00 -1.065799334120428910e+01 2.786126290614603107e+01
-2.992217486787223546e+00 -1.040081635100630031e+01 2.865359150363285323e+01
-2.698782620034071655e+00 -1.079569590995508932e+01 2.742261327739747756e+01
-8.612700905040459043e-01 -1.092328756064434359e+01 2.517624930062511623e+01
-1.621956499956350273e+00 -1.107273828847390540e+01 2.596518528435278839e+01
4.579014562211404460e+00 -5.126061528457579453e-01 1.972329112913379845e+01
4.948746946184685136e+00 -9.823577829473041367e-01 1.987734306553823771e+01
2.463052413008438024e-01 -1.070560755923113661e+01 2.468589042091933550e+01
1.537247800932130426e+00 -9.864573327915488576e+00 2.342712803568257840e+01
4.941984657372533007e+00 -4.362170910316180539e+00 2.031228226476194010e+01
3.314598818643232914e+00 -7.740478359650163398e+00 2.158066831085939796e+01
-3.198516523498314168e+00 -1.011241464654720623e+01 2.946049729659918270e+01
-1.154101638008355080e+00 -1.106732466093607492e+01 2.567746397098066069e+01
-7.417551266738847682e-02 -1.085856743781319445e+01 2.513500067702903351e+01
-2.133809573633212331e+00 -1.101903298211618853e+01 2.743696848737837612e+01
-1.980542511101250458e+00 -1.113926104889462643e+01 2.700977636578249630e+01
2.013070398532403438e+00 -9.168767714228645005e+00 2.262744199957854718e+01
6.665120399804327356e-01 -1.053231649091669020e+01 2.449704669869133866e+01
1.354494676532393305e+00 -1.022779317493634998e+01 2.414246807158968977e+01
2.734294997254568038e+00 -8.877707208334602029e+00 2.257452778320633513e+01
5.138157920926203381e+00 -3.840629266263488883e+00 2.027278933366707392e+01
5.006958203739949376e+00 -5.351254515508923504e+00 2.074103772967555415e+01
4.708409723490231791e+00 -5.870671303675843333e+00 2.088080566433754370e+01
5.125523161987168841e+00 -1.979228227874132218e+00 1.992463555723526270e+01
3.713193551730233466e+00 -7.324477990546011341e+00 2.137033532517677514e+01
4.111221073913860380e+00 -6.908751533752071516e+00 2.116011679033859494e+01
-1.595522175877423399e+00 -1.115746229039475956e+01 2.670974847701518229e+01
-1.872663192569238966e+00 -1.099293164513762200e+01 2.788369011868256209e+01
5.318205755919212407e+00 -1.451960668480483996e+00 2.003130256783476781e+01
5.415368139978679274e+00 -2.413442555334550210e+00 2.004316311246458682e+01
2.198302472941416230e+00 -9.448037730533506817e+00 2.315096051788088971e+01
3.053591630715827510e+00 -8.581885496264101576e+00 2.228532857257894051e+01
3.489455885615860176e+00 -8.124295612690257684e+00 2.205419008936828007e+01
4.409717551721357154e+00 -6.390051420083705302e+00 2.102055574875969768e+01
5.305123050550151653e+00 -4.832272825224800172e+00 2.060137767585109003e+01
3.888003970042920088e+00 -7.708248216892625848e+00 2.184388162589326754e+01
-2.176148995028817534e+00 -1.074357230028585342e+01 2.831497698177508227e+01
-2.856603616653856648e+00 -1.031508422113319057e+01 2.927595739843570399e+01
-3.453851741236202422e+00 -9.902670276344499811e+00 2.997003880140125531e+01
-4.587447089815754331e-01 -1.100542948844756275e+01 2.562187555208629419e+01
-1.150085026399979116e+00 -1.114127021324599021e+01 2.633739880148395329e+01
7.127295248200197220e-01 -1.079384586322781203e+01 2.509375125814561613e+01
-2.298775396146587102e+00 -1.053320956098099437e+01 2.912197638173216419e+01
-1.569216231427134067e+00 -1.124217821508180748e+01 2.745344697784639010e+01
4.892336368560919801e+00 -1.334312414893257248e-01 1.983819682903555659e+01
1.423372632187532405e+00 -1.062019136793890972e+01 2.503748508388178706e+01
2.041999259750490125e+00 -9.923262949637162933e+00 2.378788745792373049e+01
4.325632488996573599e+00 -7.250506503507029521e+00 2.161222177917150589e+01
5.493490825053317650e+00 -4.220905042252890205e+00 2.053557300105056171e+01
5.681399307998109549e+00 -3.610666728378181478e+00 2.046992666046578080e+01
5.869045680958231870e+00 -3.000980965369785647e+00 2.040439108818080172e+01
-6.597143911350604739e-01 -1.114664215484239485e+01 2.613474707469837099e+01
5.694935785175217369e+00 -7.654988956002058975e-01 2.016487402436064613e+01
5.687470049667976646e+00 -1.921492518695927298e+00 2.018517291014423876e+01
5.357753561094563466e+00 -2.867483409197405519e-01 2.002335826702112342e+01
2.938650865121979372e+00 -9.183199744126664399e+00 2.314832855966513492e+01
3.204248815552659835e+00 -8.863912612263582957e+00 2.279549116345548754e+01
2.545114049089605590e+00 -9.584715119675763617e+00 2.354521554245915738e+01
2.087915418099915321e+00 -1.018487674097913143e+01 2.438454628168653926e+01
4.723778311007971631e+00 -6.918181881896264152e+00 2.150787966184472566e+01
3.584830725352926795e+00 -8.591297113854578171e+00 2.256986922413599927e+01
5.556214366300169516e+00 -5.255510989595898685e+00 2.099171535444537540e+01
5.896891129998352632e+00 -4.316702436015110500e+00 2.081403273206344906e+01
5.257902609245794778e+00 -5.774502803480779711e+00 2.113126963632323907e+01
5.022333282944654975e+00 -6.399157177847999201e+00 2.136832687981349821e+01
6.056593916873107553e+00 -2.390998046460252713e+00 2.033893260952826054e+01
-2.721070652614511420e+00 -1.022937170929563422e+01 2.989806461700090523e+01
-1.313249731156029609e+00 -1.118183091589401634e+01 2.800845465467096673e+01
-1.632642634643904245e+00 -1.082914711491887338e+01 2.876937493120724199e+01
4.057472966981687940e-02 -1.104407310144710586e+01 2.591576751020532043e+01
-9.302794653168049432e-01 -1.120434496314936190e+01 2.678870576679875626e+01
7.406553907707952300e-01 -1.094150206896413380e+01 2.569679740768750520e+01
5.833691904795952787e+00 -1.389002958894987927e+00 2.023165274545084102e+01
5.205390079596600827e+00 2.457429984206564999e-01 1.995306230958100002e+01
4.540315654950443758e+00 -7.592754164833483088e+00 2.206485022379322913e+01
4.116278735250892495e+00 -8.117162785084770960e+00 2.237005490170058408e+01
5.830910585903574805e+00 -4.855710246195675595e+00 2.093396233562275910e+01
-1.029218028545521246e+00 -1.127662049244920439e+01 2.783908396351725756e+01
-1.726419074771168072e+00 -1.068216636502606143e+01 2.932043111375178057e+01
-7.717076921347196805e-01 -1.128967463062366861e+01 2.747057135639443004e+01
-1.996205693657117308e+00 -1.048623148100348956e+01 2.982503604435580158e+01
5.886474794706266778e+00 1.555128010674424466e-01 2.022175001277416939e+01
1.176478643023148862e+00 -1.086339094046140374e+01 2.550487025669287533e+01
2.133826379862215905e+00 -1.044648492550672536e+01 2.498100684020176843e+01
3.563771671246875439e+00 -9.024107603052952342e+00 2.322285501634865312e+01
3.142724863300635274e+00 -9.488594596855213226e+00 2.372195016061584383e+01
2.545424188611602911e+00 -9.981837878961377086e+00 2.414793954516084185e+01
4.118454231010938216e+00 -8.600707480704661734e+00 2.285423767620083169e+01
5.807055627863530134e+00 -5.678368735755086050e+00 2.138162615665047284e+01
6.171712032034938566e+00 -3.345047540523947038e+00 2.069455029090380904e+01
6.184487062014963676e+00 -1.776745910362240055e+00 2.037661580943416340e+01
6.369254419105888410e+00 -2.818114360019102538e+00 2.066000291862744831e+01
-3.309063795067681557e+00 -9.814446270313425202e+00 3.055461482520058070e+01
-1.057162523283676547e+00 -1.112141995541567852e+01 2.856555645771494412e+01
-1.652932684935810581e-01 -1.122596518048387892e+01 2.659109077884695793e+01
7.685385718839574665e-01 -1.108915675875745066e+01 2.629909316368019390e+01
-1.088797204554468934e+00 -1.091477684863991726e+01 2.922448495055697393e+01
-1.270735971106448092e+00 -1.074326302785710574e+01 2.975238962659652486e+01
6.310097529224345081e+00 -1.162674473942233888e+00 2.041430805121154535e+01
1.887047643295447719e+00 -1.068970494110473446e+01 2.544784894090954452e+01
4.754968014998888215e+00 -7.935010085339108343e+00 2.251749438188100072e+01
5.045583571321176741e+00 -7.431334760351228752e+00 2.218658948042030232e+01
6.311482873035052954e+00 -3.868745013578295922e+00 2.093729887548092350e+01
6.026479027261824939e+00 -5.247596778288786901e+00 2.127294404933094540e+01
6.233660341162376106e+00 -4.440578238604799388e+00 2.105960925013425822e+01
5.659606599059396892e+00 -6.329360379485644117e+00 2.168341090293560569e+01
6.604710659344394053e+00 -2.395824859689383413e+00 2.069650748550185071e+01
5.336203304069776721e+00 -6.927631617098874983e+00 2.185571095853086376e+01
-2.560694742181414796e+00 -1.010991240481903830e+01 3.063188150496732476e+01
-2.131641448989302301e+00 -1.033898238483821075e+01 3.028671170295198678e+01
-8.011739153035806194e-01 -1.106099737549443596e+01 2.912235629470998788e+01
-4.891666417092067620e-01 -1.131106580837925435e+01 2.822680408891215720e+01
6.435783670307127835e+00 -5.470596659084325797e-01 2.045202839906159298e+01
5.605682821829613971e+00 6.831198884408633543e-01 2.010869735714388895e+01
1.640116423865457529e+00 -1.093292551291228065e+01 2.591493230381724899e+01
2.843789189222801550e+00 -1.027265724715229567e+01 2.492388393248858236e+01
4.490687309477613631e+00 -8.293233845161431361e+00 2.273901374492732330e+01
6.356150706315942145e+00 -4.879214931679561218e+00 2.126632385125794400e+01
6.057862073620551513e+00 -6.101208510745511404e+00 2.177150892823721762e+01
6.411803396723612103e+00 -5.473577573996604606e+00 2.163405356304712512e+01
6.680755172775405093e+00 -3.244914141442343691e+00 2.098083272416215905e+01
6.877298452728914491e+00 -1.596587386418154342e+00 2.081718813770424603e+01
2.617821124864222471e-02 -1.133718863357083073e+01 2.748792152998686333e+01
-1.542672132944774122e+00 -1.044850910949911516e+01 3.067595483243612264e+01
-2.010774693154036896e+00 -1.022642865354536923e+01 3.093525192251444267e+01
6.561520522689028745e+00 6.939589169231985544e-02 2.048979364900400668e+01
6.203545471080890827e+00 6.457558002428478439e-01 2.034561890048871291e+01
3.293992195211597473e-01 -1.130533175972997029e+01 2.704813442149315605e+01
2.477496383729741236e+00 -1.056811791312439297e+01 2.545639787852315195e+01
3.757308172537086932e+00 -9.423984426419400151e+00 2.393388115023245177e+01
4.204491811877788088e+00 -9.017071904978996244e+00 2.353622704480172345e+01
3.350568130682250345e+00 -9.793834865372282650e+00 2.429528600999172738e+01
3.048758643897826470e+00 -1.004049343825469442e+01 2.450848504684385532e+01
6.675161126151430757e+00 -4.275129242886797520e+00 2.128382454213731734e+01
6.755945886329458361e+00 -9.569831102168262493e-01 2.069138009045643756e+01
-2.898307195446157003e+00 -9.860854404229797865e+00 3.105140211810694595e+01
1.450241327584127271e+00 -1.111969245417253127e+01 2.661373827028250005e+01
7.963785745512500513e-01 -1.123691278354442957e+01 2.690213192527525621e+01
-5.447583461482273792e-01 -1.100043841168673175e+01 2.968003869616090995e+01
-2.468776721349662251e-01 -1.117302535898058302e+01 2.914743075671298911e+01
5.098093591382393125e-02 -1.134551719338910125e+01 2.861460062980874852e+01
4.375734523513521435e-01 -1.136512240396073459e+01 2.805824963717736509e+01
-9.174347055244131965e-01 -1.071075268633543942e+01 3.042990284961177494e+01
6.785598161615514101e+00 7.869120703692129570e-01 2.070510165657799462e+01
2.217716719032373440e+00 -1.078408086606114935e+01 2.585004427109663538e+01
4.651135228186014992e+00 -8.610109300999868154e+00 2.313832736314660465e+01
5.604047880876674270e+00 -7.355400263480381895e+00 2.242135481121587404e+01
5.947706176626390118e+00 -6.937089230302813547e+00 2.220325305492034218e+01
4.969630490518494703e+00 -8.277340330424818760e+00 2.297024090566272037e+01
6.308578156747575605e+00 -6.523936142844759090e+00 2.216129466532133563e+01
6.668850638332109781e+00 -5.999651554457431146e+00 2.208581612817995676e+01
6.991462496740903809e+00 -3.671365367077624509e+00 2.130135952004800970e+01
7.150617636277062594e+00 -2.399516948030747443e+00 2.105447439967140966e+01
7.233722717080382836e+00 -9.187809327932136005e-01 2.100200780475422135e+01
-3.311007649458431956e+00 -9.622704650511080260e+00 3.130378902264061480e+01
1.491769750368556080e+00 -1.134133479728509819e+01 2.751848291814654601e+01
8.241235929203539756e-01 -1.138470391002766391e+01 2.750547325922327602e+01
2.103698680424377798e+00 -1.100246580337600122e+01 2.632535000129206182e+01
-2.400482695720850934e+00 -9.990557482655434640e+00 3.136584655963218182e+01
6.897452495739840650e+00 -4.244322236956542538e-01 2.074572064142724415e+01
5.845513762986478845e+00 1.222010310205199790e+00 2.020162649927267395e+01
3.031318035558030921e+00 -1.043206190947148571e+01 2.541124095184032328e+01
3.558847854002776590e+00 -1.009908748815457180e+01 2.486692810856605007e+01
5.313594166254824280e+00 -7.859079789601270072e+00 2.275224647685491064e+01
4.777994075139675445e+00 -8.989501511856930804e+00 2.378435841964132536e+01
7.399392913003925543e+00 -3.021494336302168904e+00 2.138712846396551015e+01
6.881276277830570720e+00 -4.902824357612507455e+00 2.159878802070786463e+01
7.302506704156753514e+00 -4.098153951805584505e+00 2.162307687425573377e+01
7.431573722892425238e+00 -1.939765665039875353e+00 2.120430733864634121e+01
7.570513727787769653e+00 -1.413943335766673970e+00 2.125690691698019208e+01
5.911450637361391758e-01 -1.137996936347256138e+01 2.900241655147046771e+01
-1.583287864118456900e+00 -1.027313502994265271e+01 3.135626947195770242e+01
-9.534072398253335967e-01 -1.055809210767954198e+01 3.106595051142718589e+01
7.077675266484455108e+00 -1.539464631779023998e-02 2.086205138357243172e+01
2.818846881163581841e+00 -1.072452864274198525e+01 2.601639853995068918e+01
4.371784155511328152e+00 -9.359378469627470665e+00 2.414542460383682965e+01
3.965222321643344205e+00 -9.729416383127759360e+00 2.450633950345643441e+01
5.184165405380673164e+00 -8.619526991362601365e+00 2.342280050000000102e+01
7.028861587653988607e+00 -5.475596386985967179e+00 2.201033716977998367e+01
-2.775577940695073575e+00 -9.747007153718882932e+00 3.170165958330970213e+01
1.035968126239227072e+00 -1.140075932844288964e+01 2.807092087145539594e+01
2.033112624011284453e+00 -1.115938084813377529e+01 2.693761488492173939e+01
-2.876255582634346109e-01 -1.092612704150847236e+01 3.040254884995606233e+01
1.941793345628276823e-01 -1.114997541554005522e+01 2.971275585774009897e+01
7.484798533587095015e+00 6.076906748064516695e-01 2.120316357432528775e+01
7.594720937495690549e+00 -1.006805310141093701e-01 2.123353489626806834e+01
2.566915053779993627e+00 -1.107200002515216219e+01 2.673591484998947720e+01
3.545933020886453679e+00 -1.037703332504935361e+01 2.553917870313123473e+01
6.215661510349705487e+00 -7.364763133660879646e+00 2.276895652113493895e+01
5.528351988913192017e+00 -8.201013182884738129e+00 2.320473413371306748e+01
6.902247205884552983e+00 -6.447331031586601036e+00 2.247917650465974049e+01
6.559214768060837031e+00 -6.946570275400607564e+00 2.255099949999999964e+01
7.403463752455802904e+00 -4.926559996507619665e+00 2.193290695314632188e+01
7.613224844563629468e+00 -4.524397783590899280e+00 2.194489071981512751e+01
7.646206621001160109e+00 -3.437674204482899842e+00 2.166406146024143808e+01
7.696692766667246666e+00 -2.401481597485494390e+00 2.141007391047000397e+01
7.841088959153666771e+00 -7.999881052337712850e-01 2.143154283804707205e+01
7.906987975629377274e+00 -1.908697988417928926e+00 2.151153872588495730e+01
-3.309760572340634255e+00 -9.497106602731070879e+00 3.178505548415603954e+01
1.344124993940121193e+00 -1.144006031979208338e+01 2.792317388968578484e+01
1.247911440667632599e+00 -1.141681413396152500e+01 2.864046048035245207e+01
-2.625491512072368472e-02 -1.106147947601389880e+01 3.006287316321729008e+01
-1.623914483288579014e+00 -1.009775261828727722e+01 3.203673159154758565e+01
6.231806761308044784e+00 1.814181553238191968e+00 2.049806460807824848e+01
7.010021511325425614e+00 1.504383345400337690e+00 2.092036632945255903e+01
5.046612840888572649e+00 -9.272910505292056627e+00 2.433164524544644891e+01
4.619948235630363165e+00 -9.661288701960847547e+00 2.471038292073979648e+01
5.871840792479405380e+00 -7.783164495570502162e+00 2.298699879918876832e+01
5.493136922355502882e+00 -8.865903252520951128e+00 2.393454674543826144e+01
7.245116065659799709e+00 -5.948182510673984957e+00 2.240860111848375169e+01
2.159759692805578446e+00 -1.129792726747709430e+01 2.753152063000785077e+01
3.076943167225055564e+00 -1.089076820400869927e+01 2.655562868195964654e+01
3.532975559091582785e+00 -1.065516100840265601e+01 2.621215288501873886e+01
9.329152511966615213e-01 -1.129943757038014240e+01 2.974549874730934107e+01
4.922035694687103002e-01 -1.112251520450570474e+01 3.044578003846276815e+01
-2.240372166078168803e+00 -9.871259210520751282e+00 3.209988050629799261e+01
-1.007253825179699414e+00 -1.032430390378376828e+01 3.197367893624343083e+01
-3.049175147621921433e-02 -1.085179905793823174e+01 3.112536402207257424e+01
4.193102531309387260e+00 -1.004967724340440327e+01 2.508913699239738904e+01
4.023066106046368162e+00 -1.023359436952764412e+01 2.537396555141447507e+01
5.804062428343449653e+00 -8.612280684867840819e+00 2.375015143734239942e+01
6.147584370179668412e+00 -8.194097289631715242e+00 2.353219464106996384e+01
7.119568535371350038e+00 -7.021546220537994820e+00 2.295021750966233753e+01
7.584353326225186542e+00 -5.449482282125391208e+00 2.233805634291855213e+01
8.083594667280014079e+00 -3.680614643486279203e+00 2.201804569718058247e+01
8.003698649115285946e+00 -4.317225946459913644e+00 2.214236718797868519e+01
8.163701865981860095e+00 -3.041936988846909884e+00 2.189335741537171742e+01
8.036880313412980925e+00 -1.286429017219556936e+00 2.158685894271946282e+01
-2.854962786744372316e+00 -9.593216702395046980e+00 3.215920558614060809e+01
1.131474822794104051e+00 -1.141443253659608459e+01 2.939035544764704966e+01
3.034116173576661080e+00 -1.114153379527834531e+01 2.714659191174187214e+01
3.519988828550862703e+00 -1.093313407445811336e+01 2.688485835406451940e+01
1.864932638495593320e+00 -1.149550261330922751e+01 2.834507867016985116e+01
2.457653759868108079e+00 -1.140018027533015577e+01 2.809572676926392987e+01
-3.636213878565638935e-01 -1.066777350445585881e+01 3.145666214757097734e+01
8.280324278709308317e+00 3.512557090438864771e-01 2.177059941736266424e+01
8.111684213149553457e+00 -1.861225787470668636e-01 2.160809812002189645e+01
7.582968826331683232e+00 1.599039393646298768e+00 2.134621695026935484e+01
6.491135859914045625e+00 -7.775788630023318326e+00 2.331417705699500331e+01
5.802160877699692243e+00 -9.112475746199569571e+00 2.444597656670802621e+01
6.834565618058374703e+00 -7.357519118346967701e+00 2.309615887886673491e+01
7.694613548208939946e+00 -6.444697917295608036e+00 2.298662138042426051e+01
7.923859385959191037e+00 -4.950445815977133179e+00 2.226658239527949590e+01
8.243744577422186026e+00 -2.403939750214534321e+00 2.176872056977008540e+01
8.371953768366571680e+00 -1.693118940155712071e+00 2.184009451485536246e+01
1.459875300338561832e+00 -1.143286153148491202e+01 2.920958422166686219e+01
2.829651824349947109e+00 -1.125451219733459673e+01 2.754457418541355196e+01
4.181025092205461036e+00 -1.069093657906981498e+01 2.655011979552189061e+01
3.977476095828936131e+00 -1.048437452288218452e+01 2.596767939257936675e+01
-1.610669351852989317e+00 -9.989559235961964490e+00 3.245626844871381422e+01
-3.909453332982043006e-01 -1.055071305274520732e+01 3.191076064212355234e+01
7.931385245452657884e+00 9.756707098528086819e-01 2.155824812485347763e+01
5.379375360583598997e+00 -9.573036928359197617e+00 2.493388189237075281e+01
4.827771989965511601e+00 -1.000017617355133481e+01 2.531186539759009335e+01
6.423236890218647410e+00 -8.605040783755528722e+00 2.407647065732428970e+01
6.766638103724291753e+00 -8.186809074051440760e+00 2.385944089790674028e+01
7.777022538639421612e+00 -5.826235128732618840e+00 2.268085258683903049e+01
8.095958541794738395e+00 -5.409396876491094908e+00 2.264395245157816916e+01
8.559421517470367391e+00 -3.514454371213338035e+00 2.230563986152120037e+01
8.500176864520284425e+00 -9.822307673827745944e-01 2.191131157764079163e+01
1.671780566801619239e+00 -1.144889441630923699e+01 2.977828323880303074e+01
4.023851817528194097e+00 -1.095009881304513932e+01 2.712186954620230850e+01
2.386078101095964410e+00 -1.155098129255168793e+01 2.876717414126198236e+01
1.341068543428504789e+00 -1.131622727386374372e+01 3.030341856671041967e+01
2.264454645698000257e-01 -1.077750902198443939e+01 3.184782090235488283e+01
6.184021698345096851e-01 -1.098053729073320639e+01 3.133816063753980785e+01
-3.028121152513068015e-01 -1.043298593608899871e+01 3.246093832552226388e+01
-9.812863472666103482e-01 -1.010780164734910791e+01 3.281286176015466793e+01
8.628340368110341885e+00 -2.716118520056068353e-01 2.198240508217775613e+01
4.487382953033307587e+00 -1.036828942751714244e+01 2.588200755091140692e+01
7.109246882170268123e+00 -7.768613837148756751e+00 2.364149165437535416e+01
8.639404432582148630e+00 -2.876004317470704841e+00 2.218087906227161454e+01
7.675540929858589934e+00 -7.096522711216445956e+00 2.335226925824200706e+01
8.557661740474260981e+00 -4.734457531099220517e+00 2.265009091945750797e+01
3.506100919233257063e+00 -1.121111697858948197e+01 2.755763791651292749e+01
3.052562795881446966e+00 -1.140197101043592021e+01 2.829336838397550835e+01
2.028930830144135555e+00 -1.149996043160436265e+01 2.927280166219227198e+01
1.010353112809192933e+00 -1.118351440916618422e+01 3.082854143937924363e+01
6.109712638836088061e+00 -9.358891822169534080e+00 2.495727687127211425e+01
6.574512649125003882e+00 -8.978332651850292834e+00 2.468011404930778241e+01
8.268042542986764332e+00 -5.868286988806540094e+00 2.302115089547250548e+01
8.111866305175462699e+00 -6.751589681906294160e+00 2.343340521521823661e+01
8.352449985698902069e+00 -5.196158209712214315e+00 2.267969136318168566e+01
8.796480580864111332e+00 -4.041329097869968301e+00 2.262170077218624797e+01
8.814687083219430619e+00 -2.404534119743338749e+00 2.224984153348745153e+01
2.906822243649056503e+00 -1.160642942249566190e+01 2.918876300542561708e+01
4.654441110921807123e+00 -1.084771336529249375e+01 2.711790731946668842e+01
4.211118419180837513e+00 -1.113504315513218401e+01 2.764870354537872998e+01
4.531758608552923229e-01 -1.067244895854888753e+01 3.252657062103081387e+01
5.850897109953030473e+00 -9.669082630585730698e+00 2.529814415404727868e+01
7.039201880000085509e+00 -8.597802473179308791e+00 2.440301395117628758e+01
7.380308892770990781e+00 -8.179475650121787567e+00 2.418758002911055982e+01
8.440196167467538757e+00 -6.327324918521664898e+00 2.339837469160097427e+01
9.035300214211018144e+00 -3.348341079745654536e+00 2.259322493476045679e+01
9.146483613405866464e+00 -2.852507693644795950e+00 2.260409110340504668e+01
1.895204763897052391e+00 -1.142830955646046220e+01 3.032818702623073293e+01
2.430159012194684998e+00 -1.153833243385730789e+01 2.986231176999158521e+01
4.018324740635568659e+00 -1.128744337918562479e+01 2.801003995770699007e+01
3.617758434604149365e+00 -1.133763759864181964e+01 2.817606159745353622e+01
3.729833378570794444e+00 -1.146416032542610708e+01 2.879447164832373574e+01
4.947763834911107494e+00 -1.050293877224692629e+01 2.639001766299756468e+01
1.528541623978934672e+00 -1.124451799738392666e+01 3.121139887856726958e+01
7.442793474712626756e-01 -1.084569815571395424e+01 3.221914436835951534e+01
8.113974277099260668e-01 -1.092486895876525033e+01 3.188023885016400882e+01
-3.517994457725783786e-01 -1.022606698414504223e+01 3.316979068254440932e+01
5.461079869779077001e+00 -9.950725456312966344e+00 2.553445149994947627e+01
5.123532391004164133e+00 -1.022048448587572800e+01 2.590778986155136820e+01
6.728574309046689628e+00 -9.253458927590262562e+00 2.514953628900535065e+01
8.230245014591947239e+00 -7.171544391605539914e+00 2.375321602528048714e+01
9.385554686242629785e+00 -2.405157937813249713e+00 2.273067741634863026e+01
2.216382977984869385e+00 -1.149521905859459636e+01 3.018950926286313674e+01
4.915646346671263878e+00 -1.105899172771675509e+01 2.774006488063829323e+01
3.430752088525523380e+00 -1.166182871259818832e+01 2.960979143060392005e+01
1.071893305341985458e-01 -1.044891591438458356e+01 3.292108947371980321e+01
1.396287404076334004e+00 -1.107219276021440280e+01 3.191265400990137735e+01
-1.046399281694437633e+00 -9.879793499254560629e+00 3.344710677975379554e+01
6.413436854206143956e+00 -9.605330656589826432e+00 2.546871161672135742e+01
6.088568307655637390e+00 -9.901283133643991263e+00 2.575705310737415843e+01
7.340700588062276211e+00 -9.010752877514045522e+00 2.514955374009043254e+01
7.805321760424056343e+00 -7.675438064807647898e+00 2.397148859775613516e+01
8.745167856524583172e+00 -5.913467063583694561e+00 2.334700741650940969e+01
8.612544850648012229e+00 -6.786846767529755020e+00 2.377591668865260033e+01
8.781228259309209250e+00 -5.441879694574058846e+00 2.309275089959981386e+01
9.191616112334630273e+00 -4.513506001919560084e+00 2.303340900188159779e+01
9.430746351216489742e+00 -3.820143688677549942e+00 2.300507723908627256e+01
3.189020587553788033e+00 -1.162780647371309328e+01 2.994636904662944943e+01
2.760574946173254496e+00 -1.154150700708470012e+01 3.060041717128525818e+01
2.118538144107809718e+00 -1.140772768397084569e+01 3.087794248049970136e+01
5.406079186324793007e+00 -1.063757766183552000e+01 2.689807055221790577e+01
4.531194612772175390e+00 -1.136381603503405557e+01 2.846277552763666563e+01
3.842249072429599011e+00 -1.159075616252413177e+01 2.941290977145004959e+01
4.443330879681970380e+00 -1.151545933707244806e+01 2.916389065393224200e+01
1.262173415671032028e+00 -1.091389501438835019e+01 3.259057700330900076e+01
6.798711949381419650e-01 -1.056738885942353079e+01 3.320546641549812250e+01
-4.391556991389901632e-01 -9.921915537309635269e+00 3.401549138368599756e+01
5.747175529992856191e+00 -1.026942704360479652e+01 2.632754742625725441e+01
7.651999157911556715e+00 -8.590575224460046400e+00 2.473324911910807344e+01
8.029916495876774363e+00 -8.142263553453643610e+00 2.454112142737537994e+01
9.271472705208832821e+00 -5.010512949886454237e+00 2.328632879420543489e+01
9.026536126181435193e+00 -6.243180422877125935e+00 2.371690219059394167e+01
9.528094604917395571e+00 -3.103736660243051393e+00 2.296742701397553788e+01
2.046729805003603797e+00 -1.130552122087564726e+01 3.159431253384296667e+01
