8.652778834407113706e+00 1.184030696355759815e+01 2.675593672355093844e+01
1.323868679684934158e+01 3.199506402326637744e+00 2.857437446832751604e+01
1.323430914557300220e+01 4.268522291604994190e-01 2.841442081205108749e+01
1.194533275593557953e+01 6.691792029698421018e+00 2.775367389628015502e+01
1.081822023000340849e+01 8.664877709489488211e+00 2.721560251366643968e+01
1.224630264795071177e+01 5.249843051019710494e+00 2.779360875881519277e+01
9.356117994770663415e+00 1.083087584727145192e+01 2.679837213224402603e+01
8.335563196220416415e+00 1.230756966352786108e+01 2.680234819692648429e+01
1.334137055120927329e+01 -7.861535419263845359e-01 2.847271786356958856e+01
1.314977737083953535e+01 -1.244482896114794901e+00 2.824410019678138184e+01
1.315665065158329661e+01 1.711956718255407628e+00 2.836231552281541468e+01
1.255862066445473602e+01 4.967095834769551743e+00 2.806264017726836002e+01
1.306331980050099340e+01 2.658980453690809487e+00 2.834028059801124755e+01
1.259524504761299646e+01 5.715947382322302595e+00 2.823873228922202827e+01
1.122930143206565035e+01 8.353239959867158504e+00 2.751659781862336374e+01
1.064450569907290323e+01 9.564852249409224072e+00 2.734155515850521567e+01
9.807516053217335994e+00 1.046324144272522894e+01 2.702134930626869647e+01
1.025891570968719435e+01 1.009560678386206867e+01 2.724432533045327176e+01
7.205575686931993573e+00 1.314085305840472806e+01 2.646389236127591360e+01
6.738994312571699119e+00 1.335883260245261539e+01 2.631829624749378382e+01
6.182705251675344904e+00 1.400343492336611284e+01 2.640876725998266394e+01
9.128419123512271582e+00 1.165600769069616760e+01 2.698055009067521937e+01
7.787417294378116139e+00 1.268985271572063134e+01 2.664028866233529058e+01
1.349515604591856643e+01 -1.487053207224813822e-01 2.868565650907711984e+01
1.344359270729048639e+01 1.078764317975748233e+00 2.866057925899132641e+01
1.289394871647203544e+01 4.494255743935375413e+00 2.832020766302305148e+01
1.333200299140135137e+01 2.252428113154637757e+00 2.859637949740882590e+01
1.341422428850886561e+01 3.740560034175885118e+00 2.880869814295654052e+01
1.169275698791959428e+01 7.799200909944866922e+00 2.779405604122811724e+01
1.205061300045973915e+01 7.201653278500231181e+00 2.795646337465509390e+01
1.232042051384253334e+01 6.832421823841098529e+00 2.816236749583612919e+01
1.092637622265971231e+01 9.226764670903188303e+00 2.749139213413494787e+01
9.424158080539017490e+00 1.137109239622811074e+01 2.708824487508766765e+01
8.836407419499595406e+00 1.209886999651576289e+01 2.703053619595286960e+01
1.320081007084530889e+01 4.165034204423292863e+00 2.861839244653980430e+01
1.371748761629262603e+01 4.743843425949848536e-01 2.894535092622045624e+01
1.360068621228960417e+01 1.845879151728527123e+00 2.885250118443813250e+01
1.350322817388586571e+01 2.992817009044242749e+00 2.884259784870053167e+01
9.776594386035663220e+00 1.096112665873438452e+01 2.720944721061508531e+01
5.382707401176243245e+00 1.439963241999840626e+01 2.622349530400219209e+01
6.843277216266683283e+00 1.382228456536385686e+01 2.670355092554948584e+01
8.197277785091841906e+00 1.282870875594612592e+01 2.700351087511014470e+01
7.815631714213577830e+00 1.320349747552915787e+01 2.695261047147685574e+01
1.298571820623694428e+01 6.368782882116620137e+00 2.876109857565117167e+01
1.103458178047315208e+01 9.788910091307434058e+00 2.776731333014457093e+01
1.064908568225896168e+01 1.031939121978453855e+01 2.767005178256250275e+01
1.298315938659380109e+01 5.217894092735742007e+00 2.854574089625089783e+01
9.877448396734056502e+00 1.138125397721343823e+01 2.747538602988092293e+01
1.026325726836632768e+01 1.085033338934535330e+01 2.757271111430071997e+01
7.524588454254689474e+00 1.342883393932871527e+01 2.686433094352792850e+01
8.668286254725270368e+00 1.281392383184167727e+01 2.732165644602379473e+01
9.492210635110440720e+00 1.191139482057508836e+01 2.737823117521032046e+01
1.332982967353284565e+01 4.658676732209303673e+00 2.879901472216774039e+01
1.396411709626285358e+01 1.202998907853759736e+00 2.923439846160585276e+01
1.378024482504346615e+01 2.506061719007989019e+00 2.910103646131953781e+01
1.358974692719462318e+01 4.281571528348031563e+00 2.904300436243886452e+01
1.392525043517209049e+01 3.244778086182663390e+00 2.931882102387746514e+01
1.246674908240215807e+01 7.397709333220691796e+00 2.841738224640995369e+01
1.272617592641251427e+01 6.883359559495699997e+00 2.858920220418693248e+01
1.139252058962880554e+01 9.191278941528022273e+00 2.792978416279593290e+01
1.175098105455903053e+01 8.592778422978007313e+00 2.809249142844302938e+01
1.210900333982055521e+01 7.995011904353574117e+00 2.825499967738955576e+01
5.759882175325556020e+00 1.477715701315392316e+01 2.669752600407174725e+01
6.161264430310997575e+00 1.457915081705308502e+01 2.679089514279882422e+01
9.080370907670666014e+00 1.236252159225941760e+01 2.734992604747000655e+01
8.255911110828764166e+00 1.326565334783783889e+01 2.729328809115631316e+01
1.404472221700147117e+01 1.979802583084009138e+00 2.934269760654611403e+01
1.387501124191576274e+01 3.827431646113969244e+00 2.931301624843251830e+01
1.324554228845676107e+01 5.853648556389323687e+00 2.893318124328220975e+01
7.843843038060800410e+00 1.371704642318077205e+01 2.726435432315022211e+01
6.707151254888938929e+00 1.467513540756734969e+01 2.720251810179649965e+01
7.274982130405605929e+00 1.419613389406355708e+01 2.723343128838819993e+01
5.112382158998931558e+00 1.499965783989265411e+01 2.654692165857857944e+01
9.101008174314921817e+00 1.284058508869712867e+01 2.766464162071524058e+01
9.480195634919164505e+00 1.246724499358156990e+01 2.771689164334493327e+01
1.430248461456922549e+01 1.571040413625386822e+00 2.961478147568503871e+01
1.320859828603226838e+01 7.073066095828950850e+00 2.915503094274525253e+01
1.350534129967036456e+01 5.338567719336638540e+00 2.910524739136769057e+01
1.165124681810739027e+01 9.480384585209243653e+00 2.829805764348599695e+01
1.105997907489587284e+01 1.038152592851440126e+01 2.808988959597139257e+01
1.253932981441683303e+01 8.015868124182837562e+00 2.870753319228803946e+01
1.010484414064543834e+01 1.168064595216852020e+01 2.784128823502230077e+01
1.070230843623137851e+01 1.082522499232762492e+01 2.797522689795875195e+01
9.831148436769892029e+00 1.219836611294067907e+01 2.784344204785840304e+01
1.422517809736904937e+01 2.653405093680456517e+00 2.959330578711961479e+01
1.376539839767415252e+01 4.822980456301102947e+00 2.927748469129408448e+01
1.399907598817935117e+01 4.307598511953525389e+00 2.948674893927784879e+01
1.423281472480672782e+01 3.792083318668340919e+00 2.969609048631090786e+01
1.286628885915116349e+01 7.623626992599931818e+00 2.890077519620860969e+01
1.355267469518928714e+01 6.464283080683328464e+00 2.939869750111641977e+01
1.220300244935675948e+01 8.521870884823577796e+00 2.853554446611348183e+01
1.140773736930248283e+01 1.005254727199546849e+01 2.824512363611119525e+01
6.137114382381889222e+00 1.515447762643787577e+01 2.717160069444444659e+01
8.158899089604647159e+00 1.402294786955126504e+01 2.769243938301745800e+01
7.803464680694257360e+00 1.422750509137978803e+01 2.759201551269621078e+01
5.543963221411846831e+00 1.552789766789239501e+01 2.716243037854793840e+01
8.908467454149940679e+00 1.332991836691816978e+01 2.782494914093521743e+01
1.027433424538703122e+01 1.197529249923711703e+01 2.815010398792806257e+01
1.448875778118585700e+01 2.113726464001739469e+00 2.983290505748872690e+01
1.363263233505663585e+01 5.868985161173267961e+00 2.935778428357242831e+01
1.057529615905680487e+01 1.142722737449377846e+01 2.815846311213051933e+01
7.762704740403408188e+00 1.473841306828263242e+01 2.791992943775848701e+01
9.468185706879946650e+00 1.302291789195733251e+01 2.805514739015372783e+01
1.017034408483732477e+01 1.248555725041028808e+01 2.830883846386403846e+01
1.446620345829394161e+01 3.277342433674483413e+00 2.990514436670412124e+01
1.449528423611540440e+01 4.461852343436083501e+00 3.007264670539608886e+01
8.549585814120851168e+00 1.377651197817998785e+01 2.783307994293127763e+01
7.098010131490994468e+00 1.510882430089499628e+01 2.775157528996335543e+01
6.429287682928514158e+00 1.547940939613493860e+01 2.758322230709070055e+01
1.388234202621721991e+01 5.440962148029457879e+00 2.953758365811472686e+01
1.469957127236066441e+01 2.762650162582714675e+00 3.011420919154547704e+01
1.418073704203941254e+01 5.017260021909098811e+00 2.977523735719390174e+01
1.369105809175355759e+01 7.262941024061541739e+00 2.972098981665387285e+01
1.399929710698418361e+01 6.059002724106340665e+00 2.979772303443384018e+01
6.058202407117506461e+00 1.570888123046700002e+01 2.755839007328640378e+01
1.065692851241858108e+01 1.211149868226284632e+01 2.858067539509100641e+01
9.456171173219717119e+00 1.357879464771656863e+01 2.839272029535007746e+01
1.482387993025653827e+01 3.653695272968129348e+00 3.035757733457031549e+01
1.411609777320613901e+01 6.676230498491141141e+00 3.005754563585723815e+01
8.474329868166432078e+00 1.432922512642694102e+01 2.812098343028277014e+01
7.722621212799534618e+00 1.524917673708409716e+01 2.824840477967410735e+01
9.982873710173519655e+00 1.317578860678341712e+01 2.858307885345681143e+01
8.965262247105792781e+00 1.395400846738140821e+01 2.825686878494098409e+01
8.232352772485425518e+00 1.487240084662606598e+01 2.833461300397400251e+01
6.721626926233285282e+00 1.580462527689267738e+01 2.799588679941722447e+01
7.244719054364797906e+00 1.559532908795336503e+01 2.818291705821950544e+01
1.050958144046867027e+01 1.277278578417608657e+01 2.877343663729636347e+01
1.429757993393796944e+01 5.635222855284844456e+00 3.003525120283469363e+01
1.459586191424373958e+01 5.211442963139978346e+00 3.027278482155114858e+01
1.499051310647788782e+01 4.646667851807967153e+00 3.066098915867095087e+01
1.436662319201579763e+01 6.250106214899829205e+00 3.024210560712939966e+01
1.036425087870610717e+01 1.324392489547789609e+01 2.894601592330803896e+01
1.001391921573209842e+01 1.373928855170994190e+01 2.896152095471492061e+01
1.468316559228894569e+01 5.923086681216443772e+00 3.052034278283222690e+01
1.501094649978668194e+01 5.405610326143815314e+00 3.077036456417670252e+01
1.470375401555479833e+01 6.781519883963731843e+00 3.072591311517270896e+01
1.510789773239973321e+01 6.168377888271489695e+00 3.103952920213927058e+01
1.542602673689675008e+01 5.599776848102723470e+00 3.126807680279231150e+01
1.587405641088801556e+00 -3.429436182177593828e+00 4.435939510197325575e+01
2.109703905938174806e+00 -3.898440937405472262e+00 4.440677842570686096e+01
2.342706510594483760e+00 -3.390873374670970719e+00 4.469829699683112523e+01
2.230259739811709885e+00 -2.876017624796618932e+00 4.484464738007669382e+01
1.668355503075245938e+00 -2.748358865297236164e+00 4.465150438335695071e+01
1.974440429278964793e+00 -2.303217923826760494e+00 4.492165598046165087e+01
1.460500341710301964e+00 -2.222555285859310281e+00 4.473343038148071571e+01
1.105384012482778733e+00 -2.620455541933846444e+00 4.445798936647599220e+01
2.481374270874566079e+00 -2.215379574875518287e+00 4.516095608621394319e+01
2.044367536229512172e+00 -1.757138113220328979e+00 4.512578614690100665e+01
2.918267120014693461e+00 -2.673505909322643426e+00 4.519611408841091560e+01
8.979151955135966645e-01 -2.094524201518815687e+00 4.454011675669296011e+01
1.252642297525296877e+00 -1.696754034890702201e+00 4.481535473626360044e+01
1.607415429642407467e+00 -1.298960479845105320e+00 4.509061827071607809e+01
2.262015244911127709e+00 -1.419067273973131593e+00 4.532093964287985699e+01
3.244825558328101156e+00 -2.166297189632536924e+00 4.548886363252678677e+01
2.916805210476758781e+00 -1.536584069027331356e+00 4.555131544116596842e+01
5.949638858467213298e-01 -1.424967360588735188e+00 4.450618067101120090e+01
1.080742555018017192e+00 -1.006443497438320955e+00 4.485796477060022625e+01
3.645553100447597394e+00 -2.680686676839088012e+00 4.549155761105135554e+01
1.302855742495591329e+00 -6.705512853011401653e-01 4.502029741401819507e+01
2.020455111476254118e+00 -8.697957066156751793e-01 4.536835019455718765e+01
2.675224740337395879e+00 -9.879366236428174242e-01 4.559873908230190409e+01
3.571418059183649962e+00 -1.654737233013603870e+00 4.578161226184788291e+01
3.175718308654629229e+00 -1.126054679143940751e+00 4.576231701893566850e+01
3.936025193573549519e+00 -2.227777043635304377e+00 4.575182738072021493e+01
5.542664412839952703e-01 -7.140224214070229891e-01 4.462538764029853411e+01
2.433642920863939185e+00 -4.394875801633042478e-01 4.564615977721458506e+01
4.359547361904667184e+00 -2.644723787321771713e+00 4.572878982625880440e+01
1.733241719217010202e-01 -1.011695527774811421e+00 4.435559657038775327e+01
-8.456524919686363162e-02 -1.430060410007906180e+00 4.412973894523904050e+01
1.767593958397819520e+00 -1.864503815918638618e-01 4.533278302473556920e+01
9.979701710182394825e-01 -4.004136215720394826e-02 4.494989979476210351e+01
3.306731923607745038e+00 -5.975911565504424816e-01 4.595329390491529153e+01
3.766589122069595064e+00 -1.185312458357473897e+00 4.598267061832648750e+01
4.226485594329310480e+00 -1.773135012853697567e+00 4.601204444261422566e+01
4.686218403219021056e+00 -2.133110816281369448e+00 4.602150739883677488e+01
2.781395455186674165e-02 -4.216084756719379878e-01 4.439281344243282490e+01
-3.982765146011382207e-01 -8.987832705351521678e-01 4.406229538132730994e+01
4.651083578061662172e-01 -1.394845179100033007e-03 4.467858284622953136e+01
2.846785215490526433e+00 -9.795280857061109542e-03 4.592390605501983458e+01
2.232364674405975080e+00 2.968880686720711259e-01 4.564526728302510605e+01
4.147020261774497563e+00 -5.550878828860094094e-01 4.632400266369328534e+01
4.596280868794902830e+00 -1.211429516608050427e+00 4.632932284740098794e+01
-7.206369435201014362e-01 -1.254827350645931316e+00 4.374218302412587889e+01
1.618454401696985956e+00 6.033493922120084507e-01 4.536682700928909640e+01
6.936998638535912809e-01 5.886830297465492912e-01 4.487964201846111933e+01
3.468931468739820723e+00 -2.961481013209037866e-02 4.618383982658723852e+01
4.845631829894281317e+00 -1.709878143760419134e+00 4.624102055209309015e+01
-2.703089071263681947e-02 2.222803183820772632e-01 4.445420895018745711e+01
-4.989733494191886387e-01 -1.290056955922583015e-01 4.416008596913064821e+01
1.003654507555301167e+00 9.102714361482454608e-01 4.508796393199456531e+01
2.628836282844525751e+00 5.653555568354851069e-01 4.586923721888470595e+01
3.232837376408280949e+00 3.841373658045322270e-01 4.617832341420300679e+01
-7.121793710736307181e-01 -3.671935927455379223e-01 4.399481058385311627e+01
2.014896955253064892e+00 8.713209539305234452e-01 4.559075474477007361e+01
4.091454470907680552e+00 -4.951264286649875723e-02 4.644389346979893674e+01
5.228423390858292663e+00 -2.047272497757543608e+00 4.623402862318660311e+01
4.966097350000526767e+00 -6.502954163421448275e-01 4.664647782288355415e+01
-1.213454596127640617e+00 -9.214232804220072737e-01 4.349686238200155231e+01
3.895824657169614236e-01 1.216838592876495762e+00 4.480941806809831718e+01
-8.187519537583104468e-02 8.662263284432392130e-01 4.451560254680425288e+01
3.783019185182721955e+00 3.357159283631247493e-01 4.640110370861144418e+01
4.713592381171306300e+00 -6.944085515997031055e-02 4.670371566717138023e+01
5.443179676569801728e+00 -1.188589037039371687e+00 4.662065826604615637e+01
-5.540867817861135913e-01 5.148041113964535453e-01 4.422130127495733376e+01
1.532964857464971686e+00 1.266858768407115976e+00 4.538684385625037265e+01
9.180397893081061467e-01 1.573264995228870644e+00 4.510786686247656974e+01
3.014894442605441593e+00 9.584097113846132832e-01 4.612358355566900059e+01
3.618534753634576440e+00 7.775809357569501978e-01 4.643248224350107733e+01
4.304102569928109467e+00 5.174694087304614332e-01 4.666424941318277320e+01
5.465176928323685956e+00 -1.646869370001057709e+00 4.647009723582654317e+01
-1.025583055491634310e+00 1.635000219659772658e-01 4.392743313381675563e+01
-1.383916715137556430e+00 -2.319860229206485991e-01 4.357165326654997983e+01
2.411354990345659921e+00 1.139238658071481503e+00 4.581468095559989706e+01
5.336276607329026866e+00 -8.940791349859322779e-02 4.696358964017464643e+01
5.792114338387132300e+00 -5.664138181143486550e-01 4.695173595658206267e+01
2.193959828462741957e+00 1.712872320825231220e+00 4.576014273775189167e+01
2.438160204678691545e-01 1.798783974826606125e+00 4.474301950897682900e+01
-7.160300444299328992e-01 1.289192125423476831e+00 4.418035680738007187e+01
-9.999589187067277340e-02 1.635277409118272240e+00 4.455678685898264746e+01
4.004152788427592924e+00 1.170822362223825186e+00 4.668654878166760369e+01
5.020935635534346630e+00 4.615541411393134785e-01 4.695597845724448405e+01
6.084308847222379413e+00 -1.584072620049420843e+00 4.669892677781255230e+01
-1.232189955580089036e+00 7.929788815521970902e-01 4.385112057129368424e+01
-1.742213055083870810e+00 -6.274950329852965192e-01 4.321591001006855493e+01
2.797269748198019546e+00 1.532378692860028924e+00 4.606897578175233576e+01
1.447474191165902369e+00 1.930261826416532100e+00 4.540685934318430839e+01
5.513256073256161960e-01 2.254495593830777800e+00 4.492250604179626094e+01
4.705551182947474764e+00 1.012740570907109117e+00 4.694836045021303050e+01
6.248342251154313409e+00 -1.043776926944060435e+00 4.693986708246785611e+01
-1.512021673541265487e+00 5.567838071018531565e-01 4.363533253880790852e+01
1.007152094827432176e+00 2.370740665507395928e+00 4.517546260911556288e+01
9.805919485180523976e-02 2.380593029460415178e+00 4.467662457794306619e+01
3.400722578607901614e+00 1.351634878005687046e+00 4.637781680779375648e+01
5.735349365348421102e+00 5.022691499987986807e-01 4.727501291328309208e+01
6.022687403339253898e+00 3.256704756263958250e-02 4.723604868253907796e+01
-1.996323516480982940e+00 1.555811824296894352e-01 4.318181221993684460e+01
2.579535251438623167e+00 2.106245873573601379e+00 4.601429146383276247e+01
-5.905403442848575768e-01 2.054511165651611293e+00 4.430364788359021588e+01
3.183200579100055716e+00 1.925472840652614481e+00 4.632326967591826872e+01
3.786584372645537933e+00 1.744814634413495602e+00 4.663204751358019706e+01
4.390060980525553269e+00 1.564206855874190172e+00 4.694073450783685075e+01
5.421065527589802535e+00 1.053254502355247313e+00 4.726739856184817512e+01
6.704791597938490000e+00 -1.521296425913011952e+00 4.692798787831478080e+01
6.477705675126181895e+00 -4.448050978484641704e-01 4.722410514928800040e+01
-1.438791674632851514e+00 1.421655316881056619e+00 4.377481065761042345e+01
1.976422987991934610e+00 2.286867206118278872e+00 4.570556640590401543e+01
1.513274496110996958e+00 2.655093643174967877e+00 4.545996057334111384e+01
5.390630788888883806e-01 2.744875824153261590e+00 4.492725887668200357e+01
-1.065823719321850271e+00 1.815086646150970928e+00 4.401506199618508930e+01
5.105425832292049826e+00 1.604237777619858640e+00 4.725978002529865307e+01
-1.998916818714230326e+00 9.517389057277303444e-01 4.334295572973263688e+01
-2.371940170808227943e+00 -3.925465941815425297e-01 4.278147839652358897e+01
1.049481136513792601e+00 3.023841579709838356e+00 4.521399812486718162e+01
-4.773248313633963319e-02 2.962480571038119681e+00 4.461021335096747009e+01
2.988255280421510562e+00 2.418035256407700562e+00 4.624646967331751313e+01
4.236149306530869296e+00 2.237173919013584644e+00 4.689527507595510514e+01
6.932717949939212865e+00 -9.221802927949174222e-01 4.721215403359398266e+01
6.704847187745227366e+00 1.543152680531174326e-01 4.750818039066994913e+01
-2.376629417130048605e+00 6.692857555295681493e-01 4.299574007070523862e+01
-2.100417637502930202e+00 -1.024907026026077084e+00 4.286025725110309992e+01
2.464680270345616098e+00 2.610921785249672222e+00 4.598037820109826157e+01
-3.895063506167137923e-01 2.557190670125168985e+00 4.442039739106460416e+01
-1.079978623225468004e+00 2.472777095270541459e+00 4.405107397220539411e+01
3.549550220482858620e+00 2.480838220429160579e+00 4.654596851421639769e+01
4.804614219228629857e+00 1.973812509807493898e+00 4.719272559500499398e+01
1.871813772173016144e+00 2.939952328514559010e+00 4.563736123964133640e+01
5.816421095645444517e+00 1.644167092100297767e+00 4.757830335615543760e+01
7.275746576620040429e+00 -1.294777804131661769e+00 4.717877548115960451e+01
6.417641953865845572e+00 6.237097588116222724e-01 4.754710297019407506e+01
6.130436994061623679e+00 1.093103177240986934e+00 4.758602228816798885e+01
7.160130339403082189e+00 -3.232836470133091389e-01 4.749624681916029090e+01
-1.645392715940531936e+00 2.050121490114481748e+00 4.369850188370183020e+01
-2.643862478459691356e+00 2.387368748414900876e-01 4.270258554862136435e+01
5.865376760216461927e-01 3.391917080490421732e+00 4.496847698205281318e+01
2.359846543020970078e+00 3.263655970953517560e+00 4.591205722345873852e+01
-2.022486575663502428e+00 1.655504112314602816e+00 4.339956008421714273e+01
-2.486286867021567648e+00 1.347198226815225608e+00 4.305029311783290780e+01
-2.879506663766333130e+00 -1.923183364340274870e-01 4.254859811957633298e+01
-6.028239079729263983e-01 3.106077862546397395e+00 4.431738878940257820e+01
1.234910224409233037e-01 3.760074584639916839e+00 4.472289469464617184e+01
5.219018414202959200e+00 2.382962425476139234e+00 4.744444758639568960e+01
1.767272269438939336e+00 3.592658396301029899e+00 4.556919231341545640e+01
2.952471285556961256e+00 2.934647508315637587e+00 4.625492196033778924e+01
4.692609525068765386e+00 2.740053726454598770e+00 4.717587134601936327e+01
4.082417158132281898e+00 2.909903217837178868e+00 4.684982990812676462e+01
5.724504442033858886e+00 2.218332812991478331e+00 4.763735975439529113e+01
7.444417466694918772e+00 -7.564391831024339652e-01 4.742356704467935913e+01
7.392710482615016510e+00 2.761523754228944472e-01 4.778061566928247572e+01
-2.915965762763871982e+00 8.703925648059136488e-01 4.262364064736252089e+01
1.124671229567742348e+00 3.818428243392305799e+00 4.523477192056282803e+01
-1.937637519549285647e-01 3.545286448833918413e+00 4.454369289232955254e+01
2.433312889373580479e+00 3.817568856687620027e+00 4.594688936159990789e+01
3.440185076950162291e+00 3.258302254527619901e+00 4.652941436346495152e+01
6.814939254523844525e+00 1.214677403993832172e+00 4.785829455393308507e+01
7.104009365776490448e+00 7.452823875206256998e-01 4.781944595069291637e+01
-1.569340680629935703e+00 2.890954716914421407e+00 4.379853550120760275e+01
-3.296259946748926417e+00 2.529864792586110633e-01 4.238191382103883598e+01
6.455529705841165367e-01 4.035811182861441360e+00 4.498432674181174917e+01
-1.109769616994952246e+00 3.215796843736457689e+00 4.404954199092134814e+01
2.966446500806892317e+00 3.521661845299276727e+00 4.625534568747827535e+01
6.364869551563577588e+00 2.190564603428678758e+00 4.791418927233552694e+01
6.525608097696181886e+00 1.684111155498727808e+00 4.789714289941696990e+01
7.847418238459793471e+00 -1.068566808139988389e+00 4.742930568299421168e+01
7.908566295970753224e+00 -2.831365322135623308e-01 4.773026901315804338e+01
-2.152394571422733272e+00 2.219287549721372432e+00 4.336904292065227651e+01
-1.852449344672638443e+00 2.679788916716248082e+00 4.362202543666665377e+01
-2.507627445386807263e+00 1.899409285146441695e+00 4.309279361071241965e+01
-3.187617820966297533e+00 1.501058485347906535e+00 4.254482884249121355e+01
-9.133238974349422445e-01 3.855603449196744137e+00 4.416649922364837266e+01
-3.399060076023316945e-01 4.128509238391198544e+00 4.447712202716263619e+01
-1.486003026622875645e+00 3.583036302671728013e+00 4.385626866842913785e+01
5.632588810337696650e+00 2.792500042721260733e+00 4.769641603448475564e+01
5.175168969558646914e+00 2.910129421912075021e+00 4.745128760898563769e+01
4.458066529717077842e+00 3.487339702362590277e+00 4.709032407627508121e+01
3.928780822433433073e+00 3.582519489351986941e+00 4.680439117728934661e+01
6.204253036918800923e+00 2.696530629870390605e+00 4.793121702643244930e+01
7.620656824138037244e+00 9.033985831818132084e-01 4.805178689511263457e+01
-2.972813219535532792e+00 1.741822573802459528e+00 4.275813693388518999e+01
-3.413184674224677195e+00 9.745966937464242141e-01 4.238741821001118382e+01
-3.231237235344899261e+00 -5.026574230546435595e-01 4.234817348455127473e+01
1.662808989256710168e+00 4.244925147347908378e+00 4.550106849768170747e+01
9.251585992371353928e-01 4.641209569637402055e+00 4.511410805799422263e+01
2.928783751643564415e-01 4.384964167306713456e+00 4.479574290749575027e+01
4.987186205219590995e+00 3.392223536354790792e+00 4.737606258723657504e+01
8.000285467307405085e+00 3.400400876990394838e-01 4.798343149757955217e+01
-2.059704674159001492e+00 3.309969601986130439e+00 4.354547771397837863e+01
-3.796121138989101418e+00 -2.416676217936199189e-01 4.209237399741953567e+01
3.454086748557745334e+00 3.845858508672058917e+00 4.652979935772842879e+01
2.980433385315217176e+00 4.108651618541613537e+00 4.625577077541549897e+01
2.506781746353560436e+00 4.371461005922925303e+00 4.598172197948565554e+01
5.517616422758808703e+00 3.296990212391726072e+00 4.766214277967232249e+01
6.939685962554266396e+00 2.275456807018696459e+00 4.818660522562081638e+01
7.188135188124459063e+00 1.607259282936909450e+00 4.811010142445253734e+01
-2.992887382881098901e+00 2.527465981311933785e+00 4.282574105238923323e+01
-2.526549396756131216e+00 2.918531120358923481e+00 4.318541692485263184e+01
-3.459281586494793892e+00 2.136288440265486699e+00 4.246601642930829712e+01
-3.684891876494143848e+00 1.605029940221611717e+00 4.230857282151624332e+01
-4.135907243986881809e+00 5.505223214722072544e-01 4.199383316217566886e+01
-7.704388700616319197e-01 4.601596428922720250e+00 4.420449776669095598e+01
-3.026999314343263858e-01 4.751443871291212595e+00 4.443601944533507009e+01
2.032434090690529604e+00 4.634666454002740466e+00 4.570725738917300873e+01
6.043868465909091547e+00 3.201754716139902701e+00 4.794821720168220480e+01
4.450265186015959884e+00 3.910952674324574829e+00 4.708046817858686239e+01
3.917623546332443141e+00 4.140955450900342782e+00 4.675617664984874722e+01
6.696147910435774619e+00 3.034476869383272657e+00 4.821207213948228087e+01
7.847881548465056589e+00 1.530420138950561615e+00 4.832287409308272430e+01
8.227442468861124070e+00 9.671471386929834102e-01 4.825454086052584302e+01
-3.910407588918736188e+00 1.078791522215695631e+00 4.215119674607291955e+01
1.558255523364993067e+00 4.897780873377126198e+00 4.543288207415062629e+01
3.936078908928343223e-01 5.109929329232547168e+00 4.477911770938384706e+01
-1.445781792594270865e+00 4.376760995785640596e+00 4.383303982060256487e+01
-2.059957294202861000e+00 3.987900582397482463e+00 4.350593430553711727e+01
2.535135011823632212e+00 4.867235789821130254e+00 4.595940319566981458e+01
3.141432406009491807e+00 4.848417229203368706e+00 4.628616739483251052e+01
5.505240483355471781e+00 3.932364195099263160e+00 4.764735190611430937e+01
4.971418306821564492e+00 4.239152018539951605e+00 4.735635169416541856e+01
-2.465951049836891062e+00 3.725235048038219254e+00 4.323560795617851227e+01
-4.361710992592221281e+00 1.969905417270439302e-02 4.183625874665612798e+01
1.120195822965786903e+00 5.328960762845648347e+00 4.515239617960225615e+01
3.378838740712177380e+00 4.338959711527839325e+00 4.645211385254057035e+01
2.139643001405126199e+00 5.127907985655609124e+00 4.572744063368942591e+01
6.035816894417189715e+00 3.766649262910848339e+00 4.793510167829825264e+01
4.438993561416703315e+00 4.469860827661052305e+00 4.703217281883560474e+01
7.600087465248263285e+00 2.198459503527640191e+00 4.839949956706242062e+01
7.352091565710291654e+00 2.866999849836425529e+00 4.847617814968329242e+01
-3.049047530424639163e+00 3.235778574219534409e+00 4.278587842585613288e+01
-3.874771132524749362e+00 2.321486721598716940e+00 4.212727008690479380e+01
-3.515399100241719754e+00 2.844636094304229701e+00 4.242618715822310804e+01
-4.251018471344496064e+00 1.668631398705777036e+00 4.185497623084812346e+01
-4.293355780596658455e+00 1.040236751143907901e+00 4.184781495731636625e+01
6.831292422460488734e-01 5.759163948887024098e+00 4.487253859143941526e+01
-1.200261262431289833e+00 5.073890676813080702e+00 4.393231774329862560e+01
-7.062900590652911870e-01 5.145411684052868750e+00 4.418527617127660534e+01
3.906488813631963097e+00 4.699866371342304561e+00 4.670792085684865214e+01
6.426528365607531157e+00 3.581256237177773638e+00 4.817157047541986969e+01
5.493075314405649223e+00 4.567624948751994651e+00 4.763246638870357685e+01
-4.513634915912904333e+00 5.917992422143701914e-01 4.169119199810058518e+01
1.634376492698844885e+00 5.457728599717226459e+00 4.539166529894612978e+01
-2.654913919649199427e-01 5.374354128352968551e+00 4.439491820296787949e+01
-2.060210669006176776e+00 4.665500377138013022e+00 4.346640791187989805e+01
2.720938526912161315e+00 5.357997565210909308e+00 4.602195170426580972e+01
2.215688396982924413e+00 5.687658760072672237e+00 4.568621359805609217e+01
4.960201098454125379e+00 4.798404694784211166e+00 4.730809350785354894e+01
6.026429569752153270e+00 4.331542666624797810e+00 4.792198437784428222e+01
7.275174077069352485e+00 3.603339102402869365e+00 4.854737765054360210e+01
-2.435569533116263230e+00 4.324415147472802090e+00 4.322218528580251018e+01
-4.796875730833034090e+00 2.353697453919874061e-01 4.133049290956098787e+01
1.196788940801935430e+00 5.888238077504503565e+00 4.511150629762963860e+01
1.808469183177303097e-01 5.644322394435357992e+00 4.461089255952078503e+01
-1.659877454154259580e+00 4.948926413479060926e+00 4.367788209715502035e+01
3.302443886627198122e+00 5.588168593925998628e+00 4.631656796377109231e+01
3.895370617942671032e+00 5.259083720081473068e+00 4.665963870664990765e+01
6.390194956054150666e+00 4.074839219183596484e+00 4.814257158401499481e+01
4.427767883657970138e+00 5.028758065291335733e+00 4.698387865827370291e+01
-3.571538811115490208e+00 3.552989538023607174e+00 4.238634520798445493e+01
-3.221657584744420877e+00 3.846508986826343346e+00 4.265620427044942176e+01
-4.290210464476427177e+00 2.506639275790989441e+00 4.178856816279314046e+01
-3.930891051560465588e+00 3.029792403960171132e+00 4.208744268941312328e+01
-4.665418576067819956e+00 1.163640552722199795e+00 4.154626089749560691e+01
9.303847199093822073e-01 6.361255174755547692e+00 4.491105321104334536e+01
-9.166968336166884113e-01 5.701225110722333511e+00 4.402041475522346303e+01
2.796675325198207496e+00 5.917747978099087369e+00 4.598055346620664352e+01
1.710451771390611331e+00 6.017312392140547139e+00 4.535047478971566903e+01
6.810987689185583172e+00 3.960782286800463847e+00 4.839494185560137396e+01
6.015437368121387074e+00 4.896435384348685638e+00 4.790886711744984439e+01
5.481956458792550890e+00 5.127076174606154169e+00 4.758430509272489672e+01
-2.871773130373289629e+00 4.140030510363851057e+00 4.292606280819398989e+01
-4.601798680339277858e+00 2.173277456839443289e+00 4.155429966063974234e+01
-4.817148928490059490e+00 1.732213694979300334e+00 4.140138263645818739e+01
2.461882434441865497e-01 6.189242420151862767e+00 4.459275688748337529e+01
-2.282867610152178039e-01 5.997126363152156969e+00 4.435382739195557633e+01
-1.630075378098403638e+00 5.546163880702025040e+00 4.366014001155268431e+01
-2.635416283985664965e+00 4.885619352209599420e+00 4.304902397116006085e+01
3.884267446567939430e+00 5.818464623455088081e+00 4.661134384350341975e+01
2.291508304046903977e+00 6.247063411452416837e+00 4.564490806407377477e+01
2.872418769760505697e+00 6.477485595482575853e+00 4.593915755715315896e+01
4.949053148165727833e+00 5.357647712659895589e+00 4.725983663392796785e+01
-4.346382507836707099e+00 3.214935212831862454e+00 4.174870294182587571e+01
-5.043803925928551202e+00 1.165018781059582897e+00 4.109468988817972956e+01
-2.060461626397577461e+00 5.342690852246812838e+00 4.342690729156807095e+01
1.786456853327537564e+00 6.576336521826916304e+00 4.530932727586774433e+01
3.378486404886735350e+00 6.147878157961058854e+00 4.627535332371731158e+01
6.605851482961660359e+00 4.618846509164255210e+00 4.826360039275258629e+01
4.416856643937371096e+00 5.587960281155311293e+00 4.693572586070222741e+01
-3.987045424285044604e+00 3.738087460106263915e+00 4.204759235531431472e+01
-3.277594598966868222e+00 4.554791665230618847e+00 4.261652083660921875e+01
-4.705836990358669425e+00 2.691851710447779045e+00 4.144971774828891853e+01
-4.969050419767898852e+00 2.302320555843127892e+00 4.125634325899012822e+01
1.177645026877140344e+00 6.963336169629051220e+00 4.494957272943380389e+01
4.932412278977125752e-01 6.791485738186922916e+00 4.463114785672728146e+01
-1.437357367700172528e+00 6.219488729677039807e+00 4.369595402254224581e+01
-8.146925485424951763e-01 6.419421269107860262e+00 4.400412434466422695e+01
4.051691541311067901e+00 6.454226763145646473e+00 4.655788828919241951e+01
2.367335184222100430e+00 6.806455289924653762e+00 4.560360658903955766e+01
7.198125262683682912e+00 4.340957396134231594e+00 4.861869867148681834e+01
6.130074921467535631e+00 5.498048581826842529e+00 4.787612634223071240e+01
6.488522034384606840e+00 5.216690558413472623e+00 4.817077881472472001e+01
5.035473491903815102e+00 5.808760817075077298e+00 4.723537828572016650e+01
-3.627697954660131341e+00 4.261477771760154631e+00 4.234649343336397465e+01
-5.214554244166616392e+00 1.806218571496825520e+00 4.093166787745526136e+01
-1.910922087329683383e-01 6.619652990808208237e+00 4.431275543548563434e+01
-2.602027676593913874e+00 5.669378428807307913e+00 4.302700081850788649e+01
4.503066969710721068e+00 6.039162007227077744e+00 4.691112326310354064e+01
3.496728339728512935e+00 6.882794100905982759e+00 4.617437239208162225e+01
2.919671369286628071e+00 6.967222749841806007e+00 4.585544852819452899e+01
5.625874157801746378e+00 5.878961322882732432e+00 4.754352455166827696e+01
-4.761737665404894848e+00 3.400018921034489772e+00 4.141007985974886196e+01
-4.402553505009463741e+00 3.923177289356252206e+00 4.170884389712809792e+01
-5.366501163380481110e+00 2.375798459153989128e+00 4.078659258907192964e+01
-2.060713273296485681e+00 6.019333315783937266e+00 4.338743976451515749e+01
1.862460147582978509e+00 7.135289876732336722e+00 4.526818856678245595e+01
-3.142876740566269422e+00 5.319724583931397355e+00 4.266686884461157092e+01
2.492870570066652469e+00 7.282383616575463847e+00 4.556368020851498812e+01
7.313406796998922488e+00 5.099727785362282440e+00 4.865703064390016408e+01
-4.043046834665668499e+00 4.446816939759708376e+00 4.200787709500403366e+01
-3.683862553785336669e+00 4.969983199510886074e+00 4.230664301150732598e+01
-5.121074445141157838e+00 2.876867598684210936e+00 4.111118976132983960e+01
-5.438032105270752758e+00 1.225715823170138608e+00 4.062797587052490655e+01
8.650859355253719407e-01 7.313366209886899227e+00 4.464972988896724360e+01
2.603164069104331735e-01 7.193710516494186358e+00 4.435675062871334973e+01
-1.378799461781156310e+00 6.942205736744768707e+00 4.349309926496101042e+01
-1.719743584262616531e+00 6.480792328010164915e+00 4.344027024938104375e+01
4.670356643877820346e+00 6.674392177958038630e+00 4.685772356395935390e+01
3.123945609290882164e+00 7.429633254644927298e+00 4.585948326895363891e+01
5.121910917829736398e+00 6.259872247183885463e+00 4.721092146139682910e+01
6.244924520523457367e+00 6.099675103202466531e+00 4.784338467169477838e+01
6.959695524212064832e+00 5.537035515349409742e+00 4.843276345964746099e+01
6.557984859890549245e+00 5.748059150808590090e+00 4.812056170853980319e+01
-5.427337964576228302e+00 3.016664461312683176e+00 4.061391452162097693e+01
-5.611958477630254016e+00 1.880223323702846061e+00 4.046195711573064102e+01
-4.439493742265072651e-01 7.242626855902334349e+00 4.395569818463098244e+01
-2.210118703513192173e+00 6.582981230714511689e+00 4.301087762106371315e+01
-2.690488004936886668e+00 6.602268573211218516e+00 4.255258953235857433e+01
-3.021636180946570605e+00 6.058150566462069619e+00 4.247059660749316379e+01
1.513226283384297099e+00 7.738917635643825399e+00 4.485657656861056353e+01
4.218844064984807574e+00 7.088902605334978624e+00 4.650452633881464948e+01
2.301645094269614500e+00 7.667746967097099464e+00 4.528329373686840142e+01
2.868948184181242311e+00 7.758118754702647557e+00 4.556783842302228749e+01
5.741342790690267428e+00 6.480789622182171250e+00 4.751099915784551087e+01
-4.822608574072920540e+00 3.980531964811960144e+00 4.119942821427936508e+01
-5.217796127135253315e+00 3.404926434569696791e+00 4.087072949495256324e+01
-4.427484413949474451e+00 4.555978907630384711e+00 4.152809856277756495e+01
-1.037481524064583382e+00 7.404113422172421188e+00 4.354599099325817235e+01
-3.352714178807899792e+00 5.514134612971415272e+00 4.238862658165574970e+01
-1.835772285455076203e+00 6.919102363603722772e+00 4.314756218709676006e+01
3.755093603875420794e+00 7.576899196945673154e+00 4.615532105956288689e+01
7.430681361200795365e+00 5.858108686391389597e+00 4.869534305406956065e+01
5.247436508313552572e+00 6.736323018543169283e+00 4.717090706975033498e+01
-4.068314319634984244e+00 5.079417414724894719e+00 4.182677870481178672e+01
-5.697305782345638114e+00 2.466084954235642446e+00 4.025688081921842354e+01
1.666272998780176373e-01 7.660355511449234989e+00 4.414146035453296690e+01
7.122157071998933553e-01 7.768375620327524267e+00 4.440079882208970474e+01
-3.881459993764872163e+00 5.563871703486513276e+00 4.193191802123446621e+01
-3.550186668085154817e+00 6.108052980483813066e+00 4.201398702403370322e+01
-2.359428072873647420e+00 7.146236869974109673e+00 4.263456606243065039e+01
2.148527077877847802e+00 8.117657254427738778e+00 4.503074564892484233e+01
3.352803797433077548e+00 7.912976876870869702e+00 4.577602284997521309e+01
2.740668562011510989e+00 8.199992443200171621e+00 4.529839890413710890e+01
6.896690416993132011e+00 6.280076354475447431e+00 4.825265331854441087e+01
6.359894180053940360e+00 6.701386180038990226e+00 4.781064038531390281e+01
-5.492928539856027470e+00 3.493131500740494833e+00 4.043042928312365092e+01
-5.733591711625095400e+00 3.156275281013418699e+00 4.011665717555271016e+01
-5.942959551315321498e+00 1.969281413453827456e+00 3.993198799022120227e+01
-1.250750192109634451e+00 7.625697162364762249e+00 4.327750191984255679e+01
-6.966890814862500836e-01 7.865304595909842433e+00 4.359880477900581042e+01
-4.452416292172820533e+00 5.188744033683390988e+00 4.134735264119041886e+01
-4.195428996632365681e+00 5.575060426524699686e+00 4.155865279921173538e+01
-3.218912805250673248e+00 6.652225376368665621e+00 4.209606082894397616e+01
1.163880679999167223e+00 8.342731799303800599e+00 4.444482965788205320e+01
4.386158347792945555e+00 7.724146949744756796e+00 4.645111962853577126e+01
4.879770594648826787e+00 7.468347781745630520e+00 4.679115437752642492e+01
1.835932850060135735e+00 8.472575256132657273e+00 4.473444342340420832e+01
5.866344094888669147e+00 6.957108052780738738e+00 4.747072931414415820e+01
-4.883480716573521008e+00 4.561013600403174273e+00 4.098877501912051002e+01
-5.314547416125859236e+00 3.933293041950674862e+00 4.063019645411942093e+01
-7.690366700077853890e-02 8.024343633987328417e+00 4.388063167297862321e+01
-1.805172496940690374e+00 7.385931311194659621e+00 4.295598751899003531e+01
-2.887744863356803471e+00 7.196254028074585030e+00 4.217810171348566683e+01
3.984076944250351637e+00 8.060091099056586827e+00 4.607200235822791967e+01
5.372975762615241457e+00 7.212764821718666397e+00 4.713089644539053324e+01
6.918873153072198079e+00 6.901664400198518123e+00 4.809253902240689627e+01
7.633449630795672292e+00 6.339671970173345272e+00 4.868228987129915453e+01
-6.062257433226346137e+00 2.612306657551093370e+00 3.966686291526787755e+01
-5.411299205980398597e+00 4.461646638021945499e+00 4.038966349256461541e+01
5.431594421557811581e-01 8.183454051466778623e+00 4.416258178263065304e+01
-1.404492309221924584e+00 7.863388898506031843e+00 4.286576030454437358e+01
-1.138299548820972812e-01 8.208936705469318085e+00 4.370496723295104147e+01
-4.079002060758047499e+00 6.157555756178335393e+00 4.155729763170682389e+01
-4.836458954288419321e+00 5.298046516390882310e+00 4.086800226062607777e+01
-4.495950202137295904e+00 5.885678008627329483e+00 4.112992117216502663e+01
-1.882034084446128741e+00 7.504759802538057301e+00 4.275014135447759855e+01
1.716609283276976150e+00 8.665895357092475493e+00 4.452005736413189396e+01
2.507953573623995958e+00 8.602412748103310136e+00 4.502404315655876843e+01
3.581664195071743162e+00 8.396309754619199595e+00 4.569256551810420319e+01
6.593440391656397281e+00 7.213165985326801533e+00 4.776021515056299904e+01
-5.692137796090101176e+00 3.823460990075100430e+00 4.006571245424973426e+01
-5.162448473419771311e+00 4.930901854292912390e+00 4.057110619652831218e+01
-9.275653325107291458e-01 8.221556648464826367e+00 4.298123623914952418e+01
-3.342266560768376582e-01 8.402512754555395702e+00 4.340552950252664033e+01
-4.931303067170423660e+00 5.884123785227235892e+00 4.061641543472865123e+01
-3.747594090604838613e+00 6.701919560836404166e+00 4.163941111337463497e+01
-2.717078965509597488e+00 7.723351345548269187e+00 4.234132782731990829e+01
1.399896909498943742e+00 8.791783020082087674e+00 4.423412373135822406e+01
1.052597812229902452e+00 8.896608148059396370e+00 4.391743975575599279e+01
4.695724360467294356e-01 8.552885466873032527e+00 4.381123389677551927e+01
4.799691315721136498e+00 8.180559723693486163e+00 4.642488836058073787e+01
5.054836228786401264e+00 7.851974924040567849e+00 4.675332529715920771e+01
2.269081119799134516e+00 8.988905433773371811e+00 4.459525352622803496e+01
4.193294104426412261e+00 8.486235355551489334e+00 4.595741234886398985e+01
3.179654766320476167e+00 8.732188625647358649e+00 4.531350474596041522e+01
7.336520554137691441e+00 6.673960894218568640e+00 4.840839467424788722e+01
7.152369784357298421e+00 7.413148905582916726e+00 4.804222724558473345e+01
6.128865681677947208e+00 7.532295445385694954e+00 4.741405140401678153e+01
-6.039331780672948291e+00 3.295689177313798623e+00 3.962023566410430675e+01
-5.795788993561487246e+00 4.454875120883364126e+00 3.979675798220955585e+01
-4.495430732922287564e-01 8.580543422639243190e+00 4.309699194905622477e+01
-5.220414530940563402e+00 5.407316533167030315e+00 4.038876232776223674e+01
-4.276732502491017662e+00 6.751780405983168087e+00 4.118232127482585270e+01
-3.416187890211231704e+00 7.246280078423544602e+00 4.172152841615653074e+01
-3.142275755799647019e+00 7.675532527962976026e+00 4.197139780170777357e+01
-2.080538363725738193e+00 8.201358509739655744e+00 4.249545093714635868e+01
3.791140467073215170e+00 8.822288239710823987e+00 4.557818953190216149e+01
5.722802128246817333e+00 7.979665701797837407e+00 4.705520889296502673e+01
-5.507885969557169581e+00 4.989086709341190584e+00 4.014954046880890814e+01
-1.469342472711305359e+00 8.415133873026368505e+00 4.270335708821829002e+01
2.776904954287488445e-02 8.938994235716812398e+00 4.321259628290196986e+01
-4.693599269240908534e+00 6.378675177140934238e+00 4.077916070300206997e+01
1.635684082136575679e+00 9.240364802220483398e+00 4.402366590717678463e+01
4.664446832386008879e+00 8.596331650898559218e+00 4.614024420245664260e+01
2.822033479377986875e+00 9.312193351616679493e+00 4.467051920521407737e+01
3.277309213574870483e+00 9.184029590010426958e+00 4.502949149505560911e+01
3.689270611573735703e+00 9.037730980932863645e+00 4.535313961528557059e+01
4.402514806477593190e+00 8.912372371631716916e+00 4.584282594441501857e+01
7.478254139458459626e+00 7.102052590503218354e+00 4.837459179864224268e+01
7.836035321707431223e+00 6.820900932775031400e+00 4.866924637889156458e+01
6.826685648616732216e+00 7.724236384954284773e+00 4.770986128620114641e+01
-6.057469559401513770e+00 3.969597133532992483e+00 3.947606315030550661e+01
-5.487878348549565244e-01 8.928735632545018674e+00 4.296970788977182565e+01
-1.125187651964808966e+00 8.918477967962774144e+00 4.272688530232623094e+01
5.636504996176524562e-01 9.039436526278146644e+00 4.348290382683087785e+01
-5.039770136703777936e+00 6.431195090324123065e+00 4.035803802988601063e+01
-5.322281776563555056e+00 5.973659622306352723e+00 4.013358525258747989e+01
-3.945572869077329514e+00 7.296392448930511421e+00 4.126414135185654430e+01
1.099590477456247939e+00 9.139886819631692916e+00 4.375324642445944789e+01
5.485378746813563744e+00 8.395050157104391175e+00 4.668767697642565651e+01
4.198918472818858660e+00 9.343289878459895448e+00 4.539277871577161250e+01
6.391400533680893226e+00 8.107476748712953096e+00 4.735737690685085255e+01
-6.345099439705133015e+00 3.435123576946338186e+00 3.912377120287145971e+01
-5.866264992776302201e+00 5.031143121802377216e+00 3.958856378832984291e+01
-6.127803549654347037e+00 4.546117501154919083e+00 3.926804371098172197e+01
-4.023425667066037326e-01 9.299952966560971035e+00 4.291570485146727520e+01
-5.604490222563424773e+00 5.516614464269090412e+00 3.990937390724695177e+01
-4.757364135101481040e+00 6.888558353064968998e+00 4.058240764823084135e+01
-4.474621205006688029e+00 7.346469500868663793e+00 4.080704511422429448e+01
-3.597930525030694326e+00 7.806742133456840982e+00 4.158026508332922333e+01
-1.702081611228450253e+00 8.908209869237062151e+00 4.248385324642372751e+01
2.215669560007102579e+00 9.372106058459758415e+00 4.426447833016697331e+01
5.212874372247281229e+00 8.636576295661019032e+00 4.639868300645554200e+01
5.014528357436231154e+00 9.002550562565339476e+00 4.610773944833918847e+01
7.710853140250989668e+00 7.613295864783432343e+00 4.832385723228199481e+01
7.385334168016713718e+00 7.924288856278579374e+00 4.799168532500966933e+01
5.985006821691807311e+00 8.377764690583513030e+00 4.697718977744651170e+01
-6.389624278544206781e+00 4.060589619220455582e+00 3.894717849968145629e+01
5.408397466145958843e-01 9.236096144346142012e+00 4.331757842874011999e+01
1.053884466123171215e+00 9.533180116152887962e+00 4.342258954413139094e+01
2.261677826243017719e+00 9.530019539408705498e+00 4.412044711903324412e+01
3.374871739875722199e+00 9.635413465470149319e+00 4.474577261787624849e+01
2.795481881450082362e+00 9.503807823167178981e+00 4.450521502590107303e+01
3.988777698262727878e+00 9.741619638924820634e+00 4.498767931453348723e+01
4.861536600258620666e+00 9.325697107135525243e+00 4.577007767042855590e+01
8.037138399744609529e+00 7.302129755992243787e+00 4.865620361460464238e+01
7.059932194597410060e+00 8.235275914214787107e+00 4.765951089532869389e+01
6.581753559282970123e+00 8.521216616123231447e+00 4.723029998642900296e+01
6.103716268872746653e+00 8.807077428821164844e+00 4.680119163672253535e+01
-6.200722465637967140e+00 5.146065438427259942e+00 3.913283561796588117e+01
-8.323336936783842788e-01 9.660806613485883432e+00 4.261896231549828684e+01
2.502117602552255127e-01 9.601361087409962636e+00 4.307546346655239233e+01
-5.516418965603492097e+00 6.556938993553052875e+00 3.986946028498548600e+01
-5.798650994042443330e+00 6.099269484455535739e+00 3.964530209150402129e+01
-4.127172532569298724e+00 7.856795333792669922e+00 4.112299478216050375e+01
-3.074615557906897223e+00 8.300270764035987625e+00 4.204818557131899581e+01
1.566880150448998199e+00 9.830232919065053920e+00 4.352764862007715863e+01
2.114458920137892939e+00 9.832445260372029594e+00 4.388056911645924885e+01
4.708548126866904049e+00 9.648834655448373709e+00 4.543241902703172741e+01
8.008495436599949002e+00 8.038042627114945660e+00 4.826497683799139082e+01
6.268947284925429742e+00 9.161748525441259616e+00 4.664173675064585467e+01
-6.511130622079228658e+00 4.677400170092455234e+00 3.874575419161802614e+01
-6.651585945353128970e+00 3.574884023832288982e+00 3.862614140649687045e+01
