1.580937952119705892e-01 1.925857839102906155e+01 2.558748476011881934e+01
-6.099706898388514098e+00 1.759073572792967965e+01 2.463558389037435603e+01
-8.604483339462895231e+00 1.560062643300329377e+01 2.444093943546443626e+01
-7.613313425816538249e+00 1.643493316038125585e+01 2.447974435204796961e+01
-7.003885048514164602e+00 1.730927653508576824e+01 2.490205294230930377e+01
-1.017540252500119990e+01 1.360441426493547823e+01 2.381324389632172611e+01
-9.547345759303107471e+00 1.458009195754052101e+01 2.434987042360404885e+01
1.849263387509054057e+00 1.933541573240505329e+01 2.604433831355910556e+01
-2.645844128030157894e+00 1.941942654436717675e+01 2.552968716541661465e+01
-3.631225825217759606e+00 1.904988979423297124e+01 2.524807031523770817e+01
-4.897139493740845673e+00 1.872633537123473246e+01 2.524999895673046524e+01
4.289536869792605067e+00 1.849424443348467761e+01 2.643662795597377979e+01
3.673167121916512734e+00 1.878239829395331739e+01 2.633022166472366266e+01
-7.465724716070938349e-01 1.946377123130806552e+01 2.563066369632383257e+01
-2.838016642331897543e-01 1.941655310101317511e+01 2.566220553824787487e+01
-1.637804960329373394e+00 1.950257098359809049e+01 2.564637171620677591e+01
-6.512243096099522788e+00 1.765940218254889160e+01 2.496618026513759503e+01
-7.494059045314573453e+00 1.691269565360591542e+01 2.489407447890720348e+01
-9.138058422135125980e+00 1.514080115287939421e+01 2.452190590514393520e+01
-1.005816707059663706e+01 1.401900975101359315e+01 2.419552082296226203e+01
1.396087359045697474e+00 1.949340104607093949e+01 2.603230248994449525e+01
6.861239020540405020e-01 1.954288778846506958e+01 2.594950990072596753e+01
-3.189698676304374647e+00 1.937972410620163899e+01 2.555944420772591386e+01
-5.527524739729679837e+00 1.836063148048797444e+01 2.509462288331782176e+01
-4.267851309568834850e+00 1.909136522209064424e+01 2.540511061689277028e+01
6.633446721602620499e+00 1.757972812236706872e+01 2.723433194777264887e+01
2.954413749143322221e+00 1.947237088227247526e+01 2.658292919470572357e+01
-6.020188527863254535e+00 1.800980704411226085e+01 2.503036239483266101e+01
-8.474294310739367120e+00 1.611952978119155233e+01 2.487811526935339757e+01
-7.983975804426068024e+00 1.651629170752159226e+01 2.488609670024962739e+01
-1.049582783138940911e+01 1.372788973945039537e+01 2.453728767528944132e+01
-4.236896555790326500e-03 1.971142405536046383e+01 2.598185103276671626e+01
6.031473256204084699e+00 1.799357175679207188e+01 2.710300264145367777e+01
6.941169197805461266e+00 1.685530233893032559e+01 2.696137059255703505e+01
3.580686831417863036e+00 1.927171298769689400e+01 2.665281525233800863e+01
-2.297521334988709363e+00 1.983044762579512721e+01 2.596845696812640014e+01
-4.566271633182217848e-01 1.981408996173198034e+01 2.600352711798429084e+01
-1.125547193961455861e+00 1.984300603947651354e+01 2.601511215395054677e+01
-8.923969344166936324e+00 1.569542421554082701e+01 2.490543705830536325e+01
-7.336604270480425072e+00 1.749281524113910180e+01 2.543839688554337286e+01
-6.890627281051881603e+00 1.770290968193405945e+01 2.529353550085246738e+01
-9.823703972269406393e+00 1.484817148437500123e+01 2.496010008805506786e+01
-9.940934198050340953e+00 1.443359539742073849e+01 2.457780666399523994e+01
-1.082034423153990232e+01 1.324490414831653951e+01 2.441468602200275484e+01
1.700861724790279972e+00 1.987334082036788629e+01 2.644327872854896810e+01
-2.841311341143579750e+00 1.979065515187251734e+01 2.599809534037278880e+01
-4.038789178859448548e+00 1.943492919199359648e+01 2.576876587307641131e+01
-5.381043313670930139e+00 1.879671721787526550e+01 2.556791702604060035e+01
4.197709922859380605e+00 1.898342214471459499e+01 2.675916176053740259e+01
2.327751700708195592e+00 1.967293703254457427e+01 2.651307643916217671e+01
-4.677840495969491030e+00 1.938005498015846229e+01 2.595966982210613949e+01
-5.868807922966895241e+00 1.853556956139950529e+01 2.555317442335490341e+01
-6.488394441900050325e+00 1.796283512972743068e+01 2.531406894868272772e+01
-6.323023932776524525e+00 1.831628805498636936e+01 2.561932502179987736e+01
-7.866127539998168494e+00 1.695124982615222464e+01 2.529441739258647459e+01
-9.374207363054759767e+00 1.527144757819438503e+01 2.493279046946006616e+01
-1.027014188238668524e+01 1.409003490140587544e+01 2.465951231101220031e+01
-1.061518504659457740e+01 1.301015599784405197e+01 2.373196923512897882e+01
-1.102535560852495777e+01 1.347425913358491556e+01 2.509693507553438607e+01
1.078870698549821761e+00 1.997028079797142297e+01 2.642088521951269797e+01
-1.793685807609862071e+00 1.987218358053156564e+01 2.602697273408263356e+01
-3.385104831988244189e+00 1.975085739746582902e+01 2.602773145270120381e+01
2.855793827929714812e+00 1.981948993908173762e+01 2.687314129306333399e+01
-8.758716522776312630e+00 1.630900052786194010e+01 2.548181310849003367e+01
-8.356295051322474521e+00 1.655446196082683485e+01 2.528626819760558675e+01
-7.817321417171564590e+00 1.727478880541829298e+01 2.563514439317296123e+01
-1.022450600533471210e+01 1.439165516742148121e+01 2.500573740537018352e+01
-1.062486917120555852e+01 1.393325456049459810e+01 2.505132682884130446e+01
-1.112114314283290462e+01 1.294524360547730701e+01 2.463979216484684898e+01
4.563220442687569434e-01 2.006720788667851707e+01 2.639849834508304838e+01
-7.618643876326838260e-01 2.018985162787241450e+01 2.638642817013406372e+01
-1.669154429067637446e-01 2.016412845740083526e+01 2.637611022851861264e+01
-5.234547046833977646e+00 1.923284553771247829e+01 2.604129003280687726e+01
-6.777241016899443693e+00 1.809698994636082148e+01 2.568547731550864555e+01
-7.133846883237326963e+00 1.803845653848093278e+01 2.593908579748788767e+01
-9.249729673859818035e+00 1.573214970532048973e+01 2.536505557752554552e+01
-8.238196822338618830e+00 1.698976056652316302e+01 2.569477835341276872e+01
-8.617063556014368686e+00 1.671188299887528572e+01 2.581892296719929547e+01
-7.669390162731586358e+00 1.767634893889042758e+01 2.597487325775563249e+01
-9.699572127277333422e+00 1.530861809388190409e+01 2.539247702885326063e+01
-1.040343777385790069e+01 1.446109673788458139e+01 2.546447507392014842e+01
-1.121696838286764475e+01 1.241525817723006320e+01 2.418249957912028236e+01
-1.131917157465626111e+01 1.300001475028960840e+01 2.524636646638569815e+01
-1.145178974978618136e+01 1.241133250570449498e+01 2.480784660588475532e+01
1.951358772081279058e+00 2.023879573626843609e+01 2.689670107856877834e+01
-1.355626357553559869e+00 2.021556881886508705e+01 2.639674383532313939e+01
-2.493008845102929083e+00 2.020158351828186127e+01 2.643678592166840602e+01
-3.036664828635763591e+00 2.016188047047620202e+01 2.646651235841135374e+01
-3.809775214791586873e+00 1.977842205067986114e+01 2.613237156005808970e+01
2.591389199989394321e+00 2.016811738528501508e+01 2.709581157785092742e+01
-1.949355660687849490e+00 2.024128377088410957e+01 2.640706012441973272e+01
-4.333954331793130166e+00 1.989564946521864286e+01 2.650542490761428738e+01
-6.209753574487498540e+00 1.871031783957779382e+01 2.601129712865418853e+01
-6.663959034061377018e+00 1.849071129117578138e+01 2.607707609401789739e+01
-5.722150507841382350e+00 1.897159506707547294e+01 2.602629329430230953e+01
-9.190839673343708327e+00 1.607250416224866285e+01 2.572629674167463776e+01
-9.043153156332994769e+00 1.649669742199960254e+01 2.608556330288069347e+01
-8.120191205597464545e+00 1.742471812314940038e+01 2.610297988237287115e+01
-1.002493236603976356e+01 1.503178230256356329e+01 2.564027486066383332e+01
-1.087590702412863664e+01 1.395377658833231038e+01 2.557270122510170651e+01
-1.161298323479376293e+01 1.252586960413214712e+01 2.539580584844841482e+01
-1.109782412831450849e+01 1.360888608364667007e+01 2.568659151473725544e+01
1.465687186242434770e+00 2.028246620892255692e+01 2.684149379612941999e+01
-4.071209013862250869e-01 2.048776304335596166e+01 2.676285477485965814e+01
-3.580601438218499855e+00 2.012215460577703041e+01 2.649625523074148248e+01
-5.088076891642205446e+00 1.966889277952700255e+01 2.651460470506202327e+01
-6.550525806363657111e+00 1.888495751095404884e+01 2.646920868503583435e+01
-7.034298890479313116e+00 1.854335544159938465e+01 2.648324497799525545e+01
-9.575492375248071397e+00 1.576612702489535423e+01 2.582469095791591940e+01
-8.561712790282548724e+00 1.703423002818884058e+01 2.616221752331761863e+01
-1.072649188351616623e+01 1.443326922406703616e+01 2.604838843901099210e+01
-1.142842562266570461e+01 1.307559461969206183e+01 2.585495692087839714e+01
-1.165794950192155000e+01 1.170394644992868471e+01 2.440663536757154617e+01
-1.178252453483193030e+01 1.187745596216254640e+01 2.497606188831695206e+01
7.766261782862413643e-01 2.043515228632011471e+01 2.686627520923618562e+01
6.435029395448080280e-02 2.050072772176529412e+01 2.679132072415885091e+01
-1.040672051743364745e+00 2.056728168299552451e+01 2.683746003319312479e+01
3.230904011591842373e+00 2.009743906049564188e+01 2.729492646731378613e+01
-5.575859148443239377e+00 1.940744828680361778e+01 2.649946381693477804e+01
-7.518183322277565139e+00 1.820163720978759869e+01 2.649728371786722647e+01
-6.063246126080017895e+00 1.914618883664573801e+01 2.648433439635290298e+01
-9.451411863680576175e+00 1.622332185496843238e+01 2.625691897350976589e+01
-8.885228660319196337e+00 1.707371968965632902e+01 2.662966838235689693e+01
-8.002146699165075816e+00 1.785981898863950335e+01 2.651132597101495847e+01
-1.022604971276554231e+01 1.521213552516387502e+01 2.632007642049620699e+01
-9.871134944150719903e+00 1.578421406357538004e+01 2.645408988661952066e+01
-1.116926617764349849e+01 1.374405779058043109e+01 2.627704685775670512e+01
-1.038344064136130740e+01 1.477027100808612303e+01 2.591992891446788505e+01
-1.175908899232617522e+01 1.254224287172230312e+01 2.602311669773325775e+01
-1.190708073918125187e+01 1.205137939451403817e+01 2.554540820960122005e+01
1.715096893271860656e+00 2.059424429935366518e+01 2.723592631185653801e+01
-1.674241991422571241e+00 2.064685361934281005e+01 2.691213209322567579e+01
-2.802008161803613007e+00 2.053313631165470099e+01 2.693041522372814711e+01
2.201864688811137505e+00 2.060428461876238515e+01 2.735019558435198306e+01
3.055386216764383711e+00 2.051042144178676097e+01 2.761610486006177823e+01
-2.258072092823481647e+00 2.057281492044381821e+01 2.690061441982140877e+01
-6.878818627875644687e+00 1.902224560542947529e+01 2.700832371678270860e+01
-7.414243935726435808e+00 1.865781547151183872e+01 2.704451907275096545e+01
-9.327396642287235196e+00 1.668038714074220508e+01 2.668892343107673781e+01
-8.443971391869560250e+00 1.746639151811421087e+01 2.657053541871437830e+01
-1.161079542690982791e+01 1.303322266039296551e+01 2.650087408264804267e+01
-1.195561060420960153e+01 1.213309449883557534e+01 2.616527127710747536e+01
-1.200358241133019632e+01 1.221515711833466789e+01 2.678451428462746620e+01
1.230097385615390726e+00 2.069158670496856445e+01 2.723972859073544939e+01
2.954840547968645148e-01 2.083713705156651486e+01 2.720632463778646226e+01
-1.743182098513306744e-01 2.077681515844704307e+01 2.712035791649601180e+01
-6.460886816148770917e-01 2.081121804134413011e+01 2.714940660959193508e+01
-3.345947822582096887e+00 2.049345561728847898e+01 2.696021771071303874e+01
-4.898099185669250843e+00 2.005502297954193835e+01 2.697984819745120078e+01
-5.417960355378736104e+00 1.983474745771385983e+01 2.699675838167554076e+01
-3.893300535653016592e+00 2.035695689829963584e+01 2.696734490963979169e+01
-7.885361972263070562e+00 1.821656652655619268e+01 2.690479006564074282e+01
-5.905345298798277298e+00 1.957344204267613463e+01 2.698155421404177545e+01
-6.392733344376781091e+00 1.931210736602938383e+01 2.696635118786279151e+01
-9.694029039010937154e+00 1.625128211454384086e+01 2.679282919438270838e+01
-1.042599499631368332e+01 1.539328867749589591e+01 2.700066704558134134e+01
-1.090813487447301711e+01 1.439613270578996307e+01 2.669560688867487741e+01
-1.057678945997334630e+01 1.491314097873776845e+01 2.652440842345833971e+01
-1.197507817211167591e+01 1.151179264729408125e+01 2.509183356784192043e+01
-1.216636859679690374e+01 1.157163735056916742e+01 2.574746974721345438e+01
-1.146024592643093776e+01 1.352402999741369705e+01 2.697842219221015725e+01
7.640564432156884411e-01 2.081633671728842927e+01 2.728001689416245057e+01
-1.399124014070348254e+00 2.105243007075318928e+01 2.741725647366533991e+01
-4.404891614362238528e+00 2.025242200785871560e+01 2.704361794665646812e+01
2.452586916178177479e+00 2.097010856656340039e+01 2.780413467106471614e+01
-8.286121052404313403e+00 1.795645152590228122e+01 2.712196941206596534e+01
-9.209013962030585532e+00 1.704802490696413741e+01 2.710237526769859784e+01
-8.747665979253614665e+00 1.750180758717021590e+01 2.711172171296269795e+01
-1.006086639686830431e+01 1.582204586154290027e+01 2.689679186744105976e+01
-1.123953180797468399e+01 1.387939936607269331e+01 2.686680924389129999e+01
-1.224705785104136169e+01 1.159395596185059496e+01 2.639202202252461404e+01
-1.175474464185476897e+01 1.291067256485626125e+01 2.719068763148234424e+01
1.722612275930208714e+00 2.098007796722594520e+01 2.766021527514482159e+01
-3.111242268430380431e+00 2.086484052743636042e+01 2.742432438144565054e+01
-8.850099261791000149e-01 2.113460127900052754e+01 2.753589303442008074e+01
-1.713489055748316781e-01 2.111193902156260904e+01 2.752764985527149122e+01
-1.983082172974400148e+00 2.097852412164422020e+01 2.740593200811530039e+01
-2.567044901397049106e+00 2.090461362545032387e+01 2.739460834374122200e+01
-7.768493404871819052e+00 1.857322863535936008e+01 2.729854888532366886e+01
-8.570208018722524912e+00 1.805371229931774479e+01 2.773286888133634065e+01
-5.747458075521205245e+00 2.000038964474496694e+01 2.747837665071253355e+01
-5.227909900262198484e+00 2.022053258670011999e+01 2.746145170879771058e+01
-6.720787252093375130e+00 1.944925903393825095e+01 2.750503713536300410e+01
-7.206608839120535848e+00 1.915548931616269002e+01 2.754663531907599250e+01
-9.536972062207487610e+00 1.675560403425366118e+01 2.737344775684299236e+01
-9.942849815426008320e+00 1.620074612897245814e+01 2.733241948033814595e+01
-1.086787012949880271e+01 1.470383591443283322e+01 2.722834361562267702e+01
-1.030740966209471843e+01 1.577167060721989600e+01 2.743607643407130325e+01
-1.157156540157955504e+01 1.346982025581490383e+01 2.764447380039894497e+01
9.940999173768886310e-01 2.110070784514845244e+01 2.763798631211260570e+01
5.265692963617487621e-01 2.117347514376528750e+01 2.762126779864190951e+01
-3.658720357276083579e+00 2.072837433402721175e+01 2.743154472109057096e+01
-4.708364192770536860e+00 2.044065811409841515e+01 2.744452913265945071e+01
-4.206199362952063758e+00 2.059189916425009770e+01 2.743876469926077633e+01
-8.110823886510157621e+00 1.849142607523812387e+01 2.771233517466199459e+01
-9.090560180429568149e+00 1.741593316006776249e+01 2.751608569271408555e+01
-6.234969027635958838e+00 1.973918156739642527e+01 2.746343897743783913e+01
-7.651681353387549400e+00 1.892979166048038309e+01 2.769213063592093604e+01
-9.402710414525074611e+00 1.710500225138151009e+01 2.771037426262431680e+01
-1.130981323722295961e+01 1.401491444748227444e+01 2.745600965448720743e+01
-1.055045181464899784e+01 1.545439852262989433e+01 2.775935140793449918e+01
-9.879363932466132425e+00 1.647180740570432178e+01 2.770011078927933923e+01
-1.018868955374974838e+01 1.615056834511643302e+01 2.787202525634189598e+01
-1.204929325351696434e+01 1.229751516201433326e+01 2.740303829619429621e+01
-1.242537275683037912e+01 1.109249849857532233e+01 2.594934870206371968e+01
-1.239251817799182120e+01 1.149700189484098800e+01 2.708673796734038675e+01
-1.183324618340542145e+01 1.292509877313566058e+01 2.783289396962361550e+01
2.055321474849663321e+00 2.139399278500210499e+01 2.818426762610863534e+01
-1.707386190166882978e+00 2.138434063341586722e+01 2.791132936599622738e+01
-1.123981662749501842e+00 2.145804263938608258e+01 2.792246778525299078e+01
-6.077241540685363042e+00 2.016615326672246411e+01 2.796043641508384781e+01
-7.049099883817953049e+00 1.957987960494573088e+01 2.804397761670682243e+01
-7.534865279193805776e+00 1.928642934139471521e+01 2.808573354030668057e+01
-8.414025108952316145e+00 1.852946233763975670e+01 2.825710013079139671e+01
-9.745265981702006641e+00 1.683128554246974318e+01 2.805811628193534446e+01
-1.118233152335890601e+01 1.440568024763424226e+01 2.791131514865118746e+01
-1.134325603382930225e+01 1.403669752442334051e+01 2.807214927844630736e+01
-1.163777513017311627e+01 1.342366968083963563e+01 2.828413303098527720e+01
-1.224478080219222420e+01 1.193861704360676690e+01 2.755413530045387915e+01
-1.253850919515955020e+01 1.105496260693849386e+01 2.661883003485048960e+01
1.297140884009696515e-01 2.149259333709374076e+01 2.799835666227053466e+01
-2.876259233904119306e+00 2.123666449822936642e+01 2.788901659556096391e+01
-4.971295142359801189e-01 2.147532018733964776e+01 2.796041235829182625e+01
-2.291602634932691451e+00 2.131053213188545570e+01 2.790017642056340463e+01
-8.972212118638383416e+00 1.778355692754925599e+01 2.792943729164093014e+01
-3.424255528723257225e+00 2.109978689101439997e+01 2.789581895759731367e+01
-5.557438353993305213e+00 2.038636620176379566e+01 2.794341687485730219e+01
-6.563082955247399930e+00 1.987357625285902785e+01 2.800219960297485500e+01
-5.037660397254181355e+00 2.060654981972515287e+01 2.792639908612735411e+01
-7.974424052800266338e+00 1.890760044141371310e+01 2.817141419965543747e+01
-8.853853195158217559e+00 1.815125095466355276e+01 2.834283227250507409e+01
-9.339634096650344830e+00 1.736871578796544924e+01 2.806271905495230001e+01
-1.209513630705589193e+01 1.238021916264090194e+01 2.802147953309775019e+01
-1.193231559180927803e+01 1.281094125443229004e+01 2.849623915121938467e+01
-1.137691647183018517e+01 1.405869978386021479e+01 2.868828917820628277e+01
-1.105496346861310641e+01 1.479629935785423811e+01 2.836644511756320952e+01
-1.007018331225007124e+01 1.652885847142059461e+01 2.830723141921237485e+01
-1.240214053894501767e+01 1.131564554150750013e+01 2.781660179228516583e+01
1.406818908499516851e+00 2.145192231729578936e+01 2.811028548982044839e+01
7.576873800111986190e-01 2.150985922485921975e+01 2.803629369789024750e+01
-2.102576583485684214e+00 2.164861467650189297e+01 2.837928335325722173e+01
-3.971644496906564292e+00 2.096305191337894414e+01 2.790261274771972566e+01
-4.518562204409958483e+00 2.082642698801355152e+01 2.790940222231994028e+01
-6.415089549262177115e+00 2.022745433528659120e+01 2.848778202071856214e+01
-9.221239797377718261e+00 1.773650857965817096e+01 2.847608338825107666e+01
-9.587632652965172753e+00 1.732182886473368200e+01 2.860936297217454793e+01
-1.223479721357592354e+01 1.182695216551476847e+01 2.825466912194608682e+01
-1.268441293052368124e+01 1.061340012486500939e+01 2.615132479717355451e+01
-1.206165603418395094e+01 1.239213187055537091e+01 2.866234212590552488e+01
-1.067530208350485488e+01 1.551601639135300204e+01 2.851868992171096906e+01
-1.260039995712412875e+01 1.066586134156329813e+01 2.743686914554909961e+01
4.402603687284804002e-01 2.176390139425045334e+01 2.839430461297625286e+01
-1.518717407625719273e+00 2.172234052111359404e+01 2.839037662260261641e+01
-2.337366686250292869e-01 2.184694743143736417e+01 2.849936545305948599e+01
-1.160711109206727798e+01 1.367262024023546019e+01 2.944612673595115382e+01
-1.176976281281914183e+01 1.324145960959532609e+01 2.897081279564839562e+01
-5.914433531112240239e+00 2.052174330975369188e+01 2.842810036940634077e+01
-5.394831057046356904e+00 2.074408478451809046e+01 2.841082945882958910e+01
-6.901023828829343287e+00 1.993404722840604038e+01 2.852977001424788028e+01
-8.261310202763015198e+00 1.894230964146039753e+01 2.875863507195061430e+01
-7.386958705221554844e+00 1.964072939987781652e+01 2.857175368999861220e+01
-7.821800511527210453e+00 1.932018250112737334e+01 2.867280411495610437e+01
-8.700829873035342388e+00 1.856454600544417843e+01 2.884446716252824672e+01
-9.057552788059096471e+00 1.818854479249252165e+01 2.899357429279656984e+01
-9.444470371812350606e+00 1.771733692771366719e+01 2.906180867188514227e+01
-1.237458958096481076e+01 1.127340595261743061e+01 2.848810515588500181e+01
-1.255842174653226628e+01 1.069260311724189272e+01 2.807941779080103117e+01
-1.264239652005261050e+01 1.063945331929336646e+01 2.679417973066011882e+01
-1.116907737324713423e+01 1.463397610192304832e+01 2.906323352108378089e+01
-3.248238997383146476e+00 2.143731352061270812e+01 2.835843332928624605e+01
-9.189192909489712902e-01 2.181436613942132752e+01 2.843822251656571964e+01
-2.686440939479898038e+00 2.157488449758729132e+01 2.836819126031657134e+01
-1.141074756175495253e+01 1.408090661221753592e+01 2.930439848144726511e+01
-1.092751108741674138e+01 1.518734437691988148e+01 2.882206818020816641e+01
-4.343044570384426706e+00 2.116353630086368653e+01 2.837155324988982485e+01
-4.875228631044225658e+00 2.096403489733324221e+01 2.839355915901979799e+01
-9.951632771470210415e+00 1.690735265190562941e+01 2.874263341858572574e+01
-6.252420170997156745e+00 2.058208865208410288e+01 2.895551042091103966e+01
-1.037581503286938833e+01 1.624239478136698978e+01 2.900995945827644462e+01
-1.221872377199570892e+01 1.176966399712652844e+01 2.892488686600047743e+01
-1.237587765255278960e+01 1.114716135932228092e+01 2.918768015080712885e+01
-1.251450978452113105e+01 1.071965909801136085e+01 2.872186633107001441e+01
-1.266901787458646034e+01 1.026421228738073843e+01 2.826897030705419311e+01
-1.202845699020945602e+01 1.240422131256235794e+01 2.930321039263744964e+01
-1.283176231203493245e+01 1.004155974340481627e+01 2.640540696267944298e+01
-1.280806998941843666e+01 9.996879033273240012e+00 2.707950547025507504e+01
-1.282138181639193952e+01 9.809437770155319924e+00 2.781682136736611355e+01
-3.795641115572389701e+00 2.130042942214888058e+01 2.836499340081751441e+01
-1.180134492792153544e+01 1.304419076188239224e+01 2.969507189227597266e+01
-1.144474216197491323e+01 1.410332375839787744e+01 2.992096220373485238e+01
-1.080023735967172982e+01 1.557798079368416033e+01 2.927721247071918853e+01
-1.112248132759311403e+01 1.484020774731179415e+01 2.959916048621300178e+01
-9.828796411227475716e+00 1.724669745811817734e+01 2.913073525453989632e+01
-6.753136802199841249e+00 2.028810575989501075e+01 2.901546249071467543e+01
-5.751706032807510027e+00 2.087615551914827350e+01 2.889556185251077025e+01
-5.232207468176771847e+00 2.109852994715505048e+01 2.887816386393672374e+01
-8.548072387846055165e+00 1.897720203800636796e+01 2.934525244269101307e+01
-9.260282864482656251e+00 1.822614202397685901e+01 2.964375646034901735e+01
-1.256641540987405570e+01 1.010137375215271760e+01 2.895208241974739138e+01
-1.241196940236964608e+01 1.069335086907168630e+01 2.936929706535599038e+01
-1.223775521049103254e+01 1.157462046128153510e+01 2.965357678742373793e+01
-1.913239685846049865e+00 2.198648559566789373e+01 2.885805681356251284e+01
-1.313563398579139951e+00 2.207856122027434864e+01 2.890599693262839764e+01
-2.496890373355800996e+00 2.191262832446094322e+01 2.884673162805930247e+01
-1.199547202156952785e+01 1.241648170668630158e+01 2.994410015704197647e+01
-1.179015430275215515e+01 1.298626170279557535e+01 3.036386342224768242e+01
-1.210008076079434147e+01 1.200176040194444660e+01 3.011924437330027970e+01
-1.161742131121505039e+01 1.354473238294152537e+01 3.014238884451961908e+01
-1.216781547366170280e+01 1.130740684629035009e+01 3.031931197310330717e+01
-1.229053163452345743e+01 1.109394372937480888e+01 2.975644235428823237e+01
-1.230973344209320608e+01 1.066725273763524839e+01 3.001731148607349908e+01
-1.201051264314336819e+01 1.182421654413023049e+01 3.082728171630182956e+01
-1.205837564641771742e+01 1.121980252061648464e+01 3.106958939352440296e+01
-1.197564321142396793e+01 1.102927127310038991e+01 3.177719184654008089e+01
-1.178213907267129557e+01 1.053538818157190704e+01 3.191790759647079767e+01
-1.168633276222217887e+01 1.092481213895414704e+01 3.230244517153766992e+01
-1.184535663939835182e+01 1.144277805909605661e+01 3.224283301336216567e+01
-1.210624369836162373e+01 1.061577723599137890e+01 3.131220845070422243e+01
-1.220784320186341354e+01 1.064139572392295641e+01 3.066497526631515669e+01
-1.206246445878823792e+01 9.936850104194791200e+00 3.152875137549047935e+01
-1.169331167860479859e+01 9.783761627783460924e+00 3.222774219960240316e+01
-1.130939516631866404e+01 1.448084594120212998e+01 3.034460463743932834e+01
-1.245604133280850867e+01 1.001311156524471180e+01 2.970188858287504985e+01
-1.067293246097695558e+01 1.593645530791032705e+01 2.968160558608989774e+01
-1.006465983415320942e+01 1.694174315365853190e+01 2.946035757198407623e+01
-4.699817032338335920e+00 2.130046807555173771e+01 2.885608290404277554e+01
-7.239066177317363682e+00 1.999506793796890491e+01 2.905775566645674601e+01
-8.108510652637571425e+00 1.935492433890127018e+01 2.925943328391031173e+01
-7.673785998718615886e+00 1.967447188706362127e+01 2.915859576317904001e+01
-8.900932028353555125e+00 1.856939063999437423e+01 2.941211239333157934e+01
-9.706085905653438317e+00 1.758571028123640900e+01 2.951844994744301331e+01
-3.619898123560445047e+00 2.163777942968033585e+01 2.882747084381792746e+01
-3.058393977249948659e+00 2.177520812885195056e+01 2.883710109742800398e+01
-1.196265409116399425e+01 1.242890790487753350e+01 3.058501824037171346e+01
-1.165522793076370256e+01 1.338665463031085601e+01 3.080515998524901633e+01
-1.186800524367281895e+01 1.238893287355335460e+01 3.123222401864270026e+01
-1.190874691658826201e+01 1.172173330983296324e+01 3.157750286307018683e+01
-1.233127741750941375e+01 1.023204620746123794e+01 3.027047924676974588e+01
-1.224649371248108665e+01 1.017854116977036050e+01 3.083795389028641054e+01
-1.238724702315784221e+01 9.741048599938604724e+00 3.036382743976968968e+01
-1.145817975748287232e+01 1.045513129404060670e+01 3.252302644668019127e+01
-1.145692489337304387e+01 1.110177330320682643e+01 3.284723128878816567e+01
-1.179367561127694231e+01 1.192109088544842876e+01 3.214057506169346112e+01
-1.171526413258177968e+01 1.185642025094075436e+01 3.270919272635665465e+01
-1.177360618043410412e+01 1.234914668227798629e+01 3.187953190332696352e+01
-1.221765842651085876e+01 9.402334000991302787e+00 3.100845125064512331e+01
-1.201870034747561711e+01 9.258387461672478835e+00 3.174204161133872404e+01
-1.083453021060480914e+01 1.558890163962886177e+01 3.005538140682850923e+01
-4.167425959610385533e+00 2.150083887107706815e+01 2.883400363068199823e+01
-9.583425168379658743e+00 1.792459959097990918e+01 2.990601685936375631e+01
-2.868558863047850682e+00 2.211307214415273847e+01 2.931576110555045744e+01
-1.707744082428012122e+00 2.234248048993629965e+01 2.937331216127337186e+01
-1.182792024809603504e+01 1.282888530424150098e+01 3.102642207430139365e+01
-1.143745995662147763e+01 1.407855169937302620e+01 3.073166782958521281e+01
-1.169329477835259290e+01 1.322895834873263432e+01 3.146796784667360569e+01
-1.132677135411571356e+01 1.161122058005798863e+01 3.335996426815622584e+01
-1.167940178332098178e+01 1.230954085761678840e+01 3.252712123953135404e+01
-1.137983920109373415e+01 9.970428423355706116e+00 3.276189901330935328e+01
-1.113357390048350837e+01 1.037481697964037863e+01 3.312998156622046508e+01
-1.168356497859167931e+01 9.008647497944824778e+00 3.239920736841494886e+01
-1.139192656378496160e+01 9.437610963774821116e+00 3.284565198785404050e+01
-1.110070387482014986e+01 9.866322960209332749e+00 3.329098675120167172e+01
-1.156048790373870006e+01 1.366385663758378577e+01 3.118957726315720080e+01
-1.034884548297088891e+01 1.019701965261209331e+01 3.427497028559654524e+01
-1.063317623272464729e+01 1.066053697395167177e+01 3.417344081655698318e+01
-1.080981128655090373e+01 1.029482442178472468e+01 3.373560820193360854e+01
-1.017202630282373121e+01 1.056278094169934612e+01 3.471335872578280402e+01
-9.887453199184934149e+00 1.009912747970937197e+01 3.481488847066110282e+01
-1.054553345194295311e+01 1.629522153857098488e+01 3.008632147609723972e+01
-7.525980849603956635e+00 2.002869517759127405e+01 2.964430278881057745e+01
-8.929934987521143341e+00 1.882697429424031554e+01 3.007019378360694262e+01
-8.395275090428707898e+00 1.939003363652719614e+01 2.984618718678912330e+01
-1.017788091368387704e+01 1.697643470597442672e+01 3.017753880370877084e+01
-2.307352999754853418e+00 2.225034739433057496e+01 2.932527477661521687e+01
-1.117424311118866775e+01 1.485795265525534603e+01 3.076778736809621861e+01
-1.143057597917939816e+01 1.405417683351297242e+01 3.154222171184559897e+01
-1.161899398745786627e+01 1.296920803971055491e+01 3.221858083788892912e+01
-1.106814424626153581e+01 1.095245212157644765e+01 3.354841633860183236e+01
-1.114339223196718365e+01 8.951799522845641732e+00 3.295765039444005851e+01
-1.097687835204849272e+01 9.355574121448473335e+00 3.326266526408724644e+01
-1.155859378738928633e+01 1.362958384611529539e+01 3.191014548440093890e+01
-9.766419042382446847e+00 1.055513574542690058e+01 3.523324948859398376e+01
-9.426526576039789163e+00 1.000133957214166358e+01 3.535430681068812220e+01
-1.047849458922294197e+01 9.647276727839287247e+00 3.388618880822885870e+01
-1.089378585705964042e+01 1.142611774964806415e+01 3.402331462951809726e+01
-1.045661722956244155e+01 1.102655423667270718e+01 3.461158902862577236e+01
-1.060905253510054713e+01 1.153984065575902740e+01 3.454876469394849181e+01
-1.028041855851121156e+01 1.139217028478423366e+01 3.504922337456387993e+01
-1.006974735644408980e+01 1.095485616798712769e+01 3.507065282182085753e+01
-1.086918525425381432e+01 1.560023436953694187e+01 3.083424157342985694e+01
-1.064365470556442617e+01 1.612668301518776914e+01 3.066229542510157557e+01
-7.960561842948154165e+00 1.970929038144425149e+01 2.974522931732143149e+01
-9.460560732200328005e+00 1.826406266038038595e+01 3.029423112688478525e+01
-9.875597956167467828e+00 1.763746918600087454e+01 3.059424180476390731e+01
-1.119427574672280024e+01 1.475764154493104385e+01 3.149333621546789530e+01
-1.153156803609922143e+01 1.285606851038176757e+01 3.290068146625134204e+01
-1.158534189097703759e+01 1.227010406987189661e+01 3.317508910546875001e+01
-1.147779329600579779e+01 1.344269118059309243e+01 3.262654896266249693e+01
-1.121469053147921358e+01 1.214187259985832057e+01 3.375144876764004920e+01
-1.125047708384710177e+01 1.455743513590169158e+01 3.210599137467342246e+01
-1.142399167653176661e+01 1.403017721822142505e+01 3.235230337908676290e+01
-9.345126448538033870e+00 1.052209793985300657e+01 3.575888453738506456e+01
-9.724485448762823836e+00 1.113992200924088216e+01 3.562339740657217391e+01
-1.047442918309201509e+01 1.188609327694577722e+01 3.490855804697824283e+01
-1.084455283722894237e+01 1.201392623724619391e+01 3.432968583903569737e+01
-1.103920540766108083e+01 1.523484742394450819e+01 3.119073382389670002e+01
-1.041835767712316496e+01 1.665338290313670555e+01 3.049035299117333508e+01
-1.137170832630012285e+01 1.327971397746938642e+01 3.329800829673548179e+01
-1.143214477874563251e+01 1.262051578270269836e+01 3.360770175614279509e+01
-1.110089543266785306e+01 1.247410215249303000e+01 3.410851531672550863e+01
-8.965160292378227425e+00 9.903468412809967703e+00 3.589427720038028724e+01
-8.367717084781260084e+00 9.779321770404081349e+00 3.633856908278573883e+01
-8.655053353078617562e+00 1.030063314034504351e+01 3.639249175042638740e+01
-8.176855420355792603e+00 1.015385198659421562e+01 3.672074774345819037e+01
-9.025769510391365102e+00 1.097583774718882488e+01 3.629103655800631856e+01
-1.029124069662948315e+01 1.701139712823943739e+01 3.089420450680577446e+01
-1.107727784447532748e+01 1.508443170700974711e+01 3.185999644454143009e+01
-1.090412735867204930e+01 1.561194573434427824e+01 3.161390988160470528e+01
-7.797459742072273770e+00 2.005934704568053562e+01 3.018376531776506511e+01
-8.232037634065404674e+00 1.974023655605877536e+01 3.028462659611927066e+01
-8.582308013873509722e+00 1.940664115177813187e+01 3.043996653291827670e+01
-9.292461107464852432e+00 1.865644562895767322e+01 3.073831506167465832e+01
-9.560697115793605150e+00 1.826574538423615834e+01 3.095535663715639174e+01
-1.131126257795629719e+01 1.393972472985613642e+01 3.298911165290851955e+01
-1.082918563002488099e+01 1.257968193958878089e+01 3.462794943456421493e+01
-1.127023054272788194e+01 1.437103168522343921e+01 3.275363079930400545e+01
-8.345462399890291039e+00 1.069749465071660488e+01 3.689019098263345597e+01
-7.770825123432970827e+00 9.655276363941828421e+00 3.678242659622742394e+01
-1.010410773276453611e+01 1.175829603829738268e+01 3.548743721121578432e+01
-9.586946171663843330e+00 1.159241137065092353e+01 3.596276086367047498e+01
-7.720937023603022809e+00 1.016403975920465719e+01 3.712078151729426168e+01
-7.174037898644472833e+00 9.531243248195167439e+00 3.722616076513747174e+01
-1.059719068380454310e+01 1.631194420299574688e+01 3.125375449922750803e+01
-1.030234603794036197e+01 1.698302523284253951e+01 3.162786202097642274e+01
-8.939867627420499119e+00 1.906166729890082223e+01 3.066559810296259414e+01
-9.831995920627305097e+00 1.787826863882948913e+01 3.123446612553283686e+01
-6.942132886639215350e+00 9.828795228952589724e+00 3.759944983471336144e+01
-7.306834468408071714e+00 1.025103209024464590e+01 3.752927207698208178e+01
-1.119864421870202875e+01 1.384942080167801493e+01 3.362642233775999046e+01
-1.127914272767034376e+01 1.297067126158784767e+01 3.403927335645676777e+01
-1.107117610728127133e+01 1.495465138190644439e+01 3.257427359271699885e+01
-9.069711530522978293e+00 1.142651064431340480e+01 3.643813220209353432e+01
-9.794484552135948263e+00 1.212020243854865420e+01 3.600023247678276306e+01
-8.552911137468386826e+00 1.126075917093001877e+01 3.691310147124593755e+01
-1.039426371877898347e+01 1.239545264908331745e+01 3.528989005272832458e+01
-7.671190407111131648e+00 1.067287529305135507e+01 3.745895092203434018e+01
-1.011438775340542229e+01 1.743125100883376888e+01 3.135485565967427135e+01
-9.660900453846352320e+00 1.826771261864204021e+01 3.161556974869356296e+01
-9.397337559212136426e+00 1.863012974696437851e+01 3.132076324457896987e+01
-9.124597837574768278e+00 1.904839939507969504e+01 3.118190490389911318e+01
-1.111656295196396194e+01 1.471172962085855396e+01 3.315477147368385147e+01
-1.075924624838685872e+01 1.594119937951255395e+01 3.198483187638233005e+01
-9.371456324487821732e+00 1.191252640281363284e+01 3.635350409414846951e+01
-8.932456596116104208e+00 1.184351968049901771e+01 3.679258344166050421e+01
-1.068430736907022904e+01 1.303274548424300860e+01 3.509736141773937845e+01
-8.035681530502582604e+00 1.109488368762112387e+01 3.738847184426278858e+01
-1.087222190205206829e+01 1.553849229169564161e+01 3.239523017014137451e+01
-9.937672142054275071e+00 1.785081707422440189e+01 3.181519229731432219e+01
-9.358641549861681952e+00 1.885476655798298040e+01 3.195046153334930850e+01
-7.517575236933242699e+00 1.095945288496919012e+01 3.767814489569978775e+01
-1.112650080336686109e+01 1.332015455175223728e+01 3.447011206008581041e+01
-1.108619050356210955e+01 1.375932169979766684e+01 3.426379351420080610e+01
-1.102452115367553986e+01 1.440558269780503409e+01 3.390950840524526910e+01
-8.415624896626262341e+00 1.167793035284705105e+01 3.726772691977377150e+01
-7.597778927408413097e+00 1.136777791650429670e+01 3.779382221747312087e+01
-1.061464641831448041e+01 1.626981543078622749e+01 3.235503261179482593e+01
-1.013697058507030846e+01 1.737562278432124785e+01 3.200555219238140126e+01
-6.999323953658469044e+00 1.082398430090386121e+01 3.796778544473539796e+01
-1.084067419775589514e+01 1.546549324486716870e+01 3.317608331868801486e+01
-9.485065758871147779e+00 1.248194826879631947e+01 3.651273342006817302e+01
-1.023464905840738126e+01 1.282608264124163888e+01 3.562616827840977152e+01
-1.097397424130391208e+01 1.366949782400520341e+01 3.490082089675814814e+01
-9.846960164940121274e+00 1.272465400504966127e+01 3.610559150669054418e+01
-7.142498886233932254e+00 1.121293702847195917e+01 3.803346991528553644e+01
-1.031373039784005563e+01 1.695500447061155924e+01 3.236168357652486804e+01
-9.761160435677744829e+00 1.826993538696728692e+01 3.227503746973806642e+01
-1.004267705734078575e+01 1.759859596429469875e+01 3.268518592412446822e+01
-1.091900085188962066e+01 1.424356107129905702e+01 3.458567604528279560e+01
-1.096298237213153470e+01 1.505227675764946227e+01 3.355573806115236124e+01
-1.052470028633298504e+01 1.346313242537988764e+01 3.543274219831832283e+01
-6.655748184133972067e+00 1.120564416090473792e+01 3.835516842598764953e+01
-7.159864455379018722e+00 1.164070414593566127e+01 3.819917799394509927e+01
-7.772815966682835587e+00 1.187304734088992042e+01 3.780488503677357670e+01
-8.239534042985951601e+00 1.209346852828867647e+01 3.751688047675312276e+01
-8.795216543268992382e+00 1.226057640370807533e+01 3.714702458855973077e+01
-1.086413816423212708e+01 1.481803354659437488e+01 3.427115576573078215e+01
-1.065513674042847292e+01 1.603196055484946569e+01 3.295060207147123066e+01
-1.070413229115127862e+01 1.392770162634988118e+01 3.528022033965306292e+01
-9.625201515569363764e+00 1.305037323853540521e+01 3.649332029589800896e+01
-7.947855045502548066e+00 1.237839796425263472e+01 3.781595728317018512e+01
-8.561558563726281434e+00 1.261122978001531436e+01 3.742109217044164637e+01
-7.334910473487425087e+00 1.214589115199931513e+01 3.821021169708034648e+01
-1.007506603887543228e+01 1.325674035987164068e+01 3.596409152311947821e+01
-1.047001792749812843e+01 1.659849798983783131e+01 3.272531540993103505e+01
-1.080939521138130743e+01 1.539288022341452589e+01 3.395676123601390373e+01
-1.032533866033059411e+01 1.692729736101927429e+01 3.309572582364987170e+01
-1.012769679912875631e+01 1.727964126179074000e+01 3.349610868881097048e+01
-1.020645400649319434e+01 1.677942202258532589e+01 3.386582674531965154e+01
-1.048632582176749928e+01 1.641566785673782292e+01 3.338259584247175127e+01
-1.064204253694058977e+01 1.457375075215902527e+01 3.492647450755395511e+01
-9.175330992760862614e+00 1.284412632085012440e+01 3.702568409981567044e+01
-1.030565080817779844e+01 1.371625872874973417e+01 3.574729978145574449e+01
-1.064757355480634260e+01 1.590456082096706680e+01 3.366938801221768784e+01
-1.058031772660923941e+01 1.522006830265238086e+01 3.457274799620639527e+01
-9.414900828427690271e+00 1.346369018744145052e+01 3.682618165956224487e+01
-9.933659868971146167e+00 1.373270328980653332e+01 3.621701265433992489e+01
-8.691981527725365808e+00 1.307573921204177303e+01 3.744534121838280072e+01
-6.722181389159108456e+00 1.191350745828874302e+01 3.860430388214803088e+01
-8.146337384503892665e+00 1.282752520998337786e+01 3.778574536896276470e+01
-7.669984145572501077e+00 1.268742608558934570e+01 3.810262418605501011e+01
-1.003107037648857158e+01 1.711736945158171608e+01 3.418332864599547349e+01
-1.040261998105740382e+01 1.622268452139755368e+01 3.409268454011758820e+01
-1.008785769618102712e+01 1.663196500543838496e+01 3.463570430083803586e+01
-1.059905468532234529e+01 1.566633276100473893e+01 3.431956887255266508e+01
-1.043360851523721422e+01 1.418656136669266488e+01 3.566082260836981277e+01
-7.057008515558479189e+00 1.245472510509529940e+01 3.849646999040314199e+01
-1.035134271060254818e+01 1.504748275258068801e+01 3.518879429897199174e+01
-1.038901641861902725e+01 1.593939851463132840e+01 3.468186058033122521e+01
-1.017922854987450521e+01 1.621214392826853157e+01 3.504372687217264826e+01
-9.969473494938318581e+00 1.648485141997883119e+01 3.540554143978193480e+01
-1.016358264358603414e+01 1.444494769717342386e+01 3.604083008461131499e+01
-8.209440443013505728e+00 1.330696688331407884e+01 3.786324306572699783e+01
-7.392114526879478120e+00 1.299647533419204493e+01 3.838956108699255054e+01
-8.685350012067020842e+00 1.361119770002668794e+01 3.745504077719461833e+01
-9.112640216562649442e+00 1.379193233302918919e+01 3.708803875212494461e+01
-9.654425864621748232e+00 1.408342270744850921e+01 3.662308923779202985e+01
-9.850446698261675849e+00 1.723415599578431667e+01 3.485110569655471835e+01
-9.943985040307078194e+00 1.588999675328117611e+01 3.574404763144610087e+01
-1.015068232264772341e+01 1.554310656903526500e+01 3.542433561273267628e+01
-1.012234477867457372e+01 1.487502233240781280e+01 3.580518512506547069e+01
-9.893835147211342829e+00 1.470307027547070611e+01 3.642050175893034236e+01
-7.727108805543768888e+00 1.353809870625724798e+01 3.828040639266292544e+01
-8.810378362534075691e+00 1.412019038700655571e+01 3.735036098639797331e+01
-7.145656183084933666e+00 1.329147949903017256e+01 3.849991946060212200e+01
-8.268729434819409363e+00 1.382905348996087547e+01 3.781532338901987345e+01
-7.888547595409534985e+00 1.422843976428699797e+01 3.807001783460936650e+01
-9.918778701022381128e+00 1.529578382181370877e+01 3.608250374813481187e+01
-9.352067502280144495e+00 1.441152203933498477e+01 3.688543704123345179e+01
-9.529529508539694049e+00 1.626590063159712329e+01 3.596702039925256145e+01
-8.509727092113630320e+00 1.460117942791339551e+01 3.753216071891738892e+01
-9.473350205259732704e+00 1.493012330366901885e+01 3.672757398469541101e+01
-8.998265946198417353e+00 1.464187166649417904e+01 3.713916613649855947e+01
-9.501294171395755939e+00 1.559768657703246575e+01 3.634727702342093636e+01
-9.052905867968050302e+00 1.515717204480134228e+01 3.703472260882448808e+01
-9.090051154961029667e+00 1.604737991604123692e+01 3.652802680805221058e+01
-2.899487091542014117e+00 2.331002220623354382e-01 1.846303796009750187e+01
-2.127155340484224944e+00 1.923164291971187490e-01 1.845889134863123360e+01
-2.550899413258485460e+00 -1.482767290995382070e-01 1.843597241955375310e+01
-2.239243384867983799e+00 7.729321110670983597e-01 1.849937346924189185e+01
-2.015115588640707944e+00 -3.883093284832337400e-01 1.841841115968982123e+01
-1.755775825831926040e+00 5.926538708032360603e-01 1.852784265535854757e+01
-3.007500785171006719e+00 8.090874011200751559e-01 1.850320350539110947e+01
-1.371796372901533445e+00 3.982188704053441636e-02 1.851469347859266179e+01
-2.351380307415151361e+00 1.353538585552847451e+00 1.853985748970447389e+01
-1.185894391692057903e+00 7.497461431458992687e-01 1.859372557423430194e+01
-1.777453028231542165e+00 1.249031088286517877e+00 1.858320561236667956e+01
-1.284201427711153531e+00 -6.745697439721010102e-01 1.846031613221303402e+01
-6.543232335167094016e-01 3.594148585355793624e-01 1.860832624584666206e+01
-6.653652886167040759e-01 -3.801685785795784756e-01 1.854273069590182743e+01
-1.001189740717296273e+00 1.361684941590201703e+00 1.866408828540854614e+01
-2.050779877124415229e+00 2.130377476558356964e+00 1.863522051972940830e+01
-7.123694136808551569e-01 -1.016772907375245616e+00 1.853788633573982736e+01
-1.525910754727115570e+00 1.746032423387580801e+00 1.864963885867381777e+01
-4.766100026516313370e-01 9.773348598455889880e-01 1.867857214527775866e+01
-4.658138966693958771e-02 -8.576967429916103336e-02 1.862517808996415525e+01
-9.360044584665178080e-02 -7.223663052385016492e-01 1.862034031407283052e+01
-4.115535997269163526e-01 1.563759456207167498e+00 1.875984042980219613e+01
-8.481084421143348928e-01 2.069593699799623376e+00 1.877111633400555135e+01
4.783456587994534132e-02 5.929814394186467830e-01 1.869309420395595467e+01
-1.532600164964372791e+00 2.448372452827895618e+00 1.873692242462542978e+01
-9.725914435052669671e-02 -1.439882835773166558e+00 1.862152034130649980e+01
4.226693563907170381e-02 1.194722567806967284e+00 1.876781866450914293e+01
-2.057846742791201500e+00 2.832524041976394624e+00 1.872245987019179125e+01
6.018134808641121269e-01 -1.005681912151736190e+00 1.871450167138259246e+01
5.869852591086819338e-01 -3.985182737000588227e-01 1.871107905457163767e+01
1.024553541708812937e-01 1.757362658640950981e+00 1.884551169720893782e+01
-9.055602873206057835e-01 2.780895821529915324e+00 1.885344468666649576e+01
5.721499531772892277e-01 2.086243600635788453e-01 1.870765887938517835e+01
5.666347553271032789e-01 8.103430179711186288e-01 1.878235644143997618e+01
-1.539731660858312701e+00 3.150451220739498126e+00 1.882413151605168977e+01
-2.392306540109859769e-01 2.029799594495878434e+00 1.883883573515938892e+01
5.610976507686060710e-01 1.412109006634479025e+00 1.885707074731488575e+01
-1.561891507926625455e-01 2.518985516587148421e+00 1.891006893632507158e+01
-2.210710460496493557e+00 3.521518520410960917e+00 1.883547892278233249e+01
1.378568321992431622e+00 -6.459483091328351856e-01 1.891998014221394087e+01
1.525170118831553345e-01 2.206322986177803536e+00 1.890775405830989442e+01
5.555368004778272750e-01 2.014134033278192071e+00 1.893182722782540495e+01
9.748259362407813988e-01 -2.186591629936606163e-01 1.881379040717547468e+01
1.121730353677591774e+00 2.662571604948814619e-01 1.889347363239177469e+01
1.203940289358990778e+00 8.476791814781807766e-01 1.899428256868469589e+01
-1.600512049470354636e+00 3.909451510549410536e+00 1.895766478468204497e+01
1.172161283648049501e+00 1.857695291420136119e+00 1.911257911631933482e+01
-2.354624627625861999e-01 3.042673540225246942e+00 1.896625072981807136e+01
-1.021147568241487669e+00 3.468689610481320518e+00 1.892590547856950067e+01
1.393552324168500167e+00 1.324806667362742774e+00 1.911660133671485795e+01
1.453621293013138915e+00 -1.283205288567076108e-01 1.897797372783215053e+01
1.199941376152946937e+00 -1.343282177654896214e+00 1.887209650720674503e+01
5.499498477217092951e-01 2.616655556463039822e+00 1.900665457936566938e+01
1.782750103149975063e+00 -1.073708411887716707e+00 1.902635092378784165e+01
1.076989550464583001e+00 2.594830224748339464e+00 1.917533415029342692e+01
1.672710698450840416e+00 3.239178954312382785e-01 1.907942905933293787e+01
1.823634471399071755e+00 9.423766235006035830e-01 1.920722313958426497e+01
1.881656012441991210e+00 1.592717217836170596e+00 1.930897341105881537e+01
1.985378538070644794e+00 -3.059857677969105572e-01 1.914254959862083894e+01
1.567961082164141873e+00 2.207651624672938961e+00 1.928574881667711693e+01
5.443452342558321444e-01 3.218758572455361122e+00 1.908143850797398144e+01
-5.029233022516749196e-01 3.786784632526491556e+00 1.902761874088287541e+01
-9.723503111887309425e-01 4.005054580096397920e+00 1.902797454915480202e+01
1.122535703437513438e-01 3.512426890919672751e+00 1.906664835943102076e+01
2.487442520326459849e+00 -8.592296638694667532e-01 1.927352736469382677e+01
1.725692419568508384e+00 2.740347040241748022e+00 1.940480901408393777e+01
-1.159831656682976275e+00 4.506787435008085652e+00 1.910384115402024818e+01
2.374177822135804750e+00 1.000037679292977932e+00 1.939310909858238929e+01
2.223639415260318941e+00 3.815795567149327661e-01 1.926545813614697167e+01
2.125484242037456895e+00 2.179510291852807757e+00 1.946282573889681800e+01
5.387194703942057572e-01 3.820961038891514505e+00 1.915622754163230113e+01
1.328077047827385337e+00 3.301205365349070942e+00 1.934683268266556055e+01
1.534547684211427961e-02 4.104985361552751399e+00 1.912935014021692126e+01
-5.775600497947743772e-01 4.353703227681444687e+00 1.912485990803888214e+01
2.525100486039665082e+00 1.618674443450140776e+00 1.952089565144266459e+01
2.668810501594683693e+00 -1.708087670770039312e-01 1.937769280616860712e+01
9.306635398750214838e-01 3.862041996398847932e+00 1.928889390118349922e+01
-5.948215540205985946e-02 4.671749260570519979e+00 1.922653190935938738e+01
3.191565856354357855e+00 -6.447657432224265239e-01 1.952076642965891651e+01
