4.817469631502639515e+00 -1.065935751102603568e+01 3.376864248317395578e+01
7.729387799266640435e+00 -1.062143594974858907e+01 3.037680199845673812e+01
6.165782107089359698e+00 -1.113618731527589922e+01 3.235885361345363265e+01
3.979849403523771034e+00 -9.954768372484410932e+00 3.516302038419228637e+01
1.096080327691365319e+01 -3.670274163045140980e+00 2.599799270059686052e+01
1.093207620550258952e+01 -3.165579040227705754e+00 2.601102582825535237e+01
1.090629809761794711e+01 -4.420999556725694113e+00 2.585537809996588621e+01
8.171449459039699548e+00 -1.017109203340414858e+01 2.955476320673634660e+01
1.092865832237635182e+01 -6.626452112346258083e+00 2.667501643500434483e+01
1.136486469708616376e+01 -5.347736190530567590e+00 2.661156599916900589e+01
1.121976337414691116e+01 -5.744194607993326152e+00 2.651597898902382866e+01
5.953702332460574453e+00 -1.101499355941295555e+01 3.307679779574591095e+01
5.709868316048670067e+00 -1.090010346670091224e+01 3.362732144286357538e+01
5.318416634687398670e+00 -1.070397166528181998e+01 3.415828905318041109e+01
4.709967284737217597e+00 -1.039677240593950991e+01 3.459805046569804432e+01
7.252273270752316314e+00 -1.100079827510775310e+01 3.138895372721820820e+01
7.801617639052898845e+00 -1.039918306453242636e+01 2.989115828357927995e+01
7.575229269067774496e+00 -1.081139065182926728e+01 3.091879660522937456e+01
6.520057759595653479e+00 -1.111179286905735175e+01 3.208741702936703177e+01
9.826671194447497371e+00 -8.579432976605676942e+00 2.778672240746015021e+01
9.421902415601772773e+00 -9.181442319130693974e+00 2.839829317747833670e+01
9.268266345197211820e+00 -9.342141572480240796e+00 2.857080155755434347e+01
1.086819759869163526e+01 -7.143208600256448548e+00 2.702383528916893241e+01
9.944285655593123607e+00 -8.372279044289458128e+00 2.759534007088869956e+01
1.120830043640762597e+01 -4.062693195899457876e+00 2.630238498409930514e+01
5.925020927939039339e+00 -1.098286887673635448e+01 3.338393528783809217e+01
7.100634334463683750e+00 -1.109876180427633408e+01 3.166471538451541790e+01
4.646633880286412221e+00 -1.030517397012096303e+01 3.487721395669824176e+01
4.389702147527091647e+00 -1.014015037777184247e+01 3.509591887316616976e+01
8.199399352820279319e+00 -1.069737010001727384e+01 3.081164607546546108e+01
1.122543041734044245e+01 -3.585313144150985565e+00 2.637662708406870138e+01
1.014830076258378710e+01 -8.829807299149566191e+00 2.834514217027318139e+01
8.823947487435992443e+00 -9.808342084725840238e+00 2.919195883970137118e+01
8.264832301826032790e+00 -1.038892366664921774e+01 3.012011351234865231e+01
8.786463511070163435e+00 -1.009684690114963779e+01 2.971549735174993501e+01
1.069300543201653042e+01 -7.822926178096952121e+00 2.752141138515287366e+01
1.117385091067455072e+01 -6.383350291756427097e+00 2.676589899388718052e+01
1.154342350207222800e+01 -4.907997520825480464e+00 2.671896732356493942e+01
6.646061561398695972e+00 -1.115620844914953302e+01 3.270265607866048185e+01
6.873194423748099524e+00 -1.108744828003625393e+01 3.181602299109083987e+01
5.246279450308315440e+00 -1.052879009700380664e+01 3.471085514598184574e+01
1.151875926911172776e+01 -4.005121633602528597e+00 2.674217564270320224e+01
9.638293325158787894e+00 -9.452368498027718502e+00 2.899602824169325999e+01
9.218027928475278188e+00 -9.598114772312115406e+00 2.902536842049764942e+01
9.946089211165247690e+00 -9.130694433812927002e+00 2.865087042757746971e+01
1.082199837594289882e+01 -7.571126026102532158e+00 2.733571705035205568e+01
1.132709438700472759e+01 -6.802765086100378333e+00 2.711259961561261278e+01
1.157217709625642144e+01 -5.944227444116069847e+00 2.695970680862869528e+01
1.169059912241405996e+01 -4.578721632784978013e+00 2.694728999004311376e+01
7.117745553485292476e+00 -1.112366968527653732e+01 3.234073043837002359e+01
5.818916796378827527e+00 -1.074855084242259018e+01 3.454746376511110384e+01
6.505099321267075574e+00 -1.107592854987036191e+01 3.318123553664414516e+01
6.447660355378299180e+00 -1.101207577806329674e+01 3.379530416992891162e+01
6.014803632739901040e+00 -1.084661255548794934e+01 3.428209531932485277e+01
7.880144712760014158e+00 -1.095033611387790273e+01 3.148661483491298085e+01
7.572739999326355331e+00 -1.114626222234742059e+01 3.203813582401026849e+01
1.139378817403885158e+01 -2.809565616838356483e+00 2.663894236418009243e+01
1.038338683947249841e+01 -8.415153974559972383e+00 2.796181199917726090e+01
1.046970016428960371e+01 -9.080004591618132892e+00 2.890315273167882637e+01
9.456026256210382286e+00 -9.763553236631127064e+00 2.947763135663997502e+01
1.186224653878811530e+01 -5.151697215835023158e+00 2.715070026774388623e+01
1.172889800420002437e+01 -3.627421241605384594e+00 2.703912543702167071e+01
8.510311862279976935e+00 -1.089984140532947698e+01 3.158434227226940649e+01
8.904376217786730052e+00 -1.034765834071988522e+01 3.037093251258932725e+01
1.156134087837577518e+01 -3.218496278942485134e+00 2.683904250656872748e+01
1.000801538980218197e+01 -9.562504508718800977e+00 2.942089427920207356e+01
9.439599830787818391e+00 -9.992239378295696639e+00 2.990040497989334511e+01
1.157156471521946983e+01 -7.145868384191082612e+00 2.758740695631018980e+01
1.186168837014497157e+01 -4.112602163708893421e+00 2.718461422210406653e+01
7.126248377876306606e+00 -1.117623735720433409e+01 3.304643061748136290e+01
8.044644160868513083e+00 -1.119376160024995137e+01 3.241150790349439603e+01
8.670084558171152977e+00 -1.077341260180443427e+01 3.124708555044677638e+01
1.082221214140427712e+01 -8.458000820233133155e+00 2.832803800982771136e+01
1.097707409659411404e+01 -8.161803079806713157e+00 2.810778473986242787e+01
1.086561112480089086e+01 -8.790339244056360357e+00 2.879876851772783652e+01
9.219094294839100812e+00 -1.016861830211122530e+01 3.011698516585586916e+01
1.123482602293641897e+01 -7.658161784785944448e+00 2.773618694420599695e+01
1.206961920799239607e+01 -5.748449488578707189e+00 2.749906733479585341e+01
1.199486381395034762e+01 -4.559031043605394018e+00 2.734350288857175926e+01
1.180195298664670389e+01 -6.573289797722506655e+00 2.747974873543358854e+01
1.192453050480247967e+01 -6.144226067542689407e+00 2.740338678570288522e+01
7.056111357319475808e+00 -1.113609363222516180e+01 3.328569485480694112e+01
7.362114435403450230e+00 -1.115994155117724951e+01 3.286545099801005421e+01
8.591515387035595808e+00 -1.104339547126370391e+01 3.212363314452395713e+01
9.022290992058817238e+00 -1.059846574617831827e+01 3.102635742294840426e+01
1.177125212185353220e+01 -2.840953339706379754e+00 2.713563367836869133e+01
1.060857831929348194e+01 -9.431355272074274154e+00 2.958682292935521474e+01
1.175148283590455378e+01 -6.955108978043660350e+00 2.760979234281612094e+01
1.225534342433978630e+01 -5.317725698424290215e+00 2.766780089545963506e+01
1.227654931839457042e+01 -6.344034180233573572e+00 2.784666569750218201e+01
1.207189190828953684e+01 -3.734991187655096301e+00 2.748165364731908866e+01
1.158146095047750279e+01 -2.417408949564548770e+00 2.692446426313618346e+01
1.193900313855646544e+01 -3.249987868674000691e+00 2.733600071850565527e+01
7.826521383554541522e+00 -1.119495835310835474e+01 3.290079936854566967e+01
9.140251598601095040e+00 -1.084937259181741886e+01 3.168202294373421068e+01
1.088934513141594351e+01 -9.146664795909826395e+00 2.929831842731991998e+01
1.037774728393512369e+01 -9.672642256275990391e+00 2.984575973722003539e+01
9.652318680686915897e+00 -1.024048676784741119e+01 3.051901380114814799e+01
1.009338543765352014e+01 -9.887532567230278957e+00 3.008547617584943978e+01
1.126129167562883104e+01 -8.500870171392607588e+00 2.869446116093821075e+01
1.181621670197700702e+01 -7.489249404883468131e+00 2.806258226608381534e+01
1.220478564313948411e+01 -4.220137831482500879e+00 2.762725970386028251e+01
1.220517696957479536e+01 -4.912575081816423328e+00 2.760473215467982300e+01
7.606333559806533806e+00 -1.119627490396514879e+01 3.339017394285846052e+01
8.516358939784410609e+00 -1.124126301216257318e+01 3.278484858397754209e+01
9.553493211561825404e+00 -1.045533669840315483e+01 3.097329457889958704e+01
1.166126672448594626e+01 -8.166257227097167615e+00 2.861576542898441033e+01
1.164798599678379176e+01 -7.745265522058671692e+00 2.813697247913243515e+01
1.264841234813747484e+01 -5.483751550889472526e+00 2.818487328389167601e+01
1.191396603641400986e+01 -2.410973186589617345e+00 2.736521828866089123e+01
9.339484732689889768e+00 -1.098302637252251657e+01 3.223810089246420318e+01
8.973796777563219251e+00 -1.112755078350341797e+01 3.258576219498759485e+01
1.155703116173092404e+01 -8.782768761083165288e+00 2.929093145965056877e+01
1.074747779802001979e+01 -9.782781155892234182e+00 3.027061664274979691e+01
1.130932710783782369e+01 -9.213378601172927063e+00 2.969379664242518047e+01
1.217570577425369827e+01 -7.107394756502045219e+00 2.810679056555376931e+01
1.254804114711307328e+01 -4.673543999968057250e+00 2.805865801294577722e+01
1.239647072390287796e+01 -3.394313353467188321e+00 2.792618624999477461e+01
1.233496307967849148e+01 -3.859964762497567481e+00 2.781858458391401356e+01
1.214900750925717432e+01 -2.872366016143091283e+00 2.763270717417622890e+01
1.167877679493201803e+01 -1.949286625809887985e+00 2.709751573786494561e+01
8.989351773580601446e+00 -1.128877040748750460e+01 3.315817964424142161e+01
1.172658206612783793e+01 -8.555508205801809041e+00 2.912634039018920973e+01
1.041608236627715023e+01 -1.004749132260105959e+01 3.059542314753709391e+01
1.008469406482429243e+01 -1.031221490356706383e+01 3.092024858959095823e+01
1.254785572650831504e+01 -4.327667742497857795e+00 2.806986020162855411e+01
1.206057858432176744e+01 -7.832247905993852122e+00 2.853720177269866198e+01
1.266210525523513297e+01 -6.167698082416070093e+00 2.830355427869175244e+01
1.243831354953092116e+01 -6.801761158258821105e+00 2.822529625046288615e+01
9.674904543591569706e+00 -1.089403671422752495e+01 3.210866810414795935e+01
9.892683306947663624e+00 -1.054053577929803609e+01 3.135635702603326180e+01
1.232637857140439586e+01 -8.054181912784478925e+00 2.900883730603178989e+01
1.185272689208222197e+01 -9.064638789906132033e+00 2.988732374340678177e+01
1.219175441499746348e+01 -8.610134536990681653e+00 2.955810901803139501e+01
1.265121975002328902e+01 -6.518209535233659757e+00 2.834723083597479132e+01
1.253782064509840133e+01 -2.859387936037697919e+00 2.809607329944712006e+01
1.264346901459123806e+01 -3.914782468806021765e+00 2.821904525695029164e+01
1.271740475313150576e+01 -3.332827991005858248e+00 2.830878175719001888e+01
1.203562957276916556e+01 -1.936900542418541038e+00 2.752092079625423082e+01
1.241635311441484824e+01 -2.333028709200998918e+00 2.796273941443308075e+01
9.538538436879994364e+00 -1.111658185794875564e+01 3.279367349755819561e+01
9.700674585585378651e+00 -1.076887708858424375e+01 3.179250817694363818e+01
1.144767256026294611e+01 -9.564847902657911405e+00 3.037729754170585394e+01
1.095896161756538945e+01 -1.003099900938246059e+01 3.088842579937854183e+01
1.051708872802060668e+01 -1.038394814884093620e+01 3.132149771792293436e+01
1.172898765467532911e+01 -9.280041183772333113e+00 3.008896739069604465e+01
1.260015080875880500e+01 -7.259761292375837449e+00 2.860404830744455040e+01
1.307119049278963097e+01 -4.894950329767036479e+00 2.874682041607465877e+01
1.304078815158523774e+01 -5.649493144096819464e+00 2.870104110247910256e+01
1.122865959135874547e+01 -9.841491753470776871e+00 3.070279417119988352e+01
1.247144576022958340e+01 -7.867566951530238661e+00 2.896485558669211713e+01
1.259190863104935687e+01 -8.275901930575065180e+00 2.947999423260226237e+01
1.304757154793760776e+01 -5.991424137435318542e+00 2.876031205340825636e+01
1.289028529419834967e+01 -4.435000341036665183e+00 2.851162464105197714e+01
1.302599827271271238e+01 -6.692442294160882987e+00 2.884794292890019562e+01
1.292602851464199887e+01 -2.846430571459050984e+00 2.855871066854488660e+01
1.305814156894522604e+01 -3.437520345136310773e+00 2.871450567432024314e+01
1.229127248947366624e+01 -1.493608877495873788e+00 2.783471776823006749e+01
1.026156208162685424e+01 -1.068831714806234601e+01 3.190308830983811461e+01
1.020998035970591467e+01 -1.093874022718393313e+01 3.253565382793858873e+01
1.117044994344185938e+01 -1.027923525907035085e+01 3.150627591585845266e+01
1.265717592138046221e+01 -8.664788779940597152e+00 2.999010410031132423e+01
1.288231680225776188e+01 -7.902886017735489155e+00 2.939250788746695164e+01
1.296850670742878364e+01 -7.497819851942707281e+00 2.915244305569758154e+01
1.214860622864464901e+01 -9.346697199144882617e+00 3.048409448308406056e+01
1.299219342546650324e+01 -7.186860108473088538e+00 2.901946199425477957e+01
1.325210159901178031e+01 -5.355019111001630527e+00 2.898191883701148086e+01
1.294295370183862737e+01 -2.379994248228339160e+00 2.858893273352502717e+01
1.319026144458387684e+01 -4.028182888644836090e+00 2.887004509536972563e+01
1.268326089001158685e+01 -1.794583107093637109e+00 2.829221397543291872e+01
1.094948058109430278e+01 -1.045568115919303054e+01 3.172273708914830337e+01
1.171043942185676912e+01 -9.900275843335709425e+00 3.113550875266462370e+01
1.263539457494445273e+01 -9.033388586896707650e+00 3.045336252541133604e+01
1.285748666375158855e+01 -8.497674141781567769e+00 2.995123788563087786e+01
1.345011420044665051e+01 -4.931075323928376442e+00 2.920420616250187607e+01
1.326919268507127825e+01 -4.471096227136090562e+00 2.896906079130655343e+01
1.343301994596312987e+01 -5.815182807167235346e+00 2.921702572874291803e+01
1.263081409321181070e+01 -1.233182258933243958e+00 2.824357800911921146e+01
1.082189374247048264e+01 -1.060784120448795775e+01 3.201356650022004402e+01
1.338392699195065205e+01 -7.114030791209653870e+00 2.943454182829976773e+01
1.333664475685192841e+01 -7.735746371903146290e+00 2.970052957164292096e+01
1.340070567782651700e+01 -6.866647795765670637e+00 2.934856176102316638e+01
1.360441115854913186e+01 -6.427728882569562430e+00 2.953333489069652273e+01
1.331407802990432465e+01 -2.833478599198228309e+00 2.902115197534770275e+01
1.349026824697932092e+01 -3.621396216725261574e+00 2.922837776311047620e+01
1.316834098369282557e+01 -1.778844197465839994e+00 2.887031792031745780e+01
1.294994887099267089e+01 -1.256588022034548890e+00 2.862139966719207607e+01
1.106355781777092595e+01 -1.075542259577358450e+01 3.254335596161863009e+01
1.219153194797610062e+01 -9.958976721168760093e+00 3.156760595266383973e+01
1.138187842254855653e+01 -1.052741647684487880e+01 3.212397666320634215e+01
1.239996385076070240e+01 -9.529044007603815203e+00 3.097094992860249008e+01
1.312312069420142180e+01 -8.719505196979907780e+00 3.042258296218659552e+01
1.329354307251347933e+01 -7.938236511009694851e+00 2.982052587315488879e+01
1.260905349243031637e+01 -9.369658038894096208e+00 3.088909813089279766e+01
1.377094213571608705e+01 -5.515322277009378382e+00 2.961243761831483212e+01
1.352025337795497961e+01 -4.090972836487123843e+00 2.926861674600287699e+01
1.364813556230896019e+01 -4.507202353415433294e+00 2.942647475454344175e+01
1.348374723227493632e+01 -2.298291959467920531e+00 2.923478845599296605e+01
1.341364548680660285e+01 -8.346786724127923662e+00 3.033554809534674845e+01
1.374031608244140301e+01 -7.507227869069348358e+00 3.004916208919200926e+01
1.379915654200010700e+01 -5.887610601393789445e+00 2.967268782169062291e+01
1.375812664105226446e+01 -4.974680342910557052e+00 2.957656919264987394e+01
1.365341963368009992e+01 -1.763105328461946675e+00 2.944840813740550445e+01
1.379024949199910033e+01 -3.214737714537510893e+00 2.958667979121206670e+01
1.281547712106787884e+01 -7.799078574536597586e-01 2.847344115637532269e+01
1.265126614951853767e+01 -9.711356071899940545e+00 3.145770745041703620e+01
1.345553150137601328e+01 -8.905021090007156914e+00 3.094462437145777045e+01
1.370460921946785504e+01 -7.973570059884255379e+00 3.024837017938788719e+01
1.377602639686387320e+01 -7.041146139217325128e+00 2.985000223018101551e+01
1.390864918800515326e+01 -3.878886389070457685e+00 2.973530370075351215e+01
1.370212754973396763e+01 -2.820525646354192784e+00 2.948330853777820337e+01
1.387181955074856710e+01 -2.285338793621097597e+00 2.969703013938596214e+01
1.343502420780520445e+01 -1.240873130645672617e+00 2.919950986028335294e+01
1.321662486812722648e+01 -7.186246093749999453e-01 2.895055248204865350e+01
1.355282168242272611e+01 -8.708076908457035969e+00 3.081025044025371074e+01
1.306990097115332539e+01 -9.392638879422381848e+00 3.129445428457832179e+01
1.416536117052794630e+01 -5.960061830577736863e+00 3.012846077230314279e+01
1.410887387761709455e+01 -5.215474709236390893e+00 3.000786041969092821e+01
1.402705879716181769e+01 -4.543312205979813889e+00 2.988391257508106236e+01
1.409647674493151825e+01 -8.145794310427898921e+00 3.077663107709177126e+01
1.413530797417255869e+01 -7.163085406487692985e+00 3.028501582804614145e+01
1.417204113244868502e+01 -7.892870031009682208e+00 3.069305742359878053e+01
1.414812816544765006e+01 -6.825481309844855460e+00 3.026165945693690063e+01
1.409022286164000981e+01 -2.807572637248513026e+00 2.994497286739353115e+01
1.432178840275194887e+01 -3.410273852652625060e+00 3.022963486186039717e+01
1.387702659372344804e+01 -1.194952759274852561e+00 2.969925290060862721e+01
1.410634856846889562e+01 -1.743360586659453704e+00 2.996059011680572226e+01
1.398270473569831474e+01 -8.696644897346448744e+00 3.119808488646741651e+01
1.378818160795727898e+01 -9.090675816205097348e+00 3.146705380040585709e+01
1.455335319504533054e+01 -4.012633509646344798e+00 3.051428474506467126e+01
1.434659123640417455e+01 -2.317936710453984084e+00 3.023345484951988382e+01
1.449502531007270711e+01 -7.285174037041683093e+00 3.072057142038452682e+01
1.452068179454984787e+01 -6.609560306887625636e+00 3.067381777513266883e+01
1.448955684220910278e+01 -5.474029290340312492e+00 3.049424800630357169e+01
1.444693964184486923e+01 -4.915531382037965358e+00 3.040344023866317258e+01
1.440598020952874947e+01 -4.579428910512969075e+00 3.034138706094329407e+01
1.451763091281095441e+01 -2.774608325692658806e+00 3.042534052311697934e+01
1.463897335521403775e+01 -7.812260694642410463e+00 3.113727310004697557e+01
1.448841400657939538e+01 -8.318054604252788309e+00 3.130499980916056302e+01
1.453218441909927883e+01 -6.032644528953075458e+00 3.058502571977103912e+01
1.474931827063731049e+01 -3.377435955077224605e+00 3.071018660793183130e+01
1.479125154656098928e+01 -6.897850384885140684e+00 3.102379243263937880e+01
1.485451402303455204e+01 -7.407188107288566137e+00 3.115586333729210011e+01
1.478506023128185021e+01 -4.615567141340473079e+00 3.079908491561085881e+01
1.489304141515695612e+01 -6.393757756721528018e+00 3.108576311095088940e+01
1.479524420078409896e+01 -5.644915038652772665e+00 3.088230861371059177e+01
1.494509782634483663e+01 -5.135681841812860249e+00 3.103185584528442575e+01
1.496236954672552066e+01 -3.757771310644166363e+00 3.096527982528112233e+01
1.510581584161850799e+01 -7.731673103924038948e+00 3.158140758700335127e+01
1.489873319244215466e+01 -6.105183636217846654e+00 3.104126778329170122e+01
1.507390826746086177e+01 -4.221137896084202978e+00 3.110919103317448275e+01
1.510548910623117713e+01 -5.657054275604125770e+00 3.126510442899867215e+01
1.515403325302620452e+01 -3.284556626967251258e+00 3.116272437537347173e+01
1.520086894058812632e+01 -4.622243590996541585e+00 3.127295597340251376e+01
1.526566674076530994e+01 -6.177807590721009490e+00 3.149800451446732197e+01
1.536106072367989128e+01 -5.142936334548833699e+00 3.150596646013102387e+01
1.536278344176408339e+01 -3.826759335749154722e+00 3.141934574872123065e+01
1.561663739881262636e+01 -4.628919856553979528e+00 3.174682347555978268e+01
1.566533509423027226e+01 -5.795561554756447187e+00 3.191573390289232748e+01
1.573311643318780995e+01 -5.189565859491500177e+00 3.193396631041274958e+01
1.582984457574528037e+01 -3.995135576234928099e+00 3.195940493533359827e+01
-4.688192889739434932e+00 5.838473353673977684e+00 3.909195482858547166e+01
-5.127638121994568365e+00 5.932863307078936721e+00 3.848106145839543046e+01
-4.844057215067680389e+00 5.404818695421255370e+00 3.888859711713487144e+01
-4.851492013049896634e+00 6.384147100987936696e+00 3.885041461604916435e+01
-4.236414240152318378e+00 5.715999876135742674e+00 3.956509131325780260e+01
-4.399456376013395342e+00 6.261522437315872658e+00 3.932382053944896683e+01
-5.250008073151981591e+00 6.522951880382029444e+00 3.829490897407461603e+01
-5.014583854180359346e+00 6.929153078036201840e+00 3.860921478011028540e+01
-4.562675778098569168e+00 6.806980940413386527e+00 3.908241601055812708e+01
-4.110687017475714633e+00 6.684488816534857492e+00 3.955576268865595324e+01
-3.947429759304925234e+00 6.138908075315242741e+00 3.979723447222096411e+01
-5.413246576595743598e+00 7.067988850458321259e+00 3.805351510416826954e+01
-3.658574821251880493e+00 6.561669057530147953e+00 4.002929945889771801e+01
-4.725700759303594012e+00 7.352148884716296351e+00 3.884128627147185853e+01
-5.177788518171895227e+00 7.474554492740827172e+00 3.836788545552595053e+01
-4.273879890515404512e+00 7.229820097358000019e+00 3.931442719533961849e+01
-3.821938728910935001e+00 7.107461803015594271e+00 3.978771361894680325e+01
-5.561528569292695678e+00 7.567621719466323782e+00 3.798313165824384896e+01
-4.027254529377933601e+00 7.577045358184796520e+00 3.955738346842274211e+01
-4.396931414923966663e+00 7.815070650252665452e+00 3.916515947226114491e+01
-4.848564618587592356e+00 7.937871705229228247e+00 3.869220587131685818e+01
-3.369396014981234089e+00 6.984945187470290584e+00 4.026164969236914715e+01
-5.474768043968018638e+00 7.942939739353942485e+00 3.822477224375445815e+01
-3.575181549461708297e+00 7.454959881942332167e+00 4.003080631535459588e+01
-3.780655794300606054e+00 7.924273142792169544e+00 3.980034798281884889e+01
-3.986059529794759193e+00 8.393435334495425337e+00 3.957001008661471531e+01
-4.519991239757891854e+00 8.400335910706967724e+00 3.901594933088357209e+01
-5.808127439523794955e+00 7.994297167290369543e+00 3.787904635604731141e+01
-5.945835595712218868e+00 7.660828340046358598e+00 3.759783717953677495e+01
-3.037656310733140241e+00 7.453786208331245611e+00 4.063334500456868881e+01
-5.063520932794932428e+00 8.521224216005448326e+00 3.862988116169935893e+01
-5.771642102413759190e+00 8.411168371166079183e+00 3.808178912423129248e+01
-3.531779601107714495e+00 8.275676152708316025e+00 4.007929103308837426e+01
-5.525051201258452060e+00 8.757877972347316131e+00 3.832472255203580147e+01
-6.198882838720208177e+00 8.316406437133601059e+00 3.757948108558527878e+01
-3.160283472305492669e+00 8.040425762666497889e+00 4.049577914008489898e+01
-3.737337223024849830e+00 8.744930088595936013e+00 3.984884473274729544e+01
-4.191516443937053360e+00 8.862723561853153242e+00 3.933966166360351480e+01
-6.329605383908137206e+00 7.753906063432030926e+00 3.721582126867837559e+01
-4.734770220685281750e+00 8.983601897066046504e+00 3.895380747131746091e+01
-5.278484493988874426e+00 9.104588103860413284e+00 3.856767417926145214e+01
-6.068204759920389435e+00 8.878910037484642359e+00 3.794318241744021236e+01
-3.868771353302006499e+00 9.168605273689088619e+00 3.972721839250043985e+01
-2.705893581283991711e+00 7.922699423322000278e+00 4.100519374764140679e+01
-3.282916540982965259e+00 8.627080448953977410e+00 4.035830871407438281e+01
-5.821920428354733446e+00 9.225512751736349770e+00 3.818679139201518780e+01
-3.414508646950689119e+00 9.050756686981735299e+00 4.023653221102775746e+01
-4.622511165334486805e+00 9.381086775164039437e+00 3.922998302114333313e+01
-6.608586146685515139e+00 8.878048970443069621e+00 3.735733080852148191e+01
-4.355566210928913051e+00 9.617377536680189465e+00 3.954816563824861220e+01
-2.828827057598934047e+00 8.509321540997460076e+00 4.086741196905104090e+01
-5.106646316432608579e+00 9.447875671089098759e+00 3.886970891424977737e+01
-5.528115210302298799e+00 9.582362605316644633e+00 3.859442724936299385e+01
-6.364507090362453212e+00 9.346252591396938314e+00 3.780678978259641099e+01
-3.946528318791597822e+00 9.625977151175423074e+00 3.987447930386966277e+01
-3.546117280865793919e+00 9.474438582579962187e+00 4.011976089836975490e+01
-2.940436348831899416e+00 9.317424955115020779e+00 4.080230167004454245e+01
-3.223458325562545301e+00 9.780318403687047635e+00 4.051481206228616827e+01
-2.374275579487872712e+00 8.391448577347654592e+00 4.137704485380756836e+01
-5.053497833229291913e+00 9.899442126936305542e+00 3.912884379833046467e+01
-6.071202373883088477e+00 9.703074088071467429e+00 3.821346063721232156e+01
-4.128140933501956766e+00 1.003526970876996316e+01 3.991950349203991522e+01
-2.657488300128581837e+00 8.854654557902152945e+00 4.108890421875370436e+01
-6.900378730990090581e+00 9.440534149294322219e+00 3.738663641128804471e+01
-3.675408097906575300e+00 9.907682071595292683e+00 4.021742523617929521e+01
-4.580529987008205239e+00 1.016276180239928983e+01 3.962178968905467258e+01
-2.057774024977335525e+00 7.855709610084598893e+00 4.162166029397529599e+01
-1.997213551351952665e+00 9.059805735992300768e+00 4.134893383998157645e+01
-2.134269095266870586e+00 7.279149418790542114e+00 4.148345907925897791e+01
-1.741407253954970091e+00 7.320214503955249974e+00 4.186625240261824388e+01
-5.777756565327281102e+00 1.006014036058004990e+01 3.862020993843516692e+01
-6.746231710427038841e+00 9.746237785753343985e+00 3.775926114406912149e+01
-4.284931406131875065e+00 1.052514065492337281e+01 3.981644927578599180e+01
-2.635215364105108371e+00 9.710080291694087151e+00 4.082659990838401853e+01
-1.832766764898681178e+00 8.401056216950230748e+00 4.161967861352932374e+01
-1.850676697047714425e+00 8.651040706147680837e+00 4.155123702992837309e+01
-2.411412535307528859e+00 9.286866625737731695e+00 4.107246539576206601e+01
-6.448894655672112286e+00 1.021385927014299888e+01 3.822977946718116016e+01
-3.509880100431804539e+00 1.023411268341397751e+01 4.032668582747332664e+01
-2.595953916759047519e+00 1.002135132301828691e+01 4.075049025708751316e+01
-1.128261653118310726e+00 7.764042090310508293e+00 4.205869814849688737e+01
-5.032313939915811218e+00 1.029008548782785937e+01 3.932445781139217900e+01
-5.484183004038406750e+00 1.041743487468298390e+01 3.902705532301621361e+01
-3.796223466206298358e+00 1.068776931672578812e+01 4.013800718488664643e+01
-4.550396001671656698e+00 1.090030401015256700e+01 3.964141719154282129e+01
-1.291440203289653477e+00 8.410662370153133338e+00 4.186291530854991549e+01
-2.047001120745589375e+00 9.639848654671810735e+00 4.113832652489454489e+01
-1.327641679743525316e+00 8.910359794221006879e+00 4.172630047197228009e+01
-5.017178160549679689e+00 1.065891191438226748e+01 3.933441431567793956e+01
-5.965923265808698694e+00 1.052351257871648471e+01 3.874425453505102723e+01
-7.128683259906571479e+00 1.014698609899705239e+01 3.771038300213230343e+01
-1.458491379844669034e+00 9.569586113684151130e+00 4.145016587268825248e+01
-6.447832700849840393e+00 1.062962846921223559e+01 3.846106093360124589e+01
-6.929524050469462182e+00 1.073569616185105069e+01 3.817777973096855249e+01
-4.082971822455698785e+00 1.114205904118094992e+01 3.994871463880924267e+01
-2.986589440761111991e+00 1.088655921315304553e+01 4.045698636983912877e+01
-3.534685470957759978e+00 1.101428585187133535e+01 4.020289152387400833e+01
-1.968749970129548110e+00 1.026228145587229612e+01 4.098532258264955885e+01
-7.497135065843507640e-01 8.420278572348959045e+00 4.210704773891365704e+01
-5.943031725323514536e+00 1.089739429011268790e+01 3.899946156050006607e+01
-5.525593048607319702e+00 1.108322964358683116e+01 3.926233562004443911e+01
-2.437823122133163878e+00 1.075867826404291172e+01 4.071139802315650513e+01
-8.702484601304865119e-01 9.499356690635249123e+00 4.176182339819605716e+01
-4.638562003092136621e+00 1.128523962900758271e+01 3.974750280187007689e+01
-3.515429549027719869e+00 1.129046696065998745e+01 4.019857872433133394e+01
-1.889782962281319589e+00 1.063096852473334586e+01 4.096547898942286992e+01
-8.049485218117783392e-01 9.169516166491916920e+00 4.190026267570493701e+01
-1.341561612955783023e+00 1.050321821291953661e+01 4.121965004380740538e+01
-6.687051484100899224e+00 1.114383129873206713e+01 3.861431868869875217e+01
-5.194435207390513121e+00 1.142849321477278757e+01 3.954612504381621818e+01
-2.947891831135190710e+00 1.143888644054346138e+01 4.044835252473661313e+01
-2.033347133536497875e+00 1.122626273408028830e+01 4.087220004302453447e+01
-9.880261187780511323e-01 1.014499848835783702e+01 4.150458650719926368e+01
-6.401952575169685744e+00 1.137742156398299720e+01 3.897083702761861446e+01
-5.750022793711477398e+00 1.157167491919904911e+01 3.934483860088813145e+01
-4.457206490271425459e+00 1.155122222568019730e+01 3.993788411922513859e+01
-4.074536376734856802e+00 1.205601650644973510e+01 4.022872758169009444e+01
-1.687587474381378794e+00 1.086488453562325596e+01 4.104585144593923474e+01
-2.379116294250756436e+00 1.158764229505329801e+01 4.069865342569836031e+01
-4.431895222716790150e-01 8.858737095282524621e+00 4.214060270791858898e+01
-2.814734918397386876e-01 9.429067285612198646e+00 4.207372391605667872e+01
-6.348501199934462047e-01 9.787138079932315549e+00 4.178915482302965501e+01
-3.509689934179156090e+00 1.189997156425338076e+01 4.038556602543180674e+01
-1.751981342216091919e+00 1.150224636171494907e+01 4.094704616133760311e+01
-7.821464503880478647e-01 1.047660534934170506e+01 4.147410793610158208e+01
-1.233178088525821670e+00 1.096003392687951639e+01 4.120758833609256300e+01
-8.162425061107265734e-01 1.066771131702018671e+01 4.140034123595776094e+01
-6.305730053332280427e+00 1.171488903449748165e+01 3.914355710180119274e+01
-4.830944680899442290e+00 1.195983252008716846e+01 3.992705251083348372e+01
-6.861528641389689653e+00 1.185812770652417747e+01 3.894155047142498915e+01
-5.756530406540892209e+00 1.219821411211988504e+01 3.958969419914642884e+01
-2.944823701744553102e+00 1.174392242936599828e+01 4.054197038703554057e+01
-2.233361409813842680e-01 1.045002372341126673e+01 4.172824730853347575e+01
-6.308717683344977623e+00 1.202825540688402484e+01 3.926579369054612556e+01
-4.639464753964377408e+00 1.221208526370712200e+01 4.007116679935408143e+01
-7.205160082421091516e+00 1.155478242113886189e+01 3.849840512805427295e+01
-5.204438869269489842e+00 1.236816814390394370e+01 3.991356242308370383e+01
-2.964758707107618907e+00 1.207068582940960511e+01 4.073755326027481516e+01
-1.740287309248345515e+00 1.172922789084504913e+01 4.095647329773520084e+01
-1.124820504994898718e+00 1.141684851318081506e+01 4.119543723862889806e+01
-4.971043803988970944e-01 1.133137551142351285e+01 4.144403672934836180e+01
-2.913375032557498079e-01 1.083207742230861470e+01 4.158072114966720534e+01
-4.101908538353317368e+00 1.249188863517606407e+01 4.048668388546753505e+01
-6.251950297128715306e+00 1.277270697031883806e+01 3.953533096313982043e+01
-3.550482455778301460e+00 1.255378256157946204e+01 4.077334246101680293e+01
-4.653010021167592214e+00 1.243004240382876979e+01 4.020020484970455499e+01
-6.606977516294546326e+00 1.245253582532312642e+01 3.925861634958092594e+01
-2.315442782553449597e+00 1.233745625330612938e+01 4.105273723589291990e+01
-1.101413943130246098e+00 1.187082759082794503e+01 4.121425247992599594e+01
2.332023410918263040e-01 1.099633087955735888e+01 4.176086708304797668e+01
1.303755446087651315e-01 1.124593579718304781e+01 4.169253141374068150e+01
-5.728007924450513322e+00 1.257036601324094249e+01 3.972454412560384185e+01
-7.182281293627360341e+00 1.236519767809975257e+01 3.895036469619397934e+01
-2.933027369086671055e+00 1.244562992007219115e+01 4.091302540846382385e+01
-1.698413239997450530e+00 1.222937983595173073e+01 4.119232232116674908e+01
-4.102092186336445678e+00 1.273917255794908243e+01 4.065520522776672152e+01
-4.613318707815313169e-01 1.201269943556238751e+01 4.147217330939897550e+01
-5.486563757573204025e-02 1.172853156810906583e+01 4.162860184853097678e+01
-5.939871312565670358e+00 1.310972453160145079e+01 4.009307008503704139e+01
-6.776149433481436724e+00 1.297514390400605322e+01 3.934596540110824492e+01
-4.654330823266628059e+00 1.292477226681829272e+01 4.053690174082240105e+01
-4.117112824141186955e+00 1.301972876563997694e+01 4.097804736734217812e+01
-5.571946886694497003e+00 1.273873915659797440e+01 4.000334305291396930e+01
-5.205420652646679969e+00 1.310998625381370708e+01 4.041881630872739350e+01
-2.936975842035495443e+00 1.262955814380151764e+01 4.105420009340291188e+01
-3.494441764396174488e+00 1.320417773771749026e+01 4.135612357896364699e+01
-2.323075218295076461e+00 1.270538450654785301e+01 4.133521213812439044e+01
-1.080286230346939380e+00 1.212111206377862516e+01 4.133215490238130485e+01
7.575671101150490694e-01 1.116053535784144835e+01 4.194090091990465652e+01
3.514006264285048919e-01 1.144450065784099024e+01 4.178472894364087153e+01
-2.899573879268853460e+00 1.306330640534792131e+01 4.144284310198138144e+01
-1.708639746831706496e+00 1.278127911965172103e+01 4.161644655255341974e+01
-1.085431218778238449e+00 1.239726515185597933e+01 4.154441359250354537e+01
-6.307448877342389792e+00 1.348036216828921141e+01 4.018259502868260569e+01
-6.812870091250226245e+00 1.344685390574670514e+01 3.977754149896090041e+01
-7.503271053153716785e+00 1.287263448653696152e+01 3.895891207350445740e+01
-5.756475833211223581e+00 1.329518689994980640e+01 4.030070948044935619e+01
-4.089117182207263390e+00 1.334500434685347514e+01 4.126943031473611967e+01
7.887777080827942933e-02 1.215601746827519491e+01 4.172212562997744101e+01
4.851299292767103921e-01 1.187188796232603671e+01 4.187947564121571276e+01
-4.683998618673081538e+00 1.348588000159625544e+01 4.118270460532365007e+01
-7.300081544283072432e+00 1.317747609981415025e+01 3.915664095911337483e+01
-5.225462285333816403e+00 1.348403296705326504e+01 4.084912195159161286e+01
-4.094111227348390614e+00 1.351827781500881720e+01 4.148473747569985193e+01
-2.303908337749778656e+00 1.292224611197239525e+01 4.152967579388219832e+01
1.071601522243299076e+00 1.163571888123186682e+01 4.212020381635298349e+01
-7.318744052906108521e+00 1.341332900194322875e+01 3.937216537899986690e+01
-5.766519197494086590e+00 1.348219437474071469e+01 4.051581019535908013e+01
-3.504221999357577388e+00 1.355067583469246095e+01 4.178674452600258604e+01
-1.206066288270287279e+00 1.287437483155826357e+01 4.186186305906058180e+01
-2.068641886906742167e-01 1.239308597952547153e+01 4.184779497317406083e+01
1.333407030112736535e+00 1.136462771898106361e+01 4.216427747450527619e+01
-6.748611003064245217e+00 1.392076137858974150e+01 3.993009163140190054e+01
-7.188529129833721498e+00 1.387583818664536395e+01 3.957416211631607439e+01
-5.161046749604302875e+00 1.372655939110863699e+01 4.099280729011042013e+01
-2.914758810477383832e+00 1.358304980314543542e+01 4.208850721315263144e+01
-2.311916285846524755e+00 1.318230971646177885e+01 4.185263051922193256e+01
-1.500725034112562861e+00 1.310923788339066043e+01 4.207089316458077377e+01
6.188577197591402790e-01 1.229927586863637146e+01 4.197178011496199446e+01
-6.114714634973534402e+00 1.420767628266309224e+01 4.061318217057547031e+01
-6.688164219529472376e+00 1.408483527650273537e+01 4.020804698042540792e+01
-3.963639964400260229e+00 1.396140787704594644e+01 4.181695837499442092e+01
-4.487746437259524157e+00 1.415046302128869904e+01 4.168126885019203343e+01
-3.438962203791319450e+00 1.377214362793635871e+01 4.195279405263822525e+01
-7.036918267654049819e-01 1.296743350594168831e+01 4.210705086875695713e+01
4.742294399835144530e-02 1.277320078016587246e+01 4.222264773227263390e+01
1.385666607585138044e+00 1.211095142788972545e+01 4.229582035247405258e+01
-5.637718170876929058e+00 1.396704031991055572e+01 4.080305966478481849e+01
-7.548221257056683342e+00 1.418068169593228589e+01 3.935663288640310498e+01
-7.824123719531870691e+00 1.337985068635494912e+01 3.896722337106717760e+01
-7.189867120143100365e+00 1.436120792040807537e+01 3.967750834689872619e+01
-5.110728349682123195e+00 1.400741749016679805e+01 4.129608703987256746e+01
-3.412173663703366611e+00 1.403998893515731972e+01 4.225206657279233013e+01
-1.842643098070771979e+00 1.340506976625980329e+01 4.228336309463519882e+01
1.909434195074185991e+00 1.156878652431143095e+01 4.238765335676434631e+01
-7.906602199636250106e+00 1.400016266112307761e+01 3.903575583775181457e+01
-2.305230608516304347e+00 1.364357861766801960e+01 4.238501214909197756e+01
-1.293022012381941366e+00 1.343687188817234990e+01 4.252451135944536986e+01
1.159287542806969329e+00 1.244265311093038306e+01 4.222146560614868349e+01
-6.048411761550921639e+00 1.458246551502057109e+01 4.101712042530234470e+01
-6.591679092010129359e+00 1.444828955213338340e+01 4.042331856257944622e+01
-7.068607419154856686e+00 1.468887598442065645e+01 4.023346930082268358e+01
-5.012655489601930192e+00 1.433980949652437431e+01 4.154537381669613438e+01
-4.452850414101789056e+00 1.450828343582354485e+01 4.208048406193853452e+01
-2.715042296835529889e+00 1.389750030647989298e+01 4.246171702002613557e+01
-3.910624573005033966e+00 1.449783136849635490e+01 4.241581970781475519e+01
-2.007429665377497008e-01 1.306060028064928424e+01 4.235239509980649331e+01
1.001499606232531203e+00 1.286957712564795919e+01 4.253416937944113130e+01
1.752060965843724949e+00 1.109230035839071604e+01 4.243219127411025227e+01
2.380249646385313778e+00 1.228138158341784170e+01 4.265079715459596343e+01
-5.537674939140559083e+00 1.452919442864380350e+01 4.140945015116446370e+01
-7.989112796975188502e+00 1.462067067431492617e+01 3.910425404653933157e+01
-7.630706666558098483e+00 1.480119301755851424e+01 3.942514394828423718e+01
-2.990663332862962598e+00 1.422723556680375268e+01 4.261969833070801883e+01
-3.378990400478660394e+00 1.450734273327987367e+01 4.267974340401310940e+01
-3.919033174715622625e-01 1.345936516171403596e+01 4.278791642445104770e+01
-1.695418158374125905e+00 1.370413544928562999e+01 4.268152751583369309e+01
3.019818939673779568e-01 1.315372503207233379e+01 4.259751022729857084e+01
1.699608110611319445e+00 1.258600163506563874e+01 4.247093747962920673e+01
-6.558505064642738525e+00 1.463566996554717647e+01 4.062529419844449308e+01
-7.402780315045001558e+00 1.487292200447040891e+01 3.988004230704191144e+01
-8.438041135606118459e+00 1.432005343345909409e+01 3.860308852996810458e+01
-4.995582496959346308e+00 1.451874504523223308e+01 4.174479177784910178e+01
-2.515433189811398851e+00 1.421182740521460808e+01 4.283455584137170291e+01
2.187499485789411668e+00 1.128689697090241850e+01 4.259084634564836591e+01
2.485150791503997425e+00 1.177283532013391998e+01 4.260936313906726980e+01
-5.641996672136142088e+00 1.520274829735734556e+01 4.151084603403929663e+01
-6.407435741578233035e+00 1.528267595860006622e+01 4.092296669461156000e+01
-6.738087201179715713e+00 1.498570886382288947e+01 4.057816999860123985e+01
-4.757315039600359619e+00 1.488793341524393199e+01 4.202382652289140452e+01
-4.274012958603475631e+00 1.510974546807390695e+01 4.240407616335540553e+01
-2.846956147535705473e+00 1.451686102371413511e+01 4.294381420268179994e+01
-3.650689548203093437e+00 1.507330712742745327e+01 4.274863149561248576e+01
-1.085180202422517892e+00 1.376473546396783654e+01 4.297812766984306165e+01
8.493005264735932203e-01 1.325810483051932565e+01 4.283621601419837788e+01
2.362271587465985867e+00 1.088815620341866897e+01 4.277445106876391634e+01
2.291325604398614768e+00 1.272427567555297578e+01 4.272540866338480470e+01
-6.076994529931252664e+00 1.557947240852823434e+01 4.126689256804440475e+01
-6.953576342064830662e+00 1.517805542372893335e+01 4.039834764165575365e+01
-8.071632032726970607e+00 1.524121406461610029e+01 3.917271212254675561e+01
-7.737155919929187498e+00 1.505705327260812432e+01 3.952642189933820305e+01
-6.838486441594012533e+00 1.566788822194392594e+01 4.056124510601713240e+01
-5.237778538076578450e+00 1.492679405410548199e+01 4.173709567781936869e+01
-1.700109990107722346e+00 1.414534959596102226e+01 4.309273422773680551e+01
-3.137401680488016709e+00 1.486290435532897547e+01 4.292500159808279392e+01
4.910467203464601860e-01 1.344992715855996046e+01 4.298521682124595600e+01
3.060724042174313375e+00 1.197683410236007795e+01 4.283060471138261249e+01
-7.397646199902973230e+00 1.569968108183045530e+01 3.994939457586789899e+01
-8.476293108636294704e+00 1.502437590443966720e+01 3.873382412087806870e+01
-7.734810783404103773e+00 1.547032813316432609e+01 3.956161746529787138e+01
-2.315727023024101161e+00 1.452636499831206329e+01 4.320743587427636356e+01
-2.674017399039295029e+00 1.490018921099515481e+01 4.316528257282020320e+01
-4.338697308271620701e-01 1.385733939015754679e+01 4.323893101754171653e+01
1.962650868304969265e+00 1.291424127787537479e+01 4.283108137892180878e+01
1.395770220248088167e+00 1.336232291678736672e+01 4.307442368288491963e+01
2.711562846850212871e+00 1.143259034401470231e+01 4.280396632422973369e+01
-5.746521495371382571e+00 1.587631904917310877e+01 4.161049775930490568e+01
-6.234744891092581121e+00 1.601728774900516328e+01 4.116767551081018439e+01
-8.881144306148927470e+00 1.480744927304398217e+01 3.829474226505647749e+01
-7.060511191322399682e+00 1.592901440279230663e+01 4.033696469836199583e+01
-4.937613568738560943e+00 1.532484885942790598e+01 4.206495997591744640e+01
-4.014126914977742544e+00 1.568529764842177521e+01 4.273682675633407513e+01
-3.032753893675112167e+00 1.527442344105985050e+01 4.312307386449850810e+01
-2.189737933274334747e+00 1.512135964255501897e+01 4.341828692762262421e+01
-2.727622635340682056e+00 1.568244561487997402e+01 4.335498391600412305e+01
-8.588747783547590053e-01 1.422500818230855479e+01 4.340952529458973430e+01
6.802257813468491898e-01 1.374632841836662678e+01 4.337297398807657345e+01
2.883966261914305829e+00 1.286276678006456820e+01 4.298007843767698688e+01
-8.436037640627322531e+00 1.543917088597279630e+01 3.862944487377151148e+01
-7.825365087377813111e+00 1.573473581322243753e+01 3.941517381906154327e+01
-6.723361967215102375e+00 1.615836251740408258e+01 4.072481292539500686e+01
-5.192380307749043133e+00 1.579937876159342913e+01 4.200143901238728716e+01
-4.637926318000200610e+00 1.572239457123523643e+01 4.239225131910603039e+01
-1.754572232877329441e+00 1.457955827315585928e+01 4.341878076001417242e+01
-3.391157142488721021e+00 1.564824957171085984e+01 4.308090180134075808e+01
-1.193194700845372047e+00 1.463277366495414000e+01 4.363015526231182406e+01
2.178393867471259959e-01 1.395000012107354337e+01 4.349977563490303822e+01
3.516896280713142531e+00 1.178868329203078247e+01 4.303681701574515728e+01
2.225717019071869363e+00 1.324251203594920057e+01 4.319093400771822644e+01
3.397087773509653630e+00 1.236453139788466693e+01 4.305051605437026296e+01
-8.201044886534470280e+00 1.586144590604099669e+01 3.874906444296939156e+01
-7.579036765172575407e+00 1.622850407344926182e+01 3.965649257589107890e+01
-7.028145069257619504e+00 1.644054905985957404e+01 4.031147723162109031e+01
-2.063916705260087969e+00 1.571665244811477713e+01 4.362907745044470431e+01
-1.109422783724148154e+00 1.502945643628901529e+01 4.377055263627092074e+01
-1.317284837905580153e-01 1.447147916376603760e+01 4.381431749142583953e+01
1.942585925090226207e+00 1.346660787314436547e+01 4.331266141874505138e+01
3.688615814022592421e+00 1.215408332105507050e+01 4.305349329696254301e+01
-8.800485789538727843e+00 1.563713493485148831e+01 3.808614382215880312e+01
-7.868900826050956532e+00 1.619078151259066800e+01 3.918849118773864859e+01
-7.332691316823322758e+00 1.672245725274891015e+01 3.989892486739221766e+01
-6.432446781743281328e+00 1.655306866269456734e+01 4.100602732139359574e+01
-5.798530418239318251e+00 1.660906562610699666e+01 4.158901631211777783e+01
-5.451611249692035699e+00 1.646840611457835379e+01 4.191588651158702561e+01
-3.698818976310008111e+00 1.607257338038920480e+01 4.298776949386989088e+01
-4.476211323528382913e+00 1.632191655616972881e+01 4.259584681400579598e+01
-1.586526845505443761e+00 1.537296889289969748e+01 4.369983295971812254e+01
-2.502696388664227278e+00 1.611733235289455735e+01 4.351539811950464554e+01
-3.386003545759042055e+00 1.628341503488849540e+01 4.318313134613983095e+01
-6.323594418429361319e-01 1.468593876807915244e+01 4.384127234981626486e+01
1.409153700433704248e+00 1.388534333343450200e+01 4.369044959379396431e+01
3.477503576281499420e+00 1.300146783625499936e+01 4.323495009504811293e+01
-7.665374810511251802e+00 1.664225657248083223e+01 3.937410526664751131e+01
-6.625362387191984226e+00 1.669087759007299354e+01 4.076426055085966738e+01
-7.031743485426928508e+00 1.706638264385439285e+01 4.021395583895815662e+01
-4.006673506131586571e+00 1.649703600952410198e+01 4.289363358294679784e+01
8.693246537207618418e-01 1.404263225984177410e+01 4.376041894030121426e+01
3.687463622782066741e-01 1.425708332638608589e+01 4.378737282320710733e+01
2.488772535275333375e+00 1.357077474522288263e+01 4.355051146723706523e+01
3.733374070288681068e+00 1.275214278868254070e+01 4.326994664177287575e+01
-8.330654769890253775e+00 1.648187515035455419e+01 3.832465927852887688e+01
-4.897405768037001117e+00 1.639170978734956208e+01 4.230661020539245953e+01
-7.998035458671198583e+00 1.656206117463053573e+01 3.884933968984973518e+01
-7.135269527187981353e+00 1.725084033663078031e+01 3.999002598049467139e+01
-6.141745860699419524e+00 1.694758163823804153e+01 4.128720212113881871e+01
-2.942115362902741005e+00 1.651853310413855525e+01 4.340009399569730419e+01
-2.303383986123614058e+00 1.635050494491662221e+01 4.362787346492439156e+01
-1.423968597312384343e+00 1.580001427074079068e+01 4.380456942794884156e+01
-7.081619672227813522e-01 1.528460817804168670e+01 4.391065283064475722e+01
-7.415362682829686192e-02 1.476745519544839347e+01 4.396815204333142191e+01
1.949481202977109362e+00 1.372790867087601363e+01 4.362041438216692057e+01
3.015556098769367921e+00 1.342719786577073826e+01 4.353005229216854843e+01
-8.730809599761659712e+00 1.633233607943038024e+01 3.788266054702521757e+01
-8.053274882091038478e+00 1.690124340714550044e+01 3.859025664843935743e+01
-9.165248009326175449e+00 1.583525318879100041e+01 3.754240777192968181e+01
-7.415258891444964640e+00 1.723168294151444258e+01 3.951070750179746938e+01
-7.775464652236121488e+00 1.732129366857681774e+01 3.885642771878541879e+01
-6.527580596661302081e+00 1.722277174965533320e+01 4.080396023383272563e+01
-5.504014297278045476e+00 1.720147432571885915e+01 4.189525649666261131e+01
-4.314766974742664907e+00 1.692168869838353729e+01 4.279997154055519815e+01
-1.956686585112696664e+00 1.661723982552266321e+01 4.374439086890262729e+01
-3.381144098514417440e+00 1.691930600201962775e+01 4.328450584399284651e+01
-3.848339811936775323e+00 1.692049787034074981e+01 4.304202816604531279e+01
1.528263315721103188e+00 1.413209329165528771e+01 4.391363483947241519e+01
4.069759574584310258e+00 1.313987048473642893e+01 4.348910325289602241e+01
3.542425658614040795e+00 1.328359721208042998e+01 4.350958761764380256e+01
4.315787732334731785e+00 1.233113071265930394e+01 4.327588370774349613e+01
-8.503279253449003150e+00 1.671592021417089668e+01 3.783779402264727310e+01
-9.130486204568814657e+00 1.618297625075473789e+01 3.744226116052574582e+01
-6.730798254531482172e+00 1.741033869509990950e+01 4.052899295366165688e+01
-5.850920847101586553e+00 1.734237667872633182e+01 4.156867364808259424e+01
-5.156988846425289097e+00 1.706052354880924327e+01 4.222198432769172882e+01
-4.735825371512246029e+00 1.699109745803505334e+01 4.251100772249376547e+01
