-5.370522337803683710e-01 2.055184206472057085e+01 4.254629435882067412e+01
-1.257565178235938275e+00 2.096417968453359748e+01 4.156562358957784653e+01
-3.733371655511366516e+00 2.085015346481188914e+01 4.026514836793395347e+01
-3.328952597960188609e+00 2.109186358696588215e+01 4.021786611603229034e+01
-3.130867952795143072e+00 2.129337873432372419e+01 4.009693704292244121e+01
-2.386977017191032946e+00 2.093344286402736287e+01 4.089902770388187037e+01
-2.711450902726332046e+00 2.139950768821141480e+01 4.020527412004019396e+01
-4.238253781948415622e+00 2.124634909845623199e+01 3.955911064375860065e+01
-3.789305512964062483e+00 2.122667977660702832e+01 3.982677895053360828e+01
-4.977969471131239665e+00 2.104027908926860846e+01 3.937513448880260825e+01
-1.756267158038255644e-02 2.086201167640149023e+01 4.250808734992681082e+01
-5.549522259857815332e-01 2.128692654086110281e+01 4.162831665165396799e+01
-1.600173043043661147e+00 2.102041040725594812e+01 4.128350742639921123e+01
-1.884482581453687411e+00 2.121508375812831915e+01 4.088107438235140734e+01
-3.587121703018851360e+00 2.134765772422131747e+01 3.980298927273226894e+01
-2.369374264789485096e+00 2.144832366064882478e+01 4.033835992611228249e+01
-1.976611906532853569e+00 2.145753954996255786e+01 4.054661129650664719e+01
-3.845273097312993382e+00 2.160343620917489815e+01 3.938813902869468109e+01
-4.669581740205609677e+00 2.128358929585120052e+01 3.927775315623799202e+01
-1.239459076302020346e+00 2.139955583126613803e+01 4.106435380164383986e+01
-3.190802423014067024e+00 2.175046244160223807e+01 3.956145307130819333e+01
-2.351773626665406347e+00 2.196313268073495450e+01 3.977776446443571245e+01
-4.276825991227794610e+00 2.164071584374232415e+01 3.910707622187131705e+01
-2.723527691103794224e-02 2.122952417941153413e+01 4.204865642793167524e+01
-7.167096604790502701e-01 2.153282386598612774e+01 4.123682968383850778e+01
-1.381948772015969329e+00 2.149674750804258494e+01 4.086310242815085303e+01
-1.566435749834271585e+00 2.198138997391203375e+01 4.019434628441960200e+01
-3.604328773639548622e+00 2.191886742629016638e+01 3.915398032034070752e+01
-3.234343778710702999e+00 2.208270230574812842e+01 3.917221107278923853e+01
-2.846759022875836820e+00 2.219805702799223823e+01 3.925201878874878503e+01
-1.222707762639023921e+00 2.188019748191812397e+01 4.051952366196281474e+01
-4.365559332592554298e-02 2.152181628836724769e+01 4.167389610364565300e+01
-8.785731616927614507e-01 2.177888358065812469e+01 4.084508449256731666e+01
-1.846810994353932367e-01 2.176168012421107889e+01 4.129548501325118082e+01
-2.035063493289422709e+00 2.236327337374037327e+01 3.950816647213891031e+01
-2.426998623255477217e+00 2.230462945803042984e+01 3.936003995414312584e+01
-1.642551056375541885e+00 2.237231927998586656e+01 3.971645944002509765e+01
-9.398529185040732647e-01 2.227547627702985622e+01 4.023006694133916739e+01
-3.465840791536536347e-01 2.200752219790132713e+01 4.090397627453231877e+01
-1.268191062052108853e+00 2.236227217333093620e+01 3.993824443616522757e+01
-5.957753891836898852e-01 2.217433015605669766e+01 4.055539292655137729e+01
2.104234455668427017e+01 -7.295984933072942269e+00 4.049910532041341327e+01
2.099949301658984169e+01 -7.535345445715087465e+00 4.153654574281147660e+01
2.072232899443684673e+01 -7.796023595281997842e+00 4.056690887191117412e+01
2.123187198854270719e+01 -7.095507491010158319e+00 4.103003880022823324e+01
2.069358758456409220e+01 -7.955875784644786286e+00 4.125865420832856501e+01
2.070170096259805703e+01 -7.663111215745376015e+00 4.015909184209908034e+01
2.072891895686262842e+01 -7.431460046855392854e+00 3.986597164448605923e+01
2.130542883188748959e+01 -7.114875856010037580e+00 4.181443157967383684e+01
2.040181658148936705e+01 -8.296850720989427330e+00 4.063479329197195256e+01
2.073297980368617743e+01 -7.916530470396059727e+00 4.179243085142510239e+01
2.036087865976501732e+01 -8.030438860708180471e+00 3.981886123897750451e+01
2.085044409887285255e+01 -6.908955570100009602e+00 3.976997178861655158e+01
2.038740607608080424e+01 -8.376802846064922647e+00 4.098047352352717354e+01
2.123768302071282577e+01 -7.221067588926918468e+00 4.217243748230049505e+01
2.035432721596197325e+01 -8.447210054238878385e+00 4.178965799948655047e+01
2.086563535495172061e+01 -7.746739084185052526e+00 4.225289621536744988e+01
2.011718688030775581e+01 -8.477638248805744681e+00 4.003628531504917731e+01
2.041507548420333862e+01 -7.565371102532304270e+00 3.923198382455260713e+01
2.008160526315789340e+01 -8.797222276785714001e+00 4.070260269323169666e+01
2.099522271699778742e+01 -7.300133069663303331e+00 4.272001087582325596e+01
2.049388700648979622e+01 -8.272921917314736362e+00 4.233339646757164587e+01
2.001967248253788512e+01 -8.398065795121576471e+00 3.947819979694254755e+01
2.021797938338216838e+01 -8.622137691342933508e+00 4.124621028625053043e+01
2.012276036513501509e+01 -8.621435111529834217e+00 4.203494177747575833e+01
2.074470886793654500e+01 -7.786430137746051194e+00 4.252681346900800463e+01
1.983353112398448559e+01 -8.909224501674664509e+00 4.006727353345693388e+01
2.010150812671630050e+01 -7.699230613491374164e+00 3.859854259843178426e+01
2.037573688341570843e+01 -7.228903549825241193e+00 3.889617518603058244e+01
1.984694682513169894e+01 -8.176643874599996309e+00 3.866478236966480608e+01
1.960163511676559622e+01 -9.204318290297615945e+00 4.074826244430114741e+01
1.967573883208234520e+01 -9.087421935540508144e+00 4.033339708958321523e+01
2.021413313610200646e+01 -7.125780408887082196e+00 3.848001391742747757e+01
1.975104927750361128e+01 -8.971044879649213044e+00 4.173606386747528774e+01
1.995896409624464951e+01 -8.698999194478338026e+00 4.240573458787227423e+01
2.052595481167186975e+01 -7.913494382658909032e+00 4.298545656164584017e+01
1.967880975103990693e+01 -8.764801632817308175e+00 3.913784083714343609e+01
1.958568042380773022e+01 -9.021182277920786419e+00 3.943246450344892651e+01
2.032681032746883787e+01 -6.552109811327485822e+00 3.836140979544096297e+01
1.938076344174145049e+01 -9.320458046435071253e+00 4.143733481195783241e+01
2.055581306146822840e+01 -7.554185920305616975e+00 4.363740977888497952e+01
1.959239206505385056e+01 -8.654067191730359099e+00 3.873096527380936749e+01
1.926995541478624574e+01 -9.377565248443479717e+00 3.996425336550026941e+01
1.977558512638695731e+01 -7.748764653819285364e+00 3.807077545914722094e+01
1.972049416745116801e+01 -8.006062640135887420e+00 3.822295399762647605e+01
1.940212854480755666e+01 -9.222496093370230241e+00 4.195766587868391895e+01
1.912103859490333235e+01 -9.611963552585933712e+00 4.079394109134754842e+01
2.013936886242763080e+01 -8.053670916296223226e+00 4.336551764437658818e+01
2.095268214198968337e+01 -6.983022136910903122e+00 4.352478718842034056e+01
1.977931101449782503e+01 -7.247278628155561897e+00 3.780587980632692791e+01
2.004590194395485270e+01 -6.834178089424758795e+00 3.803603375848889101e+01
1.932492917960129120e+01 -8.650935311609227796e+00 3.821291512378607536e+01
1.901055726079189157e+01 -9.670080939832230271e+00 4.113839509858103582e+01
1.972306320012058478e+01 -8.552683165724594971e+00 4.309382144001173032e+01
1.933765232800556078e+01 -9.131863285714286960e+00 3.879714457814949213e+01
2.011117022366518725e+01 -6.362245412174605264e+00 3.789178285094382659e+01
1.880572331498208527e+01 -9.706589881806642950e+00 4.198052002468546107e+01
1.886239095721689552e+01 -9.745150264797985074e+00 4.016830747873920870e+01
1.942412179095391878e+01 -9.124902049531749881e+00 4.247799140993742384e+01
1.930642739228222382e+01 -9.051698959529074884e+00 4.282202889274032742e+01
1.996468828864744438e+01 -7.965232126040312721e+00 4.371165143326170011e+01
2.078980909197545301e+01 -6.949133401655092968e+00 4.382395015217424117e+01
1.886398596992832921e+01 -9.667843532385846927e+00 3.959491889392703001e+01
1.944982196114365891e+01 -7.798286210875358115e+00 3.754326207971362805e+01
2.043949403025312961e+01 -5.978448860769373319e+00 3.824277703374081483e+01
1.978304479677339955e+01 -6.745810539094914127e+00 3.754097443623398078e+01
1.872120186855576662e+01 -9.862934797823939448e+00 4.141035719748003174e+01
1.888947094398680804e+01 -9.550552097514804828e+00 4.255016129567186312e+01
1.864054173133843406e+01 -1.001954121969821898e+01 4.083956976308931530e+01
1.937308240501703338e+01 -8.376603674495905594e+00 4.378588070036231983e+01
2.039739997119650639e+01 -7.132980815417579556e+00 4.412935527215760345e+01
2.102380958888611673e+01 -6.344075490532739003e+00 4.401025760265626730e+01
1.933918883112377429e+01 -8.313128889293404100e+00 3.784706970171689733e+01
1.945465424268376964e+01 -7.129685857425327455e+00 3.718985660696046125e+01
1.951041691531477440e+01 -7.749824497328702044e+00 4.424080395661746223e+01
1.905227773379465361e+01 -9.157322556839085692e+00 3.827796043239239765e+01
1.890913281006428548e+01 -9.504819485087828923e+00 3.881706432580721611e+01
2.007939032233041843e+01 -6.056687240069006606e+00 3.770232660177350681e+01
1.849720946697002333e+01 -9.844417979596661539e+00 4.224213153006819255e+01
1.844454902956903197e+01 -1.009564468802514980e+01 4.017843076901576183e+01
1.987453222128619501e+01 -7.230974283494322030e+00 4.443105190254609482e+01
2.065647031843133163e+01 -6.186055270930808980e+00 4.454169713291304333e+01
1.895911399109899875e+01 -9.392919765520330699e+00 3.840019556646937104e+01
1.897790664636810476e+01 -8.272379000374780134e+00 3.716926886660508700e+01
1.912639400348325935e+01 -7.513408939326935432e+00 3.683885254306960633e+01
2.041175611151274083e+01 -5.267953053206642977e+00 3.804635139068430760e+01
1.971956752123108458e+01 -6.134872389624443478e+00 3.716230452141113005e+01
1.895822121429782214e+01 -8.619924057323645528e+00 3.747151152318021161e+01
1.810502373425940448e+01 -1.013822339271601614e+01 4.193424088869248578e+01
1.828358555541621655e+01 -9.914454980125054107e+00 4.267263244741486261e+01
1.808692738041375847e+01 -1.024564427496526697e+01 4.141534939353430644e+01
1.821463627643728955e+01 -1.024368025904077761e+01 4.044164468319986128e+01
1.883673509147316949e+01 -9.168951111415912791e+00 4.320522029947775167e+01
1.914624731234766131e+01 -8.268759057586306582e+00 4.405039323446357002e+01
2.023875410275491049e+01 -6.711986626792729282e+00 4.462123356776898930e+01
1.876681897247193476e+01 -9.182811643206470364e+00 3.775863193034552268e+01
1.845806212264641388e+01 -9.958092162457131025e+00 3.922561195300010439e+01
1.824863252183278561e+01 -1.017175652703951982e+01 3.951754544189815732e+01
1.948382821198800841e+01 -6.606448800438088576e+00 3.699920888504763639e+01
1.912412731855254222e+01 -7.847802996357165384e+00 3.701585190523663016e+01
1.994680628064109129e+01 -5.440919715420271530e+00 3.736409195989610055e+01
1.806816542932708813e+01 -1.035314821816049147e+01 4.089645571032421145e+01
1.878227654260829382e+01 -8.787411808942380276e+00 4.385993599102596363e+01
1.961507813514487353e+01 -7.087589970987877130e+00 4.468237488098873911e+01
1.898757623650582360e+01 -7.898716428367259290e+00 4.441686559620209351e+01
2.042387784920068938e+01 -6.133893348196814976e+00 4.471852126356916557e+01
1.848088962029632398e+01 -9.876475684838450064e+00 3.883697158850867481e+01
1.919377397382314143e+01 -6.977980889653250252e+00 3.670382526869672546e+01
1.779103326659513229e+01 -1.046749767234510387e+01 4.004428497947942134e+01
1.835408634587697918e+01 -9.250691112615434974e+00 4.362438888433269568e+01
1.998315026628358382e+01 -6.302717062111309332e+00 4.492926889675754154e+01
1.858065591842468223e+01 -9.653924470412807324e+00 3.800333595961348010e+01
1.958635502650014004e+01 -5.764659959745089601e+00 3.687615211987462516e+01
1.857695469366923646e+01 -8.926960142616298555e+00 3.709565129752304102e+01
1.879789867182869401e+01 -7.897407287779850904e+00 3.648757212005376971e+01
1.886542154031517526e+01 -7.361622186455991645e+00 3.635265618727088821e+01
1.935991260988482310e+01 -6.213027126105580500e+00 3.662254139528452157e+01
1.771260811072081864e+01 -1.043213304604615033e+01 4.162624629779889318e+01
1.769482490282174680e+01 -1.035471115380415874e+01 4.221065251793800144e+01
1.749898400715157720e+01 -1.068634381697248692e+01 4.095325857025827077e+01
1.771580036630646049e+01 -1.053670656031245123e+01 4.051077330875320115e+01
1.821979392428495004e+01 -8.908913427709697075e+00 4.378192070176920225e+01
1.899142887594501516e+01 -7.463177356778403215e+00 4.474313282269469738e+01
1.857530022807029013e+01 -8.312902256735679174e+00 4.433170592331196502e+01
1.822351885864832255e+01 -9.991625311642851059e+00 3.818281330720883915e+01
1.805278102782369487e+01 -1.024788396561462278e+01 3.885687598146637356e+01
2.038404342235666178e+01 -4.557987583392794306e+00 3.785003469957394628e+01
1.954308692455757068e+01 -5.313553343468777612e+00 3.671171827111261621e+01
1.849697453277806147e+01 -8.565413982667875459e+00 3.660374707384112725e+01
1.893289563274390019e+01 -6.826289693655573032e+00 3.621779476921246754e+01
1.848122944658577893e+01 -9.208328159244192790e+00 3.723907465940367700e+01
1.792513853331461959e+01 -9.714742151589158325e+00 4.338845057271166183e+01
1.806446529598856188e+01 -8.552921623034919207e+00 4.413579339309497129e+01
1.836827621942184408e+01 -7.838458882906048864e+00 4.480340664396019434e+01
1.938827665499420405e+01 -6.379702505148062031e+00 4.512893280836622267e+01
1.736841972820625557e+01 -1.069131397359442204e+01 3.964693451535260493e+01
1.981422537032011988e+01 -4.825163730473726709e+00 3.702583059598556758e+01
1.972789561213899390e+01 -5.894121517236121655e+00 4.523687950283309078e+01
2.014462343477059392e+01 -5.397071348677028091e+00 4.516121946982890734e+01
1.904829649487676946e+01 -6.865871860839198426e+00 4.502067334322036629e+01
1.735462246147406518e+01 -1.061947004733541711e+01 4.187423227253307090e+01
1.767635574358635964e+01 -1.027799819642261347e+01 4.279503047404747917e+01
1.765662993868436104e+01 -9.030540846572993274e+00 4.370366176559353022e+01
1.790910172448874960e+01 -8.196947440252127848e+00 4.448964498990910954e+01
1.820226165268346818e+01 -9.914887537798668049e+00 3.760654155635418050e+01
1.753972164691084501e+01 -1.054481904245035295e+01 3.885496985737642461e+01
1.927155994685499962e+01 -5.802643090271807580e+00 3.639714327652514214e+01
1.900034710007440353e+01 -6.291168068265006852e+00 3.608292018346237739e+01
1.837869464506862016e+01 -8.125325182464544937e+00 3.609728522364859771e+01
1.819588857148495009e+01 -9.233835194805195101e+00 3.671998154810997050e+01
1.839924996944571944e+01 -7.886135610392769557e+00 3.592978899876904819e+01
1.857349060248873940e+01 -7.138617307348699370e+00 3.585253962635666625e+01
1.915175247739172804e+01 -6.211716344779764754e+00 4.523894439470314666e+01
1.749641420513741608e+01 -1.017851053696073826e+01 4.315265910208617584e+01
1.732032356330672940e+01 -1.072588735278962879e+01 4.131841173997235472e+01
1.725215447675346780e+01 -1.079199256535877183e+01 4.026029510419345314e+01
1.870837023354316031e+01 -7.352024341380701600e+00 4.491219976234141598e+01
1.744949925872213115e+01 -8.555777611421982343e+00 4.417550528121780218e+01
1.729472045201502439e+01 -9.665395188906051871e+00 4.338908880520245503e+01
1.785019400112340904e+01 -1.031194659339701403e+01 3.817597417741394850e+01
1.936403135881590742e+01 -4.794624284511407986e+00 3.637511472875696228e+01
1.813201573765676500e+01 -8.698193713071374233e+00 3.621237916893220898e+01
1.864090298807111878e+01 -6.603437181229256936e+00 3.571762183446689676e+01
1.983585505873222132e+01 -5.334250914165088453e+00 4.526440960673647140e+01
1.702199197705150269e+01 -1.076697956804920686e+01 4.228245814822609105e+01
1.692742476231146398e+01 -1.102005150126422350e+01 4.101014745537479911e+01
1.818381387574138586e+01 -7.342480011335808854e+00 4.502280576646226251e+01
1.767150340756799665e+01 -7.994472660893919169e+00 4.474667408557191095e+01
1.857560739342197564e+01 -6.529326925228419398e+00 4.524067631917748145e+01
1.709300381358794141e+01 -9.152239938072094461e+00 4.362517757961346376e+01
1.757252577124204862e+01 -1.042003803557616592e+01 3.842042557202985620e+01
1.694486698685655668e+01 -1.091547097989180060e+01 3.924898066802558816e+01
1.917936165954314376e+01 -5.293420351975100857e+00 3.618669159429159521e+01
1.957557133201882493e+01 -4.133307308582856443e+00 3.657711597058565189e+01
1.795933947609407610e+01 -8.353324595103728711e+00 3.570686430456307647e+01
1.782238826597846426e+01 -9.184639032979335482e+00 3.617404400872872117e+01
1.819192689580442845e+01 -7.402444383968589392e+00 3.543584244790562110e+01
1.893164113869067933e+01 -5.666620136605163616e+00 3.588850116790828793e+01
1.782005323481347148e+01 -9.835735378290802799e+00 3.676584321314857817e+01
1.934501704461374061e+01 -5.453077004423276364e+00 4.539499816274447141e+01
1.832034396083368932e+01 -6.235315406578760822e+00 4.534599137299483118e+01
1.864116412160624847e+01 -5.623756099885421023e+00 4.544965515776128484e+01
1.706851932179003484e+01 -1.064134998834796342e+01 4.291734165396363210e+01
1.698990417129146735e+01 -8.914595773419545566e+00 4.386127827978338445e+01
1.756904718012002675e+01 -7.211684118998940463e+00 4.508996004407001834e+01
1.799946027480558186e+01 -6.846945041509053809e+00 4.524204206043572896e+01
1.764738798135305231e+01 -1.037504224704860611e+01 3.749435668575613789e+01
1.665662619029417613e+01 -1.109973663366430152e+01 3.956979041528551733e+01
1.702800611910155482e+01 -1.084219917637637742e+01 3.885305886617032201e+01
1.855438767276731582e+01 -6.311777596603205254e+00 3.550920764335867830e+01
1.828155998827468309e+01 -6.915621698342937052e+00 3.535241640168933230e+01
1.800054080249403299e+01 -7.874866500631041433e+00 3.537192940993082146e+01
1.994375379863319608e+01 -4.774263784024766366e+00 4.529184308443961982e+01
1.896201328325330593e+01 -5.012061111088933707e+00 4.555311309261094976e+01
1.697502457379425067e+01 -1.089254249700907451e+01 4.164705957409713477e+01
1.679940042283733703e+01 -9.958246599687786471e+00 4.323198865370135735e+01
1.679200292972078401e+01 -1.105990936346975140e+01 4.028932350655499306e+01
1.689145568767746752e+01 -8.538647652840616331e+00 4.428337158490472802e+01
1.713866423876892853e+01 -7.576449031110141341e+00 4.493768967757876709e+01
1.766907582940021726e+01 -6.369427384774920320e+00 4.540275262511918442e+01
1.697468904854880378e+01 -8.150466105626133384e+00 4.468963324513892843e+01
1.652975771441825970e+01 -9.273824238256953123e+00 4.354656981871810473e+01
1.709204243599494077e+01 -1.059227830875181020e+01 3.798377200620971905e+01
1.774246248816107041e+01 -9.418633917561825442e+00 3.631326149649166979e+01
1.712545991911446208e+01 -1.068537781823160593e+01 3.844590031785341466e+01
1.782365399469187750e+01 -1.017600081735312045e+01 3.720952849480033109e+01
1.918498050392190990e+01 -4.275747279393693923e+00 3.603848611485366149e+01
1.886292234805387835e+01 -5.041948405465998206e+00 3.569400052289257985e+01
1.778591730233535984e+01 -8.789319783102644834e+00 3.581390606777174668e+01
1.936112138427429485e+01 -4.559561989540834581e+00 4.548446565212749704e+01
1.842092016282710176e+01 -5.305193699225693393e+00 4.555698293347668937e+01
1.787984239476224602e+01 -5.598329696339389372e+00 4.556047287682927305e+01
1.659686189789917421e+01 -1.080713701986148223e+01 4.193815682490715346e+01
1.661308175129095233e+01 -1.069508257462346279e+01 4.249595754293216032e+01
1.645895530420911967e+01 -1.111121034623453596e+01 4.062493463945941130e+01
1.729921524070878291e+01 -7.026549709462534210e+00 4.519376860339203716e+01
1.670806902318266296e+01 -7.941418607833235832e+00 4.478511558701831774e+01
1.652119680958988113e+01 -1.113955832618417574e+01 3.885115207129739190e+01
1.754029163269623837e+01 -8.581157409846005280e+00 3.531673716466677604e+01
1.792222304521415666e+01 -7.227801458635072507e+00 3.498720665022548815e+01
1.854755826124520723e+01 -5.433493687733499833e+00 3.535200517160166811e+01
1.904945244615075950e+01 -4.291658318144488504e+00 4.559018008683379009e+01
1.630288698965017957e+01 -1.089388042328504724e+01 4.141012709990108931e+01
1.640161619067304244e+01 -1.055366436283063614e+01 4.266704308461478945e+01
1.627859411763372322e+01 -1.100654029559771097e+01 4.085399883804471699e+01
1.640356679635592840e+01 -8.790209635092951501e+00 4.408937705358778913e+01
1.627728321369280096e+01 -8.306542542453755118e+00 4.463220959845762081e+01
1.599728196295412985e+01 -9.527943115578921152e+00 4.313829790175055479e+01
1.728912526753219936e+01 -9.603397852205084462e+00 3.590662708707684203e+01
1.706543520669473324e+01 -1.036777107879080440e+01 3.628050847879651286e+01
1.810822008235088632e+01 -6.332399482980881622e+00 3.493522803432382062e+01
1.744426700115996809e+01 -1.043765554940724449e+01 3.681170594748677161e+01
1.661148387208845634e+01 -1.076454968311758442e+01 3.754704870766799729e+01
1.667229724821713788e+01 -1.089578974081443619e+01 3.823111567362150254e+01
1.613649554092392790e+01 -1.119045746125689611e+01 3.961622735180944943e+01
1.744898298539184012e+01 -9.135462569984019510e+00 3.562825510362255699e+01
1.760213018701914223e+01 -7.863610044453205994e+00 3.481449757094737407e+01
1.813584930823497388e+01 -5.766376408912917029e+00 3.487538510829623561e+01
1.852865063416102487e+01 -4.532682412498888702e+00 4.569876720231108891e+01
1.733840343061920564e+01 -5.891665576704041563e+00 4.556355207778292993e+01
1.759075340851643787e+01 -5.278928248367529719e+00 4.565739114025127066e+01
1.685840114909921539e+01 -6.389777274161376752e+00 4.540792382353172485e+01
1.615725062022703185e+01 -1.074882707541680915e+01 4.207415136601892414e+01
1.599112077455201586e+01 -1.120224938319354990e+01 4.024024322100851947e+01
1.659896881767877375e+01 -7.206159479400648493e+00 4.514492936783757671e+01
1.608788194453450870e+01 -7.845834019284105842e+00 4.486399203348438647e+01
1.610899171997195722e+01 -1.005346024768582325e+01 4.285311784317730854e+01
1.847886600097991305e+01 -4.809338991659836360e+00 3.515760999020442767e+01
1.879430733194526937e+01 -4.418246774193548276e+00 3.549974925010977955e+01
1.784289839558247337e+01 -4.666288474184830726e+00 4.575097033552479786e+01
1.596723755795923516e+01 -9.318121843303227791e+00 4.344279001518341943e+01
1.570105433139501372e+01 -1.080244126039955432e+01 4.165193757561774390e+01
1.573369011708742526e+01 -1.046573275635221201e+01 4.241602148728738797e+01
1.563061677688783035e+01 -1.099305002965100897e+01 4.069799604755211675e+01
1.587224105254091633e+01 -8.955340027813004866e+00 4.384986738486732349e+01
1.589872188678099185e+01 -7.385761682667656203e+00 4.509544618691065665e+01
1.572544068249505145e+01 -8.376152982164251526e+00 4.452421481913764012e+01
1.544227083360967079e+01 -7.685168282053734146e+00 4.487180608888665745e+01
1.816347906742899454e+01 -5.200380456618733049e+00 3.481551160127519040e+01
1.684641512169528710e+01 -1.066135794447325047e+01 3.676554950474400130e+01
1.592103786736489823e+01 -1.124627250563256986e+01 3.881373319614863249e+01
1.630274074664399819e+01 -1.113193470408938168e+01 3.830718934018119626e+01
1.600343032610998861e+01 -1.120656958760381805e+01 3.845216598440698874e+01
1.767793733301961367e+01 -6.919537022044057295e+00 3.456800072050984340e+01
1.731449254887566980e+01 -8.320479813225878374e+00 3.479268733422058801e+01
1.756272388381547245e+01 -7.540125391238841068e+00 3.462182298411010350e+01
1.668694483873430201e+01 -6.060579778255350547e+00 4.552355104628397697e+01
1.696723485216816840e+01 -5.371792274024802083e+00 4.571258797346607849e+01
1.546442905876831730e+01 -9.782123908773645127e+00 4.272970375161687429e+01
1.540386128151337175e+01 -9.362412255948852291e+00 4.333860051857002560e+01
1.577720884089434783e+01 -8.592569594709173586e+00 4.425691133464636096e+01
1.683513690899205528e+01 -9.788426761144624066e+00 3.549941317356057624e+01
1.668625862888051969e+01 -1.029783999152482110e+01 3.574883773297594303e+01
1.693061354478546221e+01 -1.047604319211008850e+01 3.642404772656760770e+01
1.707564107112150253e+01 -9.086298097388771922e+00 3.508256803754236586e+01
1.840477437789046178e+01 -4.463295491294292816e+00 3.502933607172505504e+01
1.608333110027074397e+01 -1.112433685272384665e+01 3.776225614716786083e+01
1.552328561132291362e+01 -1.129329224943427334e+01 3.985555057659699685e+01
1.712111097732269371e+01 -8.809062659404716555e+00 3.492649390133761500e+01
1.709536859374517093e+01 -4.585756426423363230e+00 4.585631595416258932e+01
1.637849003412150850e+01 -6.887834094576260391e+00 4.525191540239075039e+01
1.603554308321327326e+01 -6.229490527525584298e+00 4.548295268819096293e+01
1.524519841685992994e+01 -1.085660779468753567e+01 4.122996089533634745e+01
1.527662469883995655e+01 -8.878828797512220206e+00 4.388106820743467296e+01
1.519642449266285844e+01 -7.471827105643912503e+00 4.501499698177953945e+01
1.613085213768893311e+01 -1.093685178747606912e+01 3.711026278654154709e+01
1.766258069766672634e+01 -6.352998986479144072e+00 3.436192876052798084e+01
1.801524660456903959e+01 -4.508347012029732426e+00 3.455892907354169097e+01
1.784809258042905356e+01 -5.591433290369804077e+00 3.447339605998978840e+01
1.563561836058649490e+01 -1.128546479766141530e+01 3.931601891560022466e+01
1.532073965387526293e+01 -1.135299104363012646e+01 3.877631706070091155e+01
1.865898871623288002e+01 -3.845782855642558840e+00 3.529764351833048863e+01
1.720334603691796005e+01 -7.852345044342718516e+00 3.425655330856099567e+01
1.759489531277190011e+01 -4.319674504597132092e+00 4.585056645068474523e+01
1.619205606937300601e+01 -5.367162834829550810e+00 4.572208303473992430e+01
1.493229135730889112e+01 -1.003609181830565511e+01 4.232161162169884250e+01
1.506717357486257747e+01 -1.057857610087548039e+01 4.172308928386047455e+01
1.498221243852074203e+01 -1.097955283900142831e+01 4.054181705363811261e+01
1.488609317116416619e+01 -9.721223308567401133e+00 4.277789979669935860e+01
1.564151701673096539e+01 -6.892486177796724789e+00 4.526841706147497035e+01
1.498527550914124795e+01 -7.984907400200185634e+00 4.464759192974926094e+01
1.624861382723184988e+01 -1.088505943149068145e+01 3.671939921212114655e+01
1.641711342451156597e+01 -1.051442375740882440e+01 3.603650854810647530e+01
1.721032116451391403e+01 -7.112808645547209707e+00 3.402280310414879239e+01
1.779386587961135646e+01 -5.042557001446954956e+00 3.434722023775653810e+01
1.493548616817464492e+01 -1.115570043087359586e+01 4.005244138957733213e+01
1.695251029946569687e+01 -8.444773737565181904e+00 3.439635368400503523e+01
1.659577363183834819e+01 -4.851862814853467931e+00 4.586161604863585239e+01
1.578794311336780254e+01 -5.882863081936182681e+00 4.558208090067180507e+01
1.506687028376023108e+01 -1.037766077142646992e+01 4.216500337284203681e+01
1.478200387323024678e+01 -1.070901091675889560e+01 4.124739884013678193e+01
1.478934074321304060e+01 -1.091127507417037990e+01 4.080789413604039595e+01
1.517380565894129241e+01 -8.445703840166837395e+00 4.441584439217797353e+01
1.477609973786556452e+01 -9.164962083708784846e+00 4.350507844303314897e+01
1.483987982166136455e+01 -9.406660825347165300e+00 4.323400453078967587e+01
1.638167811162519527e+01 -9.973240854642087427e+00 3.509268012676248816e+01
1.630735244060937816e+01 -1.022797090481185833e+01 3.521755511512225212e+01
1.670175413061252456e+01 -9.037065966256106364e+00 3.453609607869620390e+01
1.753270470206100740e+01 -5.982496873732941367e+00 3.413126185478439112e+01
1.825589686658781829e+01 -3.833573411378140783e+00 3.480698782944202918e+01
1.586536462525078761e+01 -1.111677970874696442e+01 3.721732585400226156e+01
1.548556282206716794e+01 -1.127358994395150305e+01 3.805316642634473823e+01
1.541570202089803843e+01 -1.122868243931557863e+01 3.743574775333782156e+01
1.505545180764405089e+01 -1.138433852414174119e+01 3.947085833039970737e+01
1.724072808511812838e+01 -3.923288995478494190e+00 4.597851207401085105e+01
1.538383939557797220e+01 -6.398485067085913691e+00 4.544165864638530650e+01
1.469933966094908229e+01 -8.840068785701696186e+00 4.390614054008621281e+01
1.485250306628068273e+01 -6.814168535168699137e+00 4.524539225966547207e+01
1.449411626591883184e+01 -7.557869375993830907e+00 4.493367818489695509e+01
1.564989348010242232e+01 -1.110912487361355971e+01 3.667318065573680030e+01
1.599821010840623359e+01 -1.076240538233683175e+01 3.621063423149098526e+01
1.590361708436144461e+01 -1.055280663581523015e+01 3.564897264599451177e+01
1.631499436742630493e+01 -9.597515243282122910e+00 3.461101114151543356e+01
1.721730356975216125e+01 -6.373583561694020183e+00 3.378909649544507943e+01
1.742725751735384065e+01 -5.301534416026291829e+00 3.392816944017511105e+01
1.493016579520029730e+01 -1.138648463570766900e+01 3.822510746326916120e+01
1.681245978611403658e+01 -8.013479406665691585e+00 3.387061122104501720e+01
1.674129338290850200e+01 -4.189327398345114695e+00 4.598412929741824229e+01
1.600087524525288885e+01 -5.009972265627963495e+00 4.583161304466018748e+01
1.509776417617046995e+01 -5.862256427809716897e+00 4.560569508493969693e+01
1.540620311437655587e+01 -5.168025998587879144e+00 4.580100773997946817e+01
1.440030856494729505e+01 -1.029059878447751153e+01 4.191358467229877505e+01
1.437804298454573448e+01 -1.051551848419405566e+01 4.140464079159228561e+01
1.435563496806607020e+01 -1.074081149518326761e+01 4.089490791022738136e+01
1.433810186532548059e+01 -9.870903726340733542e+00 4.252134624539589680e+01
1.433310435405683947e+01 -1.096604341705768704e+01 4.038537614898395844e+01
1.427584496244227452e+01 -9.451034590412120906e+00 4.312906926107031325e+01
1.452779552062469648e+01 -8.284909435666701683e+00 4.442277140498910626e+01
1.679034318395710557e+01 -7.800731583107410216e+00 3.369104486785263930e+01
1.496761681239931541e+01 -1.134061583666850126e+01 3.765417536059133141e+01
1.462552633595584162e+01 -1.129712628739634539e+01 3.957861312017760014e+01
1.426212867475332402e+01 -1.116631075473426726e+01 3.982376797192641504e+01
1.472031674553546843e+01 -1.145971432684908820e+01 3.873889358738257016e+01
1.458762068529858347e+01 -1.147538791748566744e+01 3.908616755410604071e+01
1.657557575478609380e+01 -8.477842570561325175e+00 3.392727185850539229e+01
1.629324536222173947e+01 -4.422296750867753978e+00 4.599255446495065058e+01
1.462257647750739409e+01 -8.515164931475899479e+00 4.430707777524439450e+01
1.417319507740927520e+01 -9.017855381995076414e+00 4.366334042154345241e+01
1.592820076207658175e+01 -1.015806512415404050e+01 3.468593863046866943e+01
1.572343908960604963e+01 -1.037311023546959099e+01 3.503042798818214010e+01
1.624729205896060336e+01 -9.121160460882595800e+00 3.412381107842051620e+01
1.709355244791094464e+01 -5.797558951315636477e+00 3.357516575957519223e+01
1.680100792535478860e+01 -6.691701761661220438e+00 3.334072199391279412e+01
1.502676883479547065e+01 -1.127902485107610886e+01 3.713661363131758009e+01
1.442019993936060374e+01 -1.146337173941046039e+01 3.799136624765426262e+01
1.633869731588307772e+01 -8.942217977266084361e+00 3.398391719278787804e+01
1.473160981892349675e+01 -6.474598290730869898e+00 4.537511384457054220e+01
1.481152246891960012e+01 -5.326084750509815002e+00 4.576971907904515291e+01
1.569847963270792057e+01 -4.580409051692042155e+00 4.596237511349174554e+01
1.394272790323343614e+01 -1.067118874419634444e+01 4.086942102898635198e+01
1.386469969381792033e+01 -1.100225955054446914e+01 3.997927897040212741e+01
1.407050425888339085e+01 -8.584686536705746107e+00 4.419759889011997700e+01
1.383811115115724988e+01 -9.598674690983285629e+00 4.277585570866549602e+01
1.432209662303328024e+01 -7.229093062207966547e+00 4.504878574505005417e+01
1.393112267309632202e+01 -8.114201306957673054e+00 4.452455826513578074e+01
1.532782028931137930e+01 -1.099870165531145716e+01 3.612595434436022401e+01
1.590061184747495560e+01 -9.552106200560796623e+00 3.412875241329439291e+01
1.682352369969120787e+01 -6.333303313876453622e+00 3.332615536338320794e+01
1.673254765858050774e+01 -7.266463878273460075e+00 3.343870943498142623e+01
1.419105881845946016e+01 -1.136636981058408047e+01 3.926266545634119609e+01
1.642166412948504828e+01 -8.174578653436867626e+00 3.348476350021859105e+01
1.599058449796660319e+01 -3.992850535512112220e+00 4.612343189435905799e+01
1.407917312595432158e+01 -6.550726013401327208e+00 4.530767507969976293e+01
1.510387481291405898e+01 -4.738425927357176271e+00 4.593160124173145675e+01
1.390417061493854867e+01 -1.038494264673926892e+01 4.148781226756430129e+01
1.369928860418700189e+01 -9.989453867776306950e+00 4.215070845764736163e+01
1.372929353685676723e+01 -1.091516017907714975e+01 4.023512805445449914e+01
1.373310844883626203e+01 -9.459035852796070287e+00 4.302107558417856126e+01
1.365621420744218995e+01 -9.133868441121618886e+00 4.342150802167039814e+01
1.509573471439395931e+01 -1.111021717371843209e+01 3.626263720646136335e+01
1.509000930527968265e+01 -1.121749145846312956e+01 3.661906602768205943e+01
1.539002004380187927e+01 -1.059119924533288248e+01 3.526136225569558036e+01
1.696967498743608971e+01 -5.220983112817359384e+00 3.336098019891815625e+01
1.444957635489829428e+01 -1.140764859127353326e+01 3.725518830372978840e+01
1.382765818319666096e+01 -1.118371598727307870e+01 3.948867801125572896e+01
1.411978752140345605e+01 -1.156644116161248981e+01 3.870147458963701581e+01
1.597562697632475626e+01 -8.847372030263521481e+00 3.343172586956635683e+01
1.435020616896774825e+01 -5.759485233718698360e+00 4.559363825645451840e+01
1.539592303855326527e+01 -4.150906920313798487e+00 4.609309408413087539e+01
1.382226657394465974e+01 -1.026532416690353600e+01 4.177630970690706391e+01
1.340833656210911329e+01 -1.047925462974042965e+01 4.106227045764162398e+01
1.342371363862733880e+01 -1.070068306655580948e+01 4.057771492716295825e+01
1.340062309997023604e+01 -9.746241689269348640e+00 4.242278189016873569e+01
1.379180595523558850e+01 -7.643881561019938431e+00 4.485133018225425161e+01
1.500596089082437956e+01 -1.088840203119667827e+01 3.557908604236288141e+01
1.540624874383714982e+01 -1.032806788802151665e+01 3.461927351157338251e+01
1.579276544989298792e+01 -9.205267140788457425e+00 3.371146813864880443e+01
1.555395121390332669e+01 -9.983054831351564573e+00 3.413369361429814575e+01
1.669965112253978035e+01 -5.756981266800151431e+00 3.311203347720223888e+01
1.642963109119316201e+01 -6.293013884259489821e+00 3.286308591378381294e+01
1.637720899722217993e+01 -7.749111247383098977e+00 3.312536368916650531e+01
1.723592696920701073e+01 -4.598483902313924787e+00 3.361779566256934260e+01
1.453088254550113767e+01 -1.132556767391334596e+01 3.656502047144000045e+01
1.376771700694587075e+01 -1.155403892771036212e+01 3.757942934715860162e+01
1.339705104944006031e+01 -1.103843041519520085e+01 3.957384064546678104e+01
1.388853187577212900e+01 -6.193126773358714310e+00 4.541683743733882039e+01
1.421703262045470773e+01 -5.391308212422653234e+00 4.571915655710707682e+01
1.446424010356309253e+01 -4.662592782460254881e+00 4.598546141418933786e+01
1.360932953762343622e+01 -7.135504624199765722e+00 4.504520864323470164e+01
1.568764704742380367e+01 -3.563378572815417922e+00 4.625429420341016851e+01
1.357932468727501529e+01 -8.809070112652994666e+00 4.382180798287721046e+01
1.338542886705300639e+01 -8.612358480337427125e+00 4.405441135670162822e+01
1.319127613179729508e+01 -9.467026825190302475e+00 4.291275267947793992e+01
1.454204679657913957e+01 -1.111132553307918513e+01 3.585244075220855819e+01
1.546207105764057665e+01 -1.014378813115635403e+01 3.430451449596436930e+01
1.487650960741939343e+01 -1.062958667008819447e+01 3.487381778054264458e+01
1.638470891628675119e+01 -7.009824730895703127e+00 3.289235263002582599e+01
1.684561733529575633e+01 -4.643630459007454192e+00 3.314644425256894067e+01
1.351774501218175750e+01 -1.129240139180372182e+01 3.900253660612897022e+01
1.394404614518675878e+01 -1.156022313101698629e+01 3.814054306009285966e+01
1.603072324458616649e+01 -8.335736299395598792e+00 3.309877438388183180e+01
1.342671195015918961e+01 -6.626845550435057852e+00 4.523921560375538320e+01
1.487208942957582991e+01 -4.295976145849736305e+00 4.607562623314457539e+01
1.516391405942139947e+01 -3.708511916513185902e+00 4.623725678303343045e+01
1.324335760114972693e+01 -1.024001535086876125e+01 4.163851658487458707e+01
1.291251180637805973e+01 -1.057358874666989657e+01 4.063670184542759500e+01
1.296297248471878127e+01 -9.893875574691547214e+00 4.206950349372281295e+01
1.312543897712632024e+01 -1.086429199389758082e+01 4.008475204158944649e+01
1.334774107975787238e+01 -7.899816150177639607e+00 4.458050269581065805e+01
1.468438178144304018e+01 -1.077822507886696535e+01 3.503269032331825628e+01
1.517941062179206213e+01 -9.807912230962028133e+00 3.358102488870650859e+01
1.644587618403335938e+01 -5.025557711236871228e+00 3.272789525800707366e+01
1.393132844290376049e+01 -1.147470156521653983e+01 3.685612213816182248e+01
1.365308300357416904e+01 -1.153908254111103560e+01 3.830580246492610286e+01
1.347169866234075997e+01 -1.147063730591809971e+01 3.851424114849809399e+01
1.362228224352570827e+01 -5.456554563205414432e+00 4.566773556877392792e+01
1.391352700804149833e+01 -4.991879741596615183e+00 4.584437243099124970e+01
1.308849049961171040e+01 -9.033631059416336484e+00 4.344600487649073983e+01
1.313272453342505841e+01 -7.657670695110224024e+00 4.472375192662387633e+01
1.398008644421409308e+01 -1.127396210224784312e+01 3.597663970911178666e+01
1.488445812750938479e+01 -1.049802605130501476e+01 3.455263462774395578e+01
1.533855062505827682e+01 -9.289315968987242655e+00 3.329940803126870463e+01
1.499594113522789307e+01 -1.012951254513792954e+01 3.392309333936441362e+01
1.623776737113488977e+01 -5.850356562122200899e+00 3.258611259649534020e+01
1.615910337251442641e+01 -6.676086561921487750e+00 3.259179675740546855e+01
1.642991158185034095e+01 -4.636683081386274274e+00 3.267251262813515211e+01
1.397173348776274793e+01 -1.143365462164498858e+01 3.651097659824283426e+01
1.359067415601010431e+01 -1.154789109627986576e+01 3.701816414558539492e+01
1.292922146158649710e+01 -1.107462877532097245e+01 3.916824639628886473e+01
1.596466978204235154e+01 -7.697571466374013127e+00 3.256050386918374784e+01
1.561248420203301990e+01 -8.752511585768752767e+00 3.287943268720333378e+01
1.322702526492810726e+01 -6.074584882912986927e+00 4.542716251796373683e+01
1.288890949344467529e+01 -6.979886354444253094e+00 4.498208380542384788e+01
1.411636863543843745e+01 -3.998761311753222802e+00 4.620132439541129798e+01
1.464014959835651553e+01 -3.853642324765583993e+00 4.621961937728709557e+01
1.535747517738731815e+01 -3.105890228556944521e+00 4.637636393237731625e+01
1.375326669797603785e+01 -4.506780435788865447e+00 4.600639923148956711e+01
1.278855203430819110e+01 -1.039413068146181551e+01 4.106870857653742490e+01
1.273744926743330197e+01 -9.651376201685316403e+00 4.248726498896625259e+01
1.280496006735341830e+01 -1.094791694230264945e+01 3.958186731677063364e+01
1.290346915634079039e+01 -8.155829581525566141e+00 4.430890495726897882e+01
1.436262670094936489e+01 -1.066800299180327904e+01 3.448599306650585561e+01
1.603525756381609568e+01 -6.252678692887107204e+00 3.239945692480939954e+01
1.315554688159794949e+01 -1.151613254029995304e+01 3.726621071708862587e+01
1.282341273332450626e+01 -1.137483852553260988e+01 3.832692901012022446e+01
1.318623318421518142e+01 -1.151172880838959678e+01 3.791001494417778872e+01
1.269961816405281141e+01 -8.639987252841935472e+00 4.390969465838492880e+01
1.563998797297812793e+01 -8.496810276777630122e+00 3.271299236203627459e+01
1.280272314965706038e+01 -6.619269057545127843e+00 4.513109148784582203e+01
1.483392885340131961e+01 -3.251022919208656603e+00 4.635912006193392187e+01
1.339029857105390775e+01 -5.014241394477882530e+00 4.581119077807993278e+01
1.266459642596060853e+01 -1.021471411955537256e+01 4.150037573894933018e+01
1.247170930171645331e+01 -1.047697249165978128e+01 4.073683425385986823e+01
1.241556065289025135e+01 -1.066816001735259967e+01 4.021012515385561414e+01
1.264927640672945763e+01 -9.475016656068307341e+00 4.280385683317229706e+01
1.259722525936843418e+01 -9.258498480880561488e+00 4.306999735484707514e+01
1.252194104668069485e+01 -1.081346626096616070e+01 3.993430763486199453e+01
1.398845627884252885e+01 -1.111244396193584194e+01 3.544231364149846542e+01
1.409210410319606055e+01 -1.089463546951921025e+01 3.491417615973640665e+01
1.596845554246658416e+01 -7.327914894719093297e+00 3.244404110424860477e+01
1.480478960717351100e+01 -9.632734148218029091e+00 3.302824207846794025e+01
1.454642829745363386e+01 -1.035639676178259094e+01 3.402163342825503634e+01
1.604590438588667567e+01 -5.407733210035295279e+00 3.230911730771204304e+01
1.601421056990818315e+01 -4.629737573292739050e+00 3.219859361043934598e+01
1.341279250186153504e+01 -1.154178399566046131e+01 3.645692078932027158e+01
1.245826601558801272e+01 -8.411801970765029779e+00 4.403646601516145154e+01
1.302704542421126988e+01 -5.521848835918215848e+00 4.561531151436836495e+01
1.235170640792314778e+01 -7.332525150211654186e+00 4.472377497648376732e+01
1.431030149676955254e+01 -3.396161005127021237e+00 4.634126099357112594e+01
1.247353741002512173e+01 -7.671439526199300474e+00 4.459459787951563214e+01
1.252491406247018801e+01 -1.004166559389823377e+01 4.171579968937906813e+01
1.209650880071701806e+01 -9.835967162856116275e+00 4.202894942136899203e+01
1.356488821445798365e+01 -1.127478324418328803e+01 3.566903589961565757e+01
1.488452195990328342e+01 -9.373331383538786810e+00 3.288751775681680556e+01
1.452997634587399922e+01 -1.011524064026512271e+01 3.354180453821790309e+01
1.574274479993444942e+01 -6.703905061710527136e+00 3.211034982920440228e+01
1.230728451752268704e+01 -1.096138275550341312e+01 3.924613021476499597e+01
1.246161621646553641e+01 -1.111082219645670044e+01 3.876284907800898338e+01
1.271940937072854894e+01 -1.148438962163217880e+01 3.751425720232651173e+01
1.238487812272605026e+01 -8.030311849988635231e+00 4.430932526173948105e+01
1.555215534568775659e+01 -7.646043332081220889e+00 3.199568782316232074e+01
1.540086595716470264e+01 -8.151939184756750834e+00 3.216168264819058464e+01
1.524963115396005442e+01 -8.657730874579621982e+00 3.232758937820030098e+01
1.217909223594913115e+01 -6.611689119138067561e+00 4.502160938952398084e+01
1.253636007883494763e+01 -5.882952260429089364e+00 4.538152647361123115e+01
1.359378859323272870e+01 -4.050392264595996217e+00 4.617096199842312387e+01
1.323068643810887757e+01 -4.558066715699175653e+00 4.597551680851861278e+01
1.502686366875807700e+01 -2.648375293679281484e+00 4.649839852955017960e+01
1.208662415780411337e+01 -1.018945614380445797e+01 4.136203220158279947e+01
1.210635310939503029e+01 -9.483005191563920633e+00 4.269425890505893051e+01
1.197495153213665553e+01 -1.057141766180438047e+01 4.031047036427735719e+01
1.368477353276119501e+01 -1.081720858357082804e+01 3.439479159330542046e+01
1.483977286900423564e+01 -9.057586868053430607e+00 3.240137120861433573e+01
1.405530204651533666e+01 -1.051923489968374348e+01 3.396446600392837922e+01
1.564598829551699843e+01 -5.789875557050641497e+00 3.189041021909003248e+01
1.564084424297413101e+01 -6.212341019420711596e+00 3.193578850809439373e+01
1.571430563408403458e+01 -5.183741669730985713e+00 3.191020563255999676e+01
1.621255634319390637e+01 -3.947730973782592745e+00 3.239283844905409637e+01
1.274697436835975140e+01 -1.149223233524022447e+01 3.691991658246189445e+01
1.191894932346923319e+01 -1.076269073551893385e+01 3.978378505356753436e+01
1.217496640294068833e+01 -1.127904156445182515e+01 3.813953459952370650e+01
1.201282912470210285e+01 -8.668027995946189890e+00 4.376309761948425603e+01
1.545023728142624719e+01 -7.155134688623863148e+00 3.182124020779592044e+01
1.386536582960651920e+01 -3.528229967525815525e+00 4.633820373578055296e+01
1.450365184045002032e+01 -2.793519487463620887e+00 4.648093718326140333e+01
1.203092534806337888e+01 -1.038036205622853458e+01 4.083649597553312560e+01
1.205963249856291775e+01 -9.075851547837244127e+00 4.322853299000838945e+01
1.343496041056737234e+01 -1.111357120515048358e+01 3.503226040116450690e+01
1.386231635333403389e+01 -1.064392673096861941e+01 3.408703369123821858e+01
1.442993840296357355e+01 -9.457449846420939110e+00 3.247512438399448342e+01
1.406399423407976812e+01 -1.010096888480946653e+01 3.316050281633464891e+01
1.277326841299475113e+01 -1.150012529082831136e+01 3.632557834370266647e+01
1.291285593468865578e+01 -1.151962921744294199e+01 3.608831607484265902e+01
1.314133039905992106e+01 -1.143696279837691243e+01 3.589576574317412394e+01
1.189005369556361202e+01 -1.132014943324367273e+01 3.753544593142814279e+01
1.191285152621392385e+01 -8.176347483445820075e+00 4.411335098616378758e+01
1.278780380009039774e+01 -4.837980519958623660e+00 4.586145836622846161e+01
1.246207404326779944e+01 -5.508527222821132163e+00 4.553634438950879826e+01
1.181292105564077310e+01 -7.685191293615924124e+00 4.446339976246450476e+01
1.204612773369389167e+01 -6.243624391892607761e+00 4.514678384294595759e+01
1.307096092928222753e+01 -4.102039102041556973e+00 4.613983316955896896e+01
1.405889321749468301e+01 -2.925558951846325417e+00 4.647831533669874915e+01
1.469603641570366825e+01 -2.191256902168472021e+00 4.662028594826894334e+01
1.528239024458137152e+01 -1.895678952588184973e+00 4.660288112129528315e+01
1.147197206049739826e+01 -9.894971879295216155e+00 4.164340054115833567e+01
1.166767245793321806e+01 -9.578441702871238306e+00 4.232206407463142739e+01
1.154493056814194674e+01 -1.044505939294216823e+01 4.040591479648770701e+01
1.374769385960657253e+01 -1.037033643075854883e+01 3.344246548736207814e+01
1.534816073515688295e+01 -6.663445052953703929e+00 3.164648607678664050e+01
1.559839545709084696e+01 -4.622791431552477626e+00 3.172455454125989860e+01
1.581195701770749018e+01 -3.988898828608228531e+00 3.193835156844678380e+01
1.165735321453222006e+01 -1.104309684964043825e+01 3.856256198087853448e+01
1.178818768496881653e+01 -1.090290372329397428e+01 3.917319252240299932e+01
1.199400962063176657e+01 -1.114702768132964295e+01 3.835745265009251170e+01
1.225268306787237726e+01 -1.145706864674198577e+01 3.711859075756373016e+01
1.508507427566790859e+01 -7.726471356354856823e+00 3.155082853005467669e+01
1.519330134223482531e+01 -7.523907433922108368e+00 3.156108028536212373e+01
1.485824018869330487e+01 -8.485232754283545731e+00 3.179981334435950657e+01
1.482003145862703519e+01 -8.668952732772115866e+00 3.193975064809739806e+01
1.168459197053512888e+01 -7.144334638895139200e+00 4.468709125480947364e+01
1.189691050332759836e+01 -5.495199789137177326e+00 4.545608190793568326e+01
1.402963319026641464e+01 -2.389552323641311649e+00 4.661666528316856528e+01
1.159994784231654563e+01 -1.025407989970056022e+01 4.093149548055426834e+01
1.140737528569226455e+01 -9.415874457586349777e+00 4.253069253001725514e+01
1.154334380983994990e+01 -1.013227916319213229e+01 4.123043356622960687e+01
1.111323040854930611e+01 -1.031871566686413821e+01 4.050091902727422877e+01
1.287030541614741352e+01 -1.133002528926042096e+01 3.533469300547574932e+01
1.336173866668307575e+01 -1.061983834511540437e+01 3.368786035459687156e+01
1.300671466985442848e+01 -1.096646428673140328e+01 3.430356635231342466e+01
1.343989488226945994e+01 -1.022135148241046032e+01 3.292015028107696395e+01
1.509122248563491553e+01 -7.032579844540903125e+00 3.138638961316963005e+01
1.524613311046683783e+01 -6.171974956258871714e+00 3.147177943740134509e+01
1.213337610909395003e+01 -1.145847482444981580e+01 3.619425454646005846e+01
