-1.072148177703511074e+01 1.435474646082773909e+01 2.482582758149813174e+01
-5.303492346101494448e+00 1.656715345937008621e+01 2.661328238274966651e+01
-4.810454381187121875e+00 1.678996814681718774e+01 2.680274135592842200e+01
-6.599241661756652277e+00 1.646537342419110317e+01 2.659369878459553149e+01
2.234102726477009693e+00 1.659892700865341197e+01 2.715823391629846384e+01
-3.359656901712223753e+00 1.695953115489731644e+01 2.695577405082769928e+01
-1.293684273765258519e+00 1.696150509072005264e+01 2.701561933384305547e+01
-2.174602935384981617e+00 1.704193587631050022e+01 2.706602483395960945e+01
-1.137162449321817093e+01 1.402867703292003299e+01 2.460699216549907931e+01
-3.942113381397547744e+00 1.703427616088189112e+01 2.702703401117918247e+01
-5.952942537215481167e+00 1.673004314498045630e+01 2.682879265927874712e+01
-7.874198275127307411e+00 1.624364846205921609e+01 2.642352351581767778e+01
4.065962436179124673e+00 1.649164608814132293e+01 2.748049417932786653e+01
3.573432407771538255e+00 1.661289134171911286e+01 2.746470069994051855e+01
2.882302498993528861e+00 1.676628774279085476e+01 2.745379632629173727e+01
-1.439792313377567523e-01 1.715428948605374870e+01 2.732292850765562164e+01
-9.236424547041435673e+00 1.558664205597314378e+01 2.584138154138360832e+01
-9.961659213883969244e+00 1.525704371994221020e+01 2.557020080845881083e+01
-8.510852933953721333e+00 1.591703540754002866e+01 2.611245060197144952e+01
-1.133724513520405175e+01 1.460183971921645174e+01 2.507994584576566055e+01
-4.966919634298373687e+00 1.717600254390255898e+01 2.720806098002337237e+01
-7.237893663194604699e+00 1.656840735756425786e+01 2.673405767361289520e+01
-5.486038083384340958e+00 1.701728781616582253e+01 2.708590992060081959e+01
5.259145204463645307e+00 1.596106441998310466e+01 2.740168380680799842e+01
4.799115167066781318e+00 1.637573425188572074e+01 2.761945853193080680e+01
1.123538243775187295e+00 1.734474751564515671e+01 2.764467516301961680e+01
-3.015496919169927903e+00 1.722072898158587861e+01 2.721691020740759726e+01
-9.337504478170873812e-01 1.731856426605289201e+01 2.738781525888210666e+01
-1.263278305907802235e+01 1.294041081829197459e+01 2.390528891794735245e+01
-1.198740058703149991e+01 1.427605564050525366e+01 2.486093251375669766e+01
-1.068710686914069008e+01 1.492797971885345731e+01 2.529864792398705120e+01
4.306325481591168902e+00 1.683920559815974372e+01 2.787205306581214614e+01
2.520898705481340318e+00 1.716123940021095251e+01 2.773869682691618266e+01
1.720127299357947059e+00 1.724039943292233801e+01 2.763686089422072101e+01
2.346268611456912845e-01 1.752938335689933780e+01 2.771743763791514681e+01
-3.585956490291810184e+00 1.734940844987484709e+01 2.734179093508340586e+01
-1.699142045667742407e+00 1.743392780075002335e+01 2.747742798467653458e+01
-9.090454690325694642e+00 1.630722362763625100e+01 2.650236138827728638e+01
-1.263496820784306429e+01 1.344555483314237243e+01 2.427352367451349124e+01
-1.263716076005403721e+01 1.395076924670514629e+01 2.464174998715632370e+01
-1.117458602663524481e+01 1.536798364321668586e+01 2.577297141173962913e+01
-4.354664827914234593e+00 1.745569386078744500e+01 2.747755628196060229e+01
-6.602199751065499278e+00 1.689288410792664408e+01 2.704422641054674159e+01
-6.161592330969937414e+00 1.724443832014007327e+01 2.736889082216285018e+01
-8.473064650606721315e+00 1.639652335260567995e+01 2.655566429292849762e+01
-7.896658399992880994e+00 1.667819106641087856e+01 2.682403541485711784e+01
5.964290877282638625e+00 1.576077176574519534e+01 2.745687749476653039e+01
3.321691905689060587e+00 1.708154072680597579e+01 2.784041835835313350e+01
-2.464351302607214134e+00 1.754925712311566244e+01 2.756701303292204841e+01
-9.926924235300287336e+00 1.574800476977062935e+01 2.602318467559587134e+01
-1.057732664872295203e+01 1.546943381210740576e+01 2.579483382236647770e+01
-9.779038083242719281e+00 1.615879299178138595e+01 2.639662428210620604e+01
-1.315999449452498027e+01 1.288667442644653072e+01 2.399358399803928066e+01
-1.186502994082335150e+01 1.485066323196955373e+01 2.538063860960934903e+01
-7.187775638315042848e+00 1.720959250048473521e+01 2.732429140276190083e+01
-7.811542180374592803e+00 1.704258611928796796e+01 2.716155800413592303e+01
5.731805389145720575e+00 1.629153047275986665e+01 2.785470897604986007e+01
4.903747737859831091e+00 1.683049835141284589e+01 2.806218359997630074e+01
1.408152013829607530e+00 1.769685192375535721e+01 2.802822440513557822e+01
-6.541019210447878152e-01 1.771412966473084794e+01 2.779035009903390829e+01
-3.229730137878677798e+00 1.766460700394253891e+01 2.765661292519512315e+01
-1.316955527966022998e+01 1.359061023796132694e+01 2.450833525604221563e+01
-1.251496019993934361e+01 1.452551735424062507e+01 2.516160825669744483e+01
-5.123304503285197598e+00 1.756184045569673557e+01 2.761317230818989543e+01
-5.720832009126231021e+00 1.759612050496096813e+01 2.769366711278920690e+01
-6.634182690409627270e+00 1.732249040109588378e+01 2.748778400659486465e+01
4.546742595980891366e+00 1.718687660448653531e+01 2.826369245841842215e+01
3.808406944630180035e+00 1.736823943659316072e+01 2.823981029086385774e+01
2.002234462963248696e+00 1.765517393348612885e+01 2.808042425631841610e+01
8.105345860196438990e-01 1.786355072505427799e+01 2.809583157397828046e+01
-3.913036033583860096e+00 1.775906549525079114e+01 2.777727622146768383e+01
-1.229923508542172694e+00 1.777951154974947556e+01 2.782421952075180016e+01
-1.101974363082895003e+01 1.584761478266116441e+01 2.620517483502434430e+01
-8.962590257307677888e+00 1.668300677507001595e+01 2.684435364251708123e+01
-9.669606974244658204e+00 1.669950765453647534e+01 2.689191216752396230e+01
-1.046762096342597737e+01 1.601071035978518964e+01 2.629067126556133971e+01
-1.348669019057956575e+01 1.410610621229114336e+01 2.505587302611223421e+01
-1.182934246027812542e+01 1.529849726166832014e+01 2.579333655394945879e+01
-4.596672944743310119e+00 1.785356900371778721e+01 2.789799478564450297e+01
-8.435307218114138195e+00 1.687605528584402137e+01 2.699853524279615513e+01
6.725288655042447772e+00 1.594073800956774178e+01 2.791268822809220396e+01
3.070120648365803895e+00 1.754945629894190873e+01 2.821592672136257463e+01
-3.745130182289618803e-01 1.810961270106088961e+01 2.819278788151707360e+01
-2.077961938019561750e+00 1.795816868709197678e+01 2.797256332826144032e+01
-2.951812496004747821e+00 1.803940236462383595e+01 2.802616451815181975e+01
-1.166150715042172337e+01 1.580839024310581742e+01 2.624667443667819811e+01
-1.035802420855078410e+01 1.655158871717700109e+01 2.678599832548903592e+01
-1.239281823716412134e+01 1.510008306623535645e+01 2.568121541648726236e+01
-1.306956077950266604e+01 1.440438095420204689e+01 2.517439897813271088e+01
-5.279822286454903590e+00 1.794800430069679464e+01 2.801862407482048312e+01
-7.773470018645209478e+00 1.752209596184350104e+01 2.760438030117631669e+01
-7.172018268810854913e+00 1.758132532859196928e+01 2.771199898549961205e+01
-6.666168759907357355e+00 1.775209923304474557e+01 2.793133966733414653e+01
5.501273075372197674e+00 1.682201631719452806e+01 2.825231683674176608e+01
5.264251668117484684e+00 1.735238211096649152e+01 2.864981429589054329e+01
6.426855059574971385e+00 1.664242895663569044e+01 2.844252162492626113e+01
1.392944588695087971e+00 1.815940967541336093e+01 2.847152125720178262e+01
-3.500331579901558854e+00 1.807865937600479711e+01 2.807063104254910257e+01
-1.292005693570155245e+01 1.491469684415424979e+01 2.562644778075428675e+01
-1.369484806281009703e+01 1.366311869300803750e+01 2.474405131046802353e+01
-9.492120873667849734e-01 1.811676958470256693e+01 2.816963051697445408e+01
-8.397526255139464268e+00 1.735641724443733125e+01 2.744169723001859396e+01
4.201606556505453227e+00 1.761810884367040586e+01 2.857957227300243730e+01
2.284505118318838512e+00 1.807019204607786378e+01 2.852421173235804019e+01
6.016518774299400185e+00 1.714946070583211579e+01 2.875005390974001784e+01
-4.228569597560095872e+00 1.824183606158951321e+01 2.826000844344338603e+01
-1.526200794929095217e+00 1.824059594947052432e+01 2.826074361464422324e+01
-9.027408536987604037e+00 1.710768523553259968e+01 2.724038772963812605e+01
-1.227071819399175645e+01 1.567453965339533717e+01 2.620064517168026796e+01
-1.099128087460874781e+01 1.627028641202726433e+01 2.659921578937434461e+01
-1.024845705943344676e+01 1.709243277061996125e+01 2.728117676738856190e+01
-1.411503782284114727e+01 1.384656547773707658e+01 2.504006991180970587e+01
-1.350160601266959581e+01 1.485800781192435771e+01 2.570651210368589901e+01
4.975437048911606208e-01 1.838210275776683034e+01 2.854675847122758725e+01
-4.956853243718372326e+00 1.840516793406002805e+01 2.844953589520793358e+01
-5.989223839594686183e+00 1.806488350019085587e+01 2.819681717981079316e+01
-7.528239095104138023e+00 1.800947541488660875e+01 2.813004204751590009e+01
3.638621579390325600e+00 1.781673191285995017e+01 2.861822137134412003e+01
2.818401494477566605e+00 1.801708915602839056e+01 2.859167666446707301e+01
-2.674204431203481391e+00 1.841378458978262955e+01 2.839530110413921804e+01
-2.099737695686651584e+00 1.838488163969214284e+01 2.838370466757371346e+01
-3.770634779262190595e+00 1.849226004362741449e+01 2.848418665092352242e+01
-9.619508621738654952e+00 1.734012680438061338e+01 2.748219478837685159e+01
-1.088187051964184526e+01 1.681124019670215120e+01 2.709449409451580237e+01
-1.298220041715051920e+01 1.535664161013235862e+01 2.606213998313885227e+01
-1.405469781624293724e+01 1.433514095513986142e+01 2.543973364792752534e+01
-9.492837673540797938e-02 1.850509162951292907e+01 2.859520878001550770e+01
-9.575324032700257559e-01 1.854220639972976770e+01 2.858631189019642349e+01
-5.624971595023582793e+00 1.842820792858001155e+01 2.849395459555206145e+01
-8.359766866492373438e+00 1.783681400873774692e+01 2.788461296639263409e+01
-6.698158971951042595e+00 1.818170978971381047e+01 2.837489200061309091e+01
6.690556029980198716e+00 1.729794580213582122e+01 2.914429392191778945e+01
1.772145912405411528e+00 1.862350145980624916e+01 2.897757456530461084e+01
-8.990029259164973752e+00 1.758821809370171252e+01 2.768329358868516366e+01
-1.214853921779076096e+01 1.624944506766679098e+01 2.672040687661293390e+01
-1.151494698473955580e+01 1.653037387795758306e+01 2.690765714805667841e+01
-1.457841790096748014e+01 1.428223479933927464e+01 2.561493558014988992e+01
-1.822547855241211767e+00 1.870176855701330609e+01 2.869734219656258389e+01
5.861180316768870746e+00 1.759001542858292666e+01 2.909560955487065925e+01
7.253483324894490991e+00 1.665137811448405003e+01 2.876605689190226300e+01
2.566585295878138329e+00 1.848493199398020437e+01 2.896758687888122807e+01
-4.633903492817452729e+00 1.886231759511526107e+01 2.888040733518113612e+01
-2.396397611217184309e+00 1.878844030427945100e+01 2.876469978510166570e+01
-3.218720831729462439e+00 1.884709685264230572e+01 2.883116529199898537e+01
-1.274354452695895112e+01 1.593703697515512019e+01 2.656030460635115986e+01
-1.078601651904900294e+01 1.750349358199478189e+01 2.775313581009730868e+01
-1.017263649692102945e+01 1.754757492974916033e+01 2.773645548100358482e+01
-1.393405596597212970e+01 1.531232765246499739e+01 2.623902252953818959e+01
-1.399437047626472186e+01 1.482373003280583923e+01 2.583938432408353947e+01
-1.490329184874699386e+01 1.386655823512897179e+01 2.539025951280615701e+01
1.845821757911864647e-01 1.890046759782181951e+01 2.899751272397293178e+01
-5.301916408095396882e+00 1.888526199452612531e+01 2.892470548641204786e+01
-6.570465436453737595e+00 1.858394820144718196e+01 2.873133427991293232e+01
-8.290745633108047130e+00 1.830228463377023118e+01 2.838484339360140396e+01
3.386948217742431488e+00 1.828547699719291586e+01 2.899405408214979118e+01
9.781315052255328268e-01 1.876203277101736333e+01 2.898756095460066007e+01
-7.425212518308772047e+00 1.870689427372917635e+01 2.888009489072558367e+01
-8.888601595551508083e+00 1.819580748656414926e+01 2.829126804778656989e+01
-9.652212055570977611e+00 1.771638921340228023e+01 2.786623180624445695e+01
-9.492666761104606721e+00 1.809943316943140701e+01 2.824177728307632407e+01
-1.144338746453577293e+01 1.704960590880398996e+01 2.740175806865201125e+01
-1.333929183054469370e+01 1.562436384438277948e+01 2.639968864355209277e+01
-1.435872051955874085e+01 1.460834260589275502e+01 2.580593882481255363e+01
-1.456963066888797975e+01 1.336802704298297151e+01 2.481578624812591372e+01
-1.523674426025702111e+01 1.436495542535818259e+01 2.596417255879301678e+01
-5.832642741034028688e-01 1.898792054474146695e+01 2.904294602512116441e+01
-4.041055206519779119e+00 1.890604803232053754e+01 2.889791622048609554e+01
-5.969929690633222208e+00 1.890776326795585049e+01 2.896900093626550543e+01
1.542517565428439319e+00 1.895583500971366675e+01 2.927118600620365996e+01
-1.263551910875981221e+01 1.670319664821492367e+01 2.725422935345580910e+01
-1.207675196235291004e+01 1.676865146920349758e+01 2.721449011927502326e+01
-1.144784318248107446e+01 1.745543170767841445e+01 2.779602421885939734e+01
-1.436855859788698453e+01 1.499624514916588325e+01 2.614757619595149052e+01
-1.480258480446569180e+01 1.468060619766595920e+01 2.605600942967056355e+01
-1.528264237457771557e+01 1.369789241997020746e+01 2.548971751012447839e+01
-1.351036942885778469e+00 1.907536232364098439e+01 2.908837406693838901e+01
-2.849657283091314497e+00 1.921495742524949790e+01 2.919289588401582591e+01
-2.118812390538155288e+00 1.916279792476079180e+01 2.913379704131547143e+01
-8.221717640929508519e+00 1.876782169075380580e+01 2.888511986078381355e+01
-1.009673110716254385e+01 1.800328080867177505e+01 2.819223904772313460e+01
-1.061291635130311661e+01 1.811096466842554165e+01 2.835342804275477491e+01
-1.325756038873046982e+01 1.619943737043223209e+01 2.692049051531983039e+01
-1.200490874549848286e+01 1.728832628921603032e+01 2.770894086588727134e+01
-1.251911734184449898e+01 1.716233896075873844e+01 2.768130768269599429e+01
-1.132369065273753783e+01 1.791514956074054865e+01 2.822515075741630497e+01
-1.385279783966006306e+01 1.588731444451637564e+01 2.675993136875096923e+01
-1.463790854831302468e+01 1.525727731888394878e+01 2.654890408867942853e+01
-1.532860036383826063e+01 1.303058748895747421e+01 2.501506953069654671e+01
-1.555966070298481263e+01 1.395923812525025909e+01 2.599785841624541760e+01
-1.564603247451787560e+01 1.324115420921929953e+01 2.552744474168928690e+01
3.544427553916162932e-01 1.928365960456398298e+01 2.940604998259266623e+01
-3.580403190681656689e+00 1.926711394639565711e+01 2.925198421272004623e+01
-4.978967760722913916e+00 1.934235360153336103e+01 2.935545108345863952e+01
-5.646834762348896142e+00 1.936302325026532145e+01 2.939983388507279116e+01
-6.442799237829358816e+00 1.898347235820993362e+01 2.908767549578678668e+01
1.120204944420475801e+00 1.927412151423023090e+01 2.951980909713036993e+01
-4.311101075745926714e+00 1.931927629957670689e+01 2.931106844134563616e+01
-7.233404255249451964e+00 1.930744293269208356e+01 2.941485064515212144e+01
-9.416915997609589084e+00 1.855506856980415620e+01 2.869752206277075501e+01
-1.002089741832579506e+01 1.845860991545216834e+01 2.864759718994509186e+01
-8.819317506451938016e+00 1.866123533497062681e+01 2.879131335746832576e+01
-1.324847024064119871e+01 1.664565886790018823e+01 2.733660248662844339e+01
-1.312253980440771706e+01 1.715731993495298013e+01 2.778802908291990903e+01
-1.193312578219883413e+01 1.780761784810312420e+01 2.820295433515339667e+01
-1.426522262947151631e+01 1.575644002407997846e+01 2.685618425324267733e+01
-1.515946274024356555e+01 1.493485021053498585e+01 2.649558695237653083e+01
-1.588257430938412185e+01 1.355356904133659235e+01 2.603131695697217651e+01
-1.542609642033272088e+01 1.469153745871179595e+01 2.648158407647381907e+01
-2.178705335019149036e-01 1.933677640988090829e+01 2.940679954477364788e+01
-2.500959524894917685e+00 1.956176240220730733e+01 2.952941282429857139e+01
-6.315043783374912678e+00 1.938334929905280646e+01 2.944424013243785154e+01
-8.152701522928330391e+00 1.923329126983320236e+01 2.938530045049781236e+01
-9.944963411543531251e+00 1.891457704570539988e+01 2.910355320592310591e+01
-1.058362134865200410e+01 1.871862074223507477e+01 2.896820227709173778e+01
-1.377158705362141866e+01 1.646208298697900219e+01 2.728057335696554730e+01
-1.251547823889862698e+01 1.756906374003506954e+01 2.807802096150203042e+01
-1.508222566691934752e+01 1.550463019084350513e+01 2.702686561999129466e+01
-1.578947798353764220e+01 1.423527331316586597e+01 2.651952944767617026e+01
-1.581325921084502539e+01 1.242136157076003578e+01 2.506522820020984454e+01
-1.600953248523267547e+01 1.278445315292304230e+01 2.556498100870698664e+01
-1.081401267845753189e+00 1.948271343463574112e+01 2.950492547950394950e+01
-1.945373027123382670e+00 1.953371250002227200e+01 2.950932273410372630e+01
-3.295285078062505146e+00 1.968026562750217678e+01 2.965427552085332152e+01
1.885873198207973056e+00 1.926459676464771320e+01 2.963356377633369831e+01
-8.750490166579568907e+00 1.912662580294206194e+01 2.929131766098204892e+01
-1.122242200845121651e+01 1.852279880450477023e+01 2.883271676201625056e+01
-9.347793003741244888e+00 1.902043976748643317e+01 2.919742311472221985e+01
-1.369038806929757435e+01 1.703686752354517964e+01 2.780116128086350002e+01
-1.302605650504503565e+01 1.785003849520628805e+01 2.844701947411800447e+01
-1.186132299248094135e+01 1.832709939325204118e+01 2.869707990830950450e+01
-1.459624889913753698e+01 1.620050871392711755e+01 2.747292963586826886e+01
-1.420475826855744650e+01 1.674605628747460528e+01 2.779593420082819222e+01
-1.561574387132133879e+01 1.501863197090114532e+01 2.699959880143961399e+01
-1.469495332917422381e+01 1.569294277635237300e+01 2.701522603189360439e+01
-1.615288115137107283e+01 1.377878339548521325e+01 2.655694142794865087e+01
-1.620580414336325603e+01 1.314755103714733409e+01 2.606456459703331063e+01
-3.186885208502687056e-02 1.966317890450178751e+01 2.975862841060625641e+01
-4.089638745961063471e+00 1.979886849906328905e+01 2.977920316484849295e+01
-5.465452115183189186e+00 1.981495487828148683e+01 2.984674746530708589e+01
5.243173144004175112e-01 1.966688812912070006e+01 2.981457478933690197e+01
1.545371540777690456e+00 1.965455560090446596e+01 2.996661277168027837e+01
-4.797227428358775470e+00 1.979449729397387259e+01 2.980233136182421205e+01
-1.046962492904362385e+01 1.929893998830011981e+01 2.960947461070855269e+01
-1.118003056605508583e+01 1.910252868937277881e+01 2.948296663325970712e+01
-1.360924352433666229e+01 1.761135330862459369e+01 2.832140816452633203e+01
-1.244406613020531971e+01 1.808834949574970352e+01 2.857209645915020602e+01
-1.610001653935630372e+01 1.441002779907060116e+01 2.704932049179551257e+01
-1.637353287003794478e+01 1.343575636872390433e+01 2.662743250582721544e+01
-1.654115883385859576e+01 1.372371219440784351e+01 2.718959624249087881e+01
-6.203500343701956465e-01 1.977308366391240213e+01 2.981604040888271001e+01
-1.772033302036607028e+00 1.990442135279060309e+01 2.988443783476074245e+01
-2.311281950857216216e+00 1.987714938203695070e+01 2.984916002755078424e+01
-2.882899780212783369e+00 1.996055877458998040e+01 2.992461481953530011e+01
-6.133678667461408551e+00 1.983572082734261954e+01 2.989116601704218823e+01
-8.025022006724055856e+00 1.969767036250630099e+01 2.986599996733644602e+01
-8.661110269485570612e+00 1.961020686274322600e+01 2.984042384318571806e+01
-6.800080801752191206e+00 1.979590190069534117e+01 2.990509374779026786e+01
-1.177554081139798470e+01 1.876215919068201288e+01 2.917784876314654241e+01
-9.258396460146812501e+00 1.950405765940623226e+01 2.974644393390810748e+01
-9.855685715358834642e+00 1.939817625466228890e+01 2.965247172771356432e+01
-1.404868666724201631e+01 1.728924901452842988e+01 2.824468981711312665e+01
-1.492769882516443403e+01 1.664522324923692054e+01 2.809029925570471775e+01
-1.540508445927343217e+01 1.571005257681069978e+01 2.753790503703490700e+01
-1.500496596457421994e+01 1.607479134707648427e+01 2.755847088430453340e+01
-1.621485824366558859e+01 1.246136140445356055e+01 2.559706873913505376e+01
-1.646287459514923057e+01 1.268159880344125945e+01 2.618344451940417983e+01
-1.604724191881796003e+01 1.504094588303543745e+01 2.754144196070892292e+01
-1.210470602274322127e+00 1.989505419054312441e+01 2.990504833533939433e+01
-3.868173629009694192e+00 2.027598917636696285e+01 3.024703686078147058e+01
-7.439292578539959955e+00 1.981243648193413165e+01 2.995594208850822682e+01
6.943459516983025992e-01 2.005046885919099253e+01 3.022342882974909628e+01
-1.230883979961386565e+01 1.867154058741903810e+01 2.926556804927631816e+01
-1.350782057494302357e+01 1.804866281821781016e+01 2.884169596382812628e+01
-1.290840380631849449e+01 1.835959268714411863e+01 2.905324197425012756e+01
-1.448837542646663046e+01 1.696705670061302484e+01 2.816762846637294970e+01
-1.580520765234298075e+01 1.534539215079235852e+01 2.751689376822054456e+01
-1.666238756283935274e+01 1.291180439077894349e+01 2.676054751127889730e+01
-1.637791805379136889e+01 1.452617121751977969e+01 2.764636493227658320e+01
-1.476219895740326915e-01 2.007138930292205359e+01 3.016593914665471488e+01
-5.952274477361863880e+00 2.028852578821598485e+01 3.033804176795248608e+01
-3.264757977990164761e+00 2.035730777799030022e+01 3.031972185839126510e+01
-2.408931075034782765e+00 2.026732607485091364e+01 3.023984454634048902e+01
-4.575962321879718075e+00 2.027155328452839456e+01 3.027036674927817828e+01
-5.283753432867560385e+00 2.026756788415156407e+01 3.029369521492387207e+01
-1.168969808495600660e+01 1.919753775734756118e+01 2.965891606971240435e+01
-1.275654840258980904e+01 1.901629626383401472e+01 2.983426680543190201e+01
-9.168926288792693668e+00 1.998730407326407033e+01 3.029501622982723319e+01
-8.533214018495215214e+00 2.007431199858882565e+01 3.032054354195636137e+01
-1.037995376771615064e+01 1.978226598110938284e+01 3.015795540069044733e+01
-1.099348670759489188e+01 1.968304089498730036e+01 3.011461729169642254e+01
-1.395137685827798713e+01 1.792856438914175854e+01 2.895040956868177773e+01
-1.441516220879245758e+01 1.744693704209213792e+01 2.869736957078857742e+01
-1.546112035309573862e+01 1.615848055923391158e+01 2.806234984092528606e+01
-1.485472287350603970e+01 1.712468574706194602e+01 2.861983574147143727e+01
-1.628839145176151249e+01 1.521426224454798160e+01 2.812669893412031996e+01
-1.022852320410677640e+00 2.020939612823005760e+01 3.022525709819882778e+01
-1.598729798106186539e+00 2.027505607621774075e+01 3.025944863997814593e+01
-6.618851167654543843e+00 2.024950688500246798e+01 3.035207279706955319e+01
-7.897505213660966916e+00 2.016155327440671385e+01 3.034607678373723161e+01
-7.285427765154137703e+00 2.021088095588589795e+01 3.036610014546542757e+01
-1.218004832235198975e+01 1.932438841475292080e+01 2.998692851262186210e+01
-1.340634210380035363e+01 1.848623595374483841e+01 2.936220784344076051e+01
-9.766424503762085152e+00 1.988170441961244350e+01 3.020129815574295407e+01
-1.160389832348417727e+01 1.963271347928522914e+01 3.013970831700357422e+01
-1.382121299518802005e+01 1.832282936992499600e+01 2.939608474679723216e+01
-1.599452693773585032e+01 1.567187872736477061e+01 2.803356902109840831e+01
-1.519592990497670115e+01 1.694745470187193348e+01 2.878048843388510747e+01
-1.439617577982791197e+01 1.781109507684787019e+01 2.912539677057922205e+01
-1.478167115747343807e+01 1.760472975942348839e+01 2.914995206000604711e+01
-1.670865439718475898e+01 1.401136074948359855e+01 2.775093286979838680e+01
-1.671967152218151753e+01 1.221618138532450537e+01 2.630203973820604801e+01
-1.692609713245567349e+01 1.302548377925821477e+01 2.736673459116402185e+01
-1.658217430817900961e+01 1.475679589967887573e+01 2.821949040976485179e+01
1.011710683538090405e-01 2.050469825732085738e+01 3.063307875826848559e+01
-4.353847408565814092e+00 2.074892021777526452e+01 3.073837693117737757e+01
-3.646689520441749099e+00 2.075281386434293651e+01 3.071488806439763763e+01
-9.677183603548632718e+00 2.036512851258207135e+01 3.074999726511756393e+01
-1.090459736984896466e+01 2.016678849793175488e+01 3.066363354592166957e+01
-1.151809626543331611e+01 2.006790650244887786e+01 3.062047261636530138e+01
-1.264153700045635276e+01 1.959638439263891740e+01 3.047502531008750637e+01
-1.429362088025020938e+01 1.824595776682287962e+01 2.957949233443801162e+01
-1.592904207280757944e+01 1.614202500097876580e+01 2.856545139052224869e+01
-1.614786226284828174e+01 1.585181784954132311e+01 2.859688561999099932e+01
-1.647848278733695437e+01 1.533697916877328460e+01 2.870133390562229891e+01
-1.690108241018185709e+01 1.366230796167592487e+01 2.783941924963012582e+01
-1.695125748238277197e+01 1.238788057533551168e+01 2.689345441003821335e+01
-2.165705971716100020e+00 2.068318965217364180e+01 3.066128239633927066e+01
-5.770656283197514114e+00 2.074230456484195884e+01 3.078543179344882930e+01
-2.906196619390208902e+00 2.071839219295457113e+01 3.068808883988637604e+01
-5.061986430423035088e+00 2.074537706415411620e+01 3.076189626801305010e+01
-1.330495986056688906e+01 1.892342047905849256e+01 2.988216313859832240e+01
-6.437770315753843953e+00 2.070322843075789621e+01 3.079907659510085693e+01
-9.041138913727616355e+00 2.045184072999795077e+01 3.077544439447721203e+01
-1.029077990880038840e+01 2.026587699831317124e+01 3.070681989998646344e+01
-8.405125147369062688e+00 2.053871486390025680e+01 3.080089455833185497e+01
-1.207978988923663621e+01 1.983210445996306603e+01 3.054780899435940711e+01
-1.320357364380818765e+01 1.936064399108239087e+01 3.040206450377062453e+01
-1.378234635379224393e+01 1.865757814955497906e+01 2.981777536423832942e+01
-1.687619075560622761e+01 1.429898936304412516e+01 2.831197539281824760e+01
-1.680914403918377431e+01 1.482217606270952359e+01 2.880538322613848834e+01
-1.630128177456067462e+01 1.603181318651602183e+01 2.916002150150552907e+01
-1.586362056551731570e+01 1.661197937770100097e+01 2.909709456662746874e+01
-1.470875964727985519e+01 1.808394415090508645e+01 2.967908559147231529e+01
-1.711922646433614759e+01 1.299314928971837624e+01 2.807077660815113873e+01
-6.620511755125233488e-01 2.057521409555435454e+01 3.063378022935601308e+01
-1.425401147718795780e+00 2.064574654800089348e+01 3.063447660576153808e+01
-4.917141883547889059e+00 2.117652892899442563e+01 3.121714774379143620e+01
-7.104143855794629481e+00 2.066435123401850760e+01 3.081270181982095480e+01
-7.769942911838760402e+00 2.062567596416097615e+01 3.082631347994250604e+01
-1.014591726035118846e+01 2.069709846053749658e+01 3.126768074288657928e+01
-1.368092209966140338e+01 1.909481654543070306e+01 3.033783312892452955e+01
-1.415838937928085528e+01 1.882903151806871023e+01 3.027327765625923561e+01
-1.706995360733146327e+01 1.370465469952150706e+01 2.851752531675644065e+01
-1.697651182008885584e+01 1.175073082883669784e+01 2.642049559936271663e+01
-1.696648852715535583e+01 1.443964729050954610e+01 2.890288732806117977e+01
-1.546447850805898661e+01 1.725004539860517028e+01 2.947113841159375625e+01
-1.721709641208094510e+01 1.213279988011922228e+01 2.767524860049217494e+01
-1.877827302262171427e+00 2.100739114967718990e+01 3.100433502586645318e+01
-4.209426174350678451e+00 2.117959427834340502e+01 3.119357759771491345e+01
-2.704562400314569182e+00 2.117594007155715019e+01 3.117098704181629287e+01
-1.667526323628845830e+01 1.586886349393736850e+01 2.979244443949755095e+01
-1.674221112208334361e+01 1.534512499653081186e+01 2.929854969116317420e+01
-9.535492749310430227e+00 2.080530060174887907e+01 3.126649262799681139e+01
-8.899661046696866862e+00 2.089169554768827908e+01 3.129165383371449494e+01
-1.075965166274473361e+01 2.059822873926626841e+01 3.122473470634001913e+01
-1.250698668355771481e+01 2.012151743888649236e+01 3.111276303973869517e+01
-1.137338567536058775e+01 2.049949951202442833e+01 3.118179071320716389e+01
-1.194533328374710557e+01 2.035705018581878534e+01 3.118524093515896922e+01
-1.306865191070186505e+01 1.988607102919331382e+01 3.104016501311163267e+01
-1.353409784273335603e+01 1.962459623626008209e+01 3.101663439567023062e+01
-1.402980702207458563e+01 1.929238129486798670e+01 3.086709918704194422e+01
-1.726386249768237491e+01 1.310990773558063793e+01 2.872293951254827604e+01
-1.733747115609279987e+01 1.232379953948411178e+01 2.830197663219590254e+01
-1.709677751532008472e+01 1.194177740555279144e+01 2.704806534792910711e+01
-1.612646125899081895e+01 1.664710144896873700e+01 2.967644553816289843e+01
-6.289324198519509856e+00 2.113135994471365109e+01 3.127169949071077326e+01
-3.509843522263019988e+00 2.119622683139380115e+01 3.118172852954319652e+01
-5.624861264545835127e+00 2.117401253120128857e+01 3.124071599291008283e+01
-1.645477849002674731e+01 1.621184739240422701e+01 2.972288189159676719e+01
-1.579816753580248267e+01 1.708243390078306589e+01 2.962927906013142021e+01
-7.622039202593692941e+00 2.105360672629239360e+01 3.129848723110368169e+01
-8.263829392076008418e+00 2.097823679241266603e+01 3.131681928088714173e+01
-1.463582952426912698e+01 1.856336561968571175e+01 3.020837424549920058e+01
-1.000439971456878041e+01 2.113731849459301060e+01 3.178419942403534293e+01
-1.518437831029620355e+01 1.805769673326259550e+01 3.018514050261008919e+01
-1.718453547655871816e+01 1.377084962970455706e+01 2.913389121584296504e+01
-1.740268037393177281e+01 1.310182880661217730e+01 2.936559857432164478e+01
-1.745790756654685083e+01 1.251478297247446925e+01 2.892813757722143109e+01
-1.747944897859713009e+01 1.191182209463496910e+01 2.847678099107273297e+01
-1.705692042573760858e+01 1.458035552326040296e+01 2.949330076938721490e+01
-1.716621889634961917e+01 1.120200980497556564e+01 2.665530915384692889e+01
-1.730992727665644537e+01 1.132477155503006649e+01 2.731158533011974754e+01
-1.750115194284574471e+01 1.130974298453655003e+01 2.802580690149862974e+01
-6.955681371330684648e+00 2.109241076597216846e+01 3.128509509023959367e+01
-1.691142480843768681e+01 1.529477582280642167e+01 2.993817942582411717e+01
-1.660847340693519669e+01 1.639205523832048428e+01 3.028580621925826577e+01
-1.573282335135659871e+01 1.755238677752481635e+01 3.016086821522499406e+01
-1.617073015001606606e+01 1.697201792991188540e+01 3.022409171745793799e+01
-1.452550735785937341e+01 1.896083217080090932e+01 3.071797951860857268e+01
-1.061493234441780587e+01 2.102951678359117693e+01 3.178566979103640122e+01
-9.393871933291553233e+00 2.124527023979915441e+01 3.178273727179740504e+01
-8.758150372074055667e+00 2.133148412606825417e+01 3.180775534026687268e+01
-1.293396473696145854e+01 2.041058861152047754e+01 3.167704262954191563e+01
-1.386436181580138793e+01 1.988839449308314755e+01 3.163065124707452114e+01
-1.758553917639633823e+01 1.185680338970106362e+01 2.921910860675442478e+01
-1.748587607813819744e+01 1.262976104601808203e+01 2.954463551803486965e+01
-1.734763462037092552e+01 1.368881239328170984e+01 2.980402287792080784e+01
-4.771853895551329217e+00 2.160786034296202729e+01 3.167198873659402025e+01
-4.072436612209483719e+00 2.162349647353742199e+01 3.166021844242805727e+01
-5.479272731851315470e+00 2.160522599343042671e+01 3.169533157135345292e+01
-1.714749114916844519e+01 1.472111163072236018e+01 3.008573272572121127e+01
-1.702846942305459166e+01 1.537148195980524079e+01 3.054672051756747919e+01
-1.729281876968560638e+01 1.427535723008288393e+01 3.024212200389041882e+01
-1.681844294754096580e+01 1.588181306319796882e+01 3.041542378023806137e+01
-1.741725812195888423e+01 1.353562980755196321e+01 3.044220606162259557e+01
-1.743247575083081458e+01 1.316880817841382623e+01 2.990848041279647518e+01
-1.751404453135688044e+01 1.274485691385256025e+01 3.016271139322895323e+01
-1.734909497722529181e+01 1.423289901236817201e+01 3.091940565984211275e+01
-1.745998672592405399e+01 1.360388733746909118e+01 3.115858568712371479e+01
-1.748539370349310929e+01 1.355697771519680828e+01 3.180125544002256177e+01
-1.741845894497526714e+01 1.300710825425448292e+01 3.200368111359613010e+01
-1.735118483955898583e+01 1.354415096385433337e+01 3.233084613046976585e+01
-1.740018144445492609e+01 1.413912371530983592e+01 3.220476041343393092e+01
-1.757087944541602198e+01 1.297487197177418672e+01 3.139776930279573008e+01
-1.754237850017153022e+01 1.285990104279926527e+01 3.078045670543395573e+01
-1.760689085089630623e+01 1.222403957265913732e+01 3.173771560883769638e+01
-1.743851176278371540e+01 1.219082298194909519e+01 3.245168133872606830e+01
-1.652457514922242865e+01 1.688025094367868917e+01 3.077243723678670051e+01
-1.762909552545865921e+01 1.192319225464575538e+01 2.994099160024420669e+01
-1.564378938348056280e+01 1.799738523035826887e+01 3.066973451254930794e+01
-1.488295954871755988e+01 1.881960146825364788e+01 3.087118393806849781e+01
-8.116100821836983670e+00 2.140659877092048191e+01 3.178934170977263562e+01
-1.122868842652822252e+01 2.093105141891502541e+01 3.174306039957432901e+01
-1.237224383448294596e+01 2.064608039412987139e+01 3.174956307282526069e+01
-1.180046304303690263e+01 2.078851531786272844e+01 3.174631000222893817e+01
-1.338514693950349610e+01 2.009301950554345950e+01 3.156437685203714949e+01
-1.441530010412021490e+01 1.935789570637351886e+01 3.122694425516928973e+01
-6.807544834632782482e+00 2.152058977718222010e+01 3.175754782994831871e+01
-6.143409132986936250e+00 2.156283983461028342e+01 3.172644809786888587e+01
-1.723820342158588304e+01 1.486191143297471662e+01 3.068022736467165501e+01
-1.695343721671334336e+01 1.591691945552526377e+01 3.099075133202952514e+01
-1.723589364962382575e+01 1.497236008935368545e+01 3.126315537222438579e+01
-1.735711970033028706e+01 1.429677243566745659e+01 3.159716019321478697e+01
-1.760711569034396007e+01 1.230164201223985820e+01 3.045462995108581694e+01
-1.763788158009698392e+01 1.236669182892438457e+01 3.099922254667026777e+01
-1.770524290283843172e+01 1.175816091111441253e+01 3.060044989754683797e+01
-1.726620924079374220e+01 1.303935925824656827e+01 3.260972030016454681e+01
-1.723092306021947095e+01 1.386566029538949074e+01 3.284416147751527859e+01
-1.731109028493074931e+01 1.465874206951658998e+01 3.209585606149095582e+01
-1.731524756017658362e+01 1.472148008848189171e+01 3.260840685669355565e+01
-1.723385102189932638e+01 1.508284303727383602e+01 3.184609627115586861e+01
-1.768462379739005641e+01 1.149260718334261000e+01 3.131049690168232047e+01
-1.764290592545276226e+01 1.147328287004601677e+01 3.207763519849783762e+01
-1.591271318568488979e+01 1.781558169905945377e+01 3.085052961714557540e+01
-7.474050700949888437e+00 2.148184809229277192e+01 3.177092340842098395e+01
-1.430513955727747621e+01 1.975480231111717444e+01 3.173557762271737914e+01
-5.997498762219809265e+00 2.199436979771726897e+01 3.218112456863678972e+01
-4.634378501674305539e+00 2.205206131438196238e+01 3.213819139045685347e+01
-1.716336774531441023e+01 1.540692984598613613e+01 3.112430311494760105e+01
-1.671847878037306856e+01 1.660933944634877690e+01 3.100705167574113830e+01
-1.708863653350564249e+01 1.595208582888080606e+01 3.156848902311641680e+01
-1.714102420861403075e+01 1.457048147078477918e+01 3.328260067838623115e+01
-1.723209522576948416e+01 1.519335697332027557e+01 3.242905571452708102e+01
-1.726880863601598293e+01 1.252079799416771522e+01 3.293605675677206079e+01
-1.711378381196293930e+01 1.307169375613575113e+01 3.321729164259469513e+01
-1.749945148578031251e+01 1.131730923440754033e+01 3.276870280576422800e+01
-1.731988628723709311e+01 1.191322143782771903e+01 3.312052519866195865e+01
-1.714070464291564022e+01 1.250875059397913347e+01 3.347213174456869922e+01
-1.691152620363754266e+01 1.631812381754887298e+01 3.136912761831737839e+01
-1.670646527122596225e+01 1.305742118830493048e+01 3.448143921783294985e+01
-1.685989978053214955e+01 1.366616788508713931e+01 3.421303713270793168e+01
-1.696190013124352092e+01 1.310396491818704590e+01 3.382356651976839146e+01
-1.660391005192592218e+01 1.361987280500249931e+01 3.486716986643896377e+01
-1.645089144435444695e+01 1.301087207228926168e+01 3.513211089370443574e+01
-1.555469481495818584e+01 1.844273232963796261e+01 3.117892235609844676e+01
-1.165585255190416802e+01 2.121979411697961382e+01 3.230721345612646900e+01
-1.349694364001298652e+01 2.054373214886619792e+01 3.227962238032811371e+01
-1.279924260215041798e+01 2.093524604713095627e+01 3.231398278671444046e+01
-1.512997127397700403e+01 1.907571791106080283e+01 3.153341732699433919e+01
-5.333694604345208035e+00 2.203651558630487983e+01 3.214988502873931964e+01
-1.644080966288933254e+01 1.736790328476751455e+01 3.125852598561012030e+01
-1.682878553508084352e+01 1.682664716887122580e+01 3.173218995082913452e+01
-1.712300627147914156e+01 1.584551867976175643e+01 3.222121047024488405e+01
-1.705140217003027558e+01 1.383684010990796764e+01 3.355320895279177762e+01
-1.721630390170599867e+01 1.128304925920045321e+01 3.342870735026133389e+01
-1.710461267815437125e+01 1.183568604211521347e+01 3.362821404678387438e+01
-1.701393221453579940e+01 1.649799954895599541e+01 3.201328785916955155e+01
-1.637335868929294591e+01 1.369191229130547249e+01 3.546709179901856857e+01
-1.619197492635887414e+01 1.296440796052351807e+01 3.578474187957336028e+01
-1.682366089126275810e+01 1.226418594755698699e+01 3.423315788389826508e+01
-1.694517189357351938e+01 1.453862983602477854e+01 3.396601177418828854e+01
-1.675579482702854861e+01 1.422887582674801799e+01 3.460288000828298038e+01
-1.679988160161768107e+01 1.482465185405082408e+01 3.447490319734133379e+01
-1.664765041500104559e+01 1.479100649148804791e+01 3.498819105742921209e+01
-1.653727056974945953e+01 1.420497194871243529e+01 3.515208593042370211e+01
-1.609291245388604708e+01 1.807907992881610681e+01 3.154040834373831714e+01
-1.577930609941275186e+01 1.848313778908077154e+01 3.161427349909071083e+01
-1.222746087281885963e+01 2.107749719619359396e+01 3.231059357462930137e+01
-1.419479750562192777e+01 2.015236917448038767e+01 3.224491847810084266e+01
-1.478583450809716204e+01 1.974187991691036714e+01 3.222054588890878790e+01
-1.656776530833415961e+01 1.748732656960323339e+01 3.188205544782500667e+01
-1.713356654468041640e+01 1.588350381178721094e+01 3.282752205519609845e+01
-1.723064765549830213e+01 1.530391144791922819e+01 3.301210043567907348e+01
-1.703649139676433322e+01 1.646339502835599333e+01 3.264287212648382308e+01
-1.706074799681911713e+01 1.531636967859102150e+01 3.360478125464232591e+01
-1.671716050397465381e+01 1.747708364960876892e+01 3.238013573925284305e+01
-1.693937290212372559e+01 1.704387368115731860e+01 3.245805057265589966e+01
-1.613439122395277892e+01 1.373067184747834624e+01 3.608349126691849307e+01
-1.633681185824566384e+01 1.454205419559632340e+01 3.572859988762400718e+01
-1.671324735722594923e+01 1.534138629691204692e+01 3.478921100992143067e+01
-1.688701277615243157e+01 1.532885658722763011e+01 3.419691924011235074e+01
-1.635713187870921459e+01 1.785527551990604067e+01 3.174433235062547354e+01
-1.546576281705310940e+01 1.888731840347233515e+01 3.168715835008906723e+01
-1.702253555729807033e+01 1.649527808068836521e+01 3.321727096780518451e+01
-1.713161941551460998e+01 1.584346636618063009e+01 3.342537663974883344e+01
-1.697860058716945986e+01 1.581253829414448298e+01 3.394191600426907485e+01
-1.593163494770391608e+01 1.291794272904795271e+01 3.643939494200365914e+01
-1.533194633430647613e+01 1.274664366879714095e+01 3.696129509331536411e+01
-1.553250749016219068e+01 1.355083530461973318e+01 3.675803456395416902e+01
-1.506145409805398749e+01 1.333957612767369127e+01 3.717077358353380845e+01
-1.571172301977279062e+01 1.444654990724162502e+01 3.641354212890324504e+01
-1.537687620174747494e+01 1.933170926297098191e+01 3.219507568691385302e+01
-1.649530488641601522e+01 1.790986564701817585e+01 3.230323477303687696e+01
-1.627345090824526253e+01 1.834290604055666662e+01 3.223039270728060757e+01
-1.203621506768718596e+01 2.151968717945961274e+01 3.287824183957869195e+01
-1.260781902654162501e+01 2.137741247125998356e+01 3.288154558679914174e+01
-1.306880140169986149e+01 2.115460900439119740e+01 3.289882258396138326e+01
-1.399875862386757142e+01 2.063280101042148118e+01 3.285270695715964706e+01
-1.439275368298533309e+01 2.039181243135332622e+01 3.287041420896613886e+01
-1.691327115444122597e+01 1.714750450894530687e+01 3.300907468541213063e+01
-1.683560292498588495e+01 1.608614780444030146e+01 3.445996761791927554e+01
-1.681405172536288006e+01 1.753387105633372656e+01 3.291461952474779906e+01
-1.513375834317756308e+01 1.418140972982117987e+01 3.707667365202264165e+01
-1.473274379142583790e+01 1.257555691362028760e+01 3.748287570470129992e+01
-1.653936043620020158e+01 1.535395860142595659e+01 3.537430817936044747e+01
-1.608817047813467482e+01 1.521952952514871527e+01 3.587964090271552209e+01
-1.458369026785922706e+01 1.337075369773029898e+01 3.757995609412866855e+01
-1.413358749386350866e+01 1.240255896352003084e+01 3.800450330373412555e+01
-1.582471558970708614e+01 1.883758773236758444e+01 3.221387359817062190e+01
-1.548761655656474190e+01 1.957702549625625821e+01 3.285428808909126275e+01
-1.353915771370207466e+01 2.094524533889598672e+01 3.296368129873253139e+01
-1.478666653786660312e+01 2.017153039173242490e+01 3.294367145733306756e+01
-1.383477505205168256e+01 1.287424868286148971e+01 3.824266873940848654e+01
-1.413485362169137360e+01 1.352025018888832619e+01 3.795972701155881168e+01
-1.688687549505809571e+01 1.725124672479946142e+01 3.356046925617948773e+01
-1.702863806057172624e+01 1.638263418587366615e+01 3.383835114257259136e+01
-1.657105795156397932e+01 1.804836433931458473e+01 3.291274954826300103e+01
-1.563686795856775547e+01 1.508483265905714177e+01 3.638516733339788090e+01
-1.632469449776550618e+01 1.601994329185617616e+01 3.583904230636250787e+01
-1.518590359290912950e+01 1.494808592003406567e+01 3.689036078539665908e+01
-1.663401052582461759e+01 1.605600023779257768e+01 3.514197027121627315e+01
-1.443464008322488290e+01 1.416561932963863590e+01 3.767758578565392469e+01
-1.518042791050658735e+01 1.984482541765313002e+01 3.283717495219605809e+01
-1.459047499669821057e+01 2.063096137317710799e+01 3.349501584583228464e+01
-1.419656823452795891e+01 2.082096846792358136e+01 3.339044058110565061e+01
-1.380294488347680826e+01 2.111269886199467649e+01 3.345962996616226803e+01
-1.668882510683259568e+01 1.802364390319562659e+01 3.337097725901392664e+01
-1.613228736093149251e+01 1.877469549304116114e+01 3.271670493201209240e+01
-1.594694587166910082e+01 1.579353984785673681e+01 3.622678933156342396e+01
-1.557251522578034830e+01 1.579556271557378366e+01 3.668092524081745154e+01
-1.672862340212752841e+01 1.675779393008610896e+01 3.490198053414459878e+01
-1.473452887036124892e+01 1.481121817724214118e+01 3.739604468963214146e+01
-1.632819535766838470e+01 1.856294307617405792e+01 3.291204598043879059e+01
-1.498411595105600469e+01 2.035761069728297201e+01 3.347851885845548026e+01
-1.419774400484265797e+01 2.123101790132097477e+01 3.409301009137236349e+01
-1.424605840984860095e+01 1.465389973869997498e+01 3.778111427458011917e+01
-1.692585456799751498e+01 1.692077294182411151e+01 3.425053170123925383e+01
-1.685497749428947145e+01 1.735501070715774929e+01 3.411179223584608167e+01
-1.671175864020412405e+01 1.793402647807062422e+01 3.396936231867448441e+01
-1.512152732527054511e+01 1.565915502618755184e+01 3.718600935665642027e+01
-1.434186202392625731e+01 1.534482829762523970e+01 3.773508499030291574e+01
-1.599140079515207269e+01 1.920565960998143140e+01 3.320194451243368405e+01
-1.529716686080284660e+01 2.003735276166405299e+01 3.340615934673718357e+01
-1.375744628750774368e+01 1.449653261800833270e+01 3.816637947848034429e+01
-1.638322117735663497e+01 1.878289749978658918e+01 3.359733398076794231e+01
-1.611013304647832456e+01 1.668561123007626179e+01 3.630402138154435931e+01
-1.649673847006586058e+01 1.673066409861194259e+01 3.542759118165025001e+01
-1.682311233803345019e+01 1.745870128060168014e+01 3.466254522806062965e+01
-1.628843189716100071e+01 1.681138625434727984e+01 3.589590870242901843e+01
-1.391074841937130024e+01 1.514493534810494424e+01 3.807185458880707074e+01
-1.559849746727510755e+01 1.982243598842893562e+01 3.351341480264293438e+01
-1.478801474612588329e+01 2.086986609953876126e+01 3.411887627377754484e+01
-1.524843194072291830e+01 2.046893011749151725e+01 3.414678787807088867e+01
-1.669580924405851263e+01 1.797329539132655185e+01 3.453612835308899065e+01
-1.656369283339919463e+01 1.851320214057683700e+01 3.382713692295835983e+01
-1.659139336915546181e+01 1.743200609317201000e+01 3.518768740717597154e+01
-1.345807198072128408e+01 1.520354293546177971e+01 3.843769386003675237e+01
-1.394915919163642926e+01 1.587848599289928586e+01 3.807529198935320380e+01
-1.453352307102462149e+01 1.611387651086496220e+01 3.766385653407662204e+01
-1.498090879145634347e+01 1.636261103456324761e+01 3.735529206979102668e+01
-1.550816147589286764e+01 1.650629381915136307e+01 3.697768733193183266e+01
-1.656850529140179162e+01 1.848799949632764239e+01 3.440973780017489503e+01
-1.611667129745556082e+01 1.920983460416664812e+01 3.364099978105909372e+01
-1.660910360082013071e+01 1.792173795131432712e+01 3.508967289465152106e+01
-1.612740322691595551e+01 1.737867849951490840e+01 3.623929729813820444e+01
-1.472518566308255217e+01 1.688292070061167749e+01 3.759203389055988964e+01
-1.531023838617345056e+01 1.711874829232825945e+01 3.717870168537412923e+01
-1.414082516279719215e+01 1.664736966566805165e+01 3.800488578174393695e+01
-1.635946650089379162e+01 1.740533046645162685e+01 3.571332246311744285e+01
-1.585049068994189980e+01 1.963672402983720744e+01 3.368716203871050396e+01
-1.643858165483401734e+01 1.900283910519314645e+01 3.428336414920980246e+01
-1.570953424270944687e+01 2.006794940858334186e+01 3.417242281609354393e+01
-1.540475776932420260e+01 2.053077890525619864e+01 3.479819293227198784e+01
-1.563367513231801453e+01 2.025432098783515045e+01 3.486114090494658058e+01
-1.595220684775208575e+01 1.971291713572590965e+01 3.420770656001378995e+01
-1.646570931848581054e+01 1.850107852318041068e+01 3.494784930453821659e+01
-1.589532243886439744e+01 1.735206059801472733e+01 3.676535541250394346e+01
-1.640913592429780365e+01 1.786245425154258726e+01 3.554713994773423025e+01
-1.619503721235926363e+01 1.935814404469888572e+01 3.424320572096758752e+01
-1.632249451371317406e+01 1.908016735178730627e+01 3.480568610774080440e+01
-1.591904300214680923e+01 1.800556503360922989e+01 3.663414826866416263e+01
-1.618058618637811108e+01 1.807513087722320577e+01 3.603672451016405631e+01
-1.550020574433438192e+01 1.784779732421208820e+01 3.723025590011268804e+01
-1.355664225251528343e+01 1.641189200774683954e+01 3.841649702422199653e+01
-1.497354786173154828e+01 1.757333614688782930e+01 3.758387776113076484e+01
-1.452586140724965702e+01 1.745705466444706389e+01 3.791833825478800435e+01
-1.535574118776594865e+01 2.067124324104053201e+01 3.539450084821731934e+01
-1.591630476304852770e+01 1.983182643676098422e+01 3.481368875058683443e+01
-1.555803687684319137e+01 2.044065629404409634e+01 3.554909321937229549e+01
-1.619918646694289777e+01 1.940950147747248167e+01 3.477205430359338578e+01
-1.639455178168858751e+01 1.838596155602903792e+01 3.551790156316613434e+01
-1.394145077927264964e+01 1.722124882312471428e+01 3.833112355240693603e+01
-1.620378534557803718e+01 1.915752999368149645e+01 3.532804961306418789e+01
-1.596013235713007816e+01 1.981563250776771667e+01 3.526005418111040512e+01
