8.401341324414786982e+00 2.332274478815296703e+00 5.134595226919375222e+01
1.891550269377746929e+01 5.068585611764597765e+00 3.045748086344460503e+01
1.878382886924475770e+01 4.402996287695723154e+00 3.021285367548010470e+01
1.836340532553557736e+01 5.096932783201995498e+00 2.975750071521232698e+01
1.823041393985246827e+01 3.981416556913690563e+00 2.945921042291031000e+01
1.935443819294853185e+01 4.469729647567912245e+00 3.094343484984621639e+01
1.865227636248782517e+01 3.738017985030250401e+00 2.996845161311324546e+01
1.901243746962691006e+01 3.914840638411226426e+00 3.044533788372570626e+01
1.928649690987992926e+01 5.214613000097075179e+00 3.094448772748372178e+01
1.904697213536219991e+01 5.733149594013366546e+00 3.070172925260494523e+01
1.942727915450080900e+01 5.777161709310347781e+00 3.118860195885740794e+01
1.867497463457306139e+01 5.576494297639341013e+00 3.020978299143750689e+01
1.876821246395655152e+01 6.172679252130810923e+00 3.039743185507419199e+01
1.835751043403427829e+01 5.947576679767681007e+00 2.984827581522492679e+01
1.917839999999999989e+01 6.397499999999999964e+00 3.094590000000000174e+01
1.981335111487865319e+01 5.338230715696541395e+00 3.173699835450568685e+01
1.967617414350080551e+01 5.156784527907764648e+00 3.143131954879778078e+01
1.974945314143623420e+01 6.006081983222871123e+00 3.184173823814072080e+01
1.992504576312006037e+01 4.536461865504787028e+00 3.167401366900607229e+01
1.852068003149509678e+01 3.072813899700197027e+00 2.972396764087444865e+01
1.813643878294337597e+01 2.980845288464479825e+00 2.922389946499385260e+01
1.788379402090476233e+01 3.553228904755904694e+00 2.896821683966509653e+01
1.892743359863490227e+01 3.250266724969647303e+00 3.025994513354490678e+01
1.879552486992453453e+01 2.585194927627060935e+00 3.001508098213519204e+01
1.930854852128186394e+01 3.532888792644770959e+00 3.077574609006255812e+01
1.972642249812464144e+01 3.765617155195745802e+00 3.133227388347435038e+01
1.838919999999999888e+01 2.408199999999999896e+00 2.947970000000000113e+01
1.920259191260020515e+01 2.762514334598715315e+00 3.055143988378844000e+01
1.960923293825787539e+01 2.939647841864982070e+00 3.108723747939524884e+01
2.001632371943535915e+01 3.116976987760862627e+00 3.162362764880416677e+01
2.017433222723680331e+01 3.915110919540426337e+00 3.191711312921692567e+01
1.907607193080625763e+01 1.986322116769432045e+00 3.037302879631922892e+01
1.859304232914091415e+01 1.856322903956534098e+00 2.973788562969309979e+01
1.792788953125347717e+01 2.285064233407172907e+00 2.898349362068369217e+01
2.016897608233534456e+01 4.601628080403452614e+00 3.213300157979521998e+01
2.009505502994300841e+01 5.368293579988973718e+00 3.225221818805928820e+01
2.040766008380724017e+01 5.352731345821416298e+00 3.280788495763855650e+01
2.041290547254743970e+01 4.666794614336126301e+00 3.259198847358859297e+01
2.004813996957412314e+01 6.135675850518182983e+00 3.242011595214076891e+01
2.017151204053504898e+01 6.589148166883836311e+00 3.279038134286989958e+01
2.040241310176504896e+01 6.038876432571548492e+00 3.302384702086958868e+01
2.041815029306388141e+01 3.980932189173054692e+00 3.237611537722582256e+01
1.955703933629008873e+01 2.162408770733939445e+00 3.100621754636453176e+01
1.814548437121980839e+01 1.770978649016904605e+00 2.923958593423730434e+01
2.042340099999999836e+01 3.294299999999999784e+00 3.215999999999999659e+01
1.988801901853662102e+01 2.571593838835056101e+00 3.144662455154240632e+01
2.025448909850768686e+01 2.686905524486343566e+00 3.192877260771499337e+01
1.991626694911900941e+01 1.470684149793033857e+00 3.146577251757786442e+01
1.935661850798677008e+01 1.387449268777219524e+00 3.073097597598749786e+01
2.008523897300934991e+01 2.078293296198625129e+00 3.169708217546335405e+01
2.083981661078538394e+01 5.387641194703260972e+00 3.344181937631597634e+01
2.039715663021100767e+01 6.726225464693333045e+00 3.324018751474733335e+01
2.068413445064791745e+01 4.074456627247529106e+00 3.278975736496934701e+01
2.071058847157992489e+01 3.454459935209511112e+00 3.262589474759367647e+01
1.879696978965143472e+01 1.304214970413740238e+00 2.999617908056841387e+01
1.773524941158326129e+01 1.702087279224751448e+00 2.879675447654556919e+01
1.790190610677048255e+01 1.134118506207072663e+00 2.899960709427806904e+01
1.837490702824441158e+01 1.150059850407922912e+00 2.953016015779682846e+01
2.044113087984571209e+01 2.147993511256672150e+00 3.215464084345186535e+01
2.061169776169369783e+01 2.655910107672943887e+00 3.238555220345131858e+01
1.974702415023782365e+01 8.620998123012573178e-01 3.123409215256254612e+01
2.083620926232736892e+01 4.514045008795992686e+00 3.315203714432011139e+01
2.066836962919571619e+01 6.162762688153291535e+00 3.344733996825840450e+01
2.014896602409412196e+01 7.210344716218850536e+00 3.295397756470595851e+01
1.738433917032315890e+01 1.317794993310803076e+00 2.843049320741193853e+01
1.862214797641381381e+01 7.232326980950980477e-01 2.983049085614394969e+01
2.045239205694402429e+01 1.424527095328850024e+00 3.215134991717751234e+01
2.080000066826774230e+01 2.017499382117178719e+00 3.261111176757783170e+01
1.942464581043448746e+01 7.591892668904809405e-01 3.080992969280747218e+01
1.900094949459018423e+01 7.519657692546790617e-01 3.025453870684538060e+01
2.099764231354676625e+01 3.614544664009576636e+00 3.309157263882851652e+01
2.068524632709332067e+01 6.750075255929308682e+00 3.366297743285263522e+01
2.039189899999999867e+01 7.413800000000000168e+00 3.345660000000000167e+01
1.820770895138977963e+01 3.058261208099635198e-01 2.938695493468517483e+01
1.873373498911355384e+01 1.295798896416777701e-01 2.998724033005108325e+01
2.009487243072662821e+01 9.616990834963976553e-01 3.168208008404430132e+01
2.095826432352136237e+01 2.756148970020144695e+00 3.293777434424625028e+01
2.120563286597577601e+01 4.661399435212809195e+00 3.373222920161660454e+01
2.128452783072956933e+01 3.774537867531570612e+00 3.355697792856177131e+01
2.097845484176397690e+01 6.086663893786339763e+00 3.386925671768258894e+01
1.765833668779187349e+01 4.972819872343252623e-01 2.875963696470148179e+01
1.712929562497951252e+01 5.348747566031539780e-01 2.818368955370467432e+01
1.780852525583725665e+01 -1.109619613783117131e-01 2.896052500996547252e+01
1.806607894719148533e+01 -6.071074497666273384e-01 2.927610648327365439e+01
1.920512023899459564e+01 1.991993529524194173e-01 3.051314030270930289e+01
1.957805078566100931e+01 2.544868266235069676e-01 3.100278066273562061e+01
1.996916736046102159e+01 3.455096209467654056e-01 3.150597975320243194e+01
1.851350994180961607e+01 -5.224673557841447158e-01 2.977430074973768725e+01
2.098851410065913470e+01 1.378370875510549931e+00 3.283692341248213609e+01
2.034397120375972534e+01 5.418510478526110674e-01 3.199086317140978153e+01
2.127197189730763327e+01 5.422553164528198799e+00 3.407575269892539893e+01
2.119914668250512690e+01 3.211467964789911811e+00 3.336305543746225055e+01
2.077049536540287988e+01 7.072283289035422804e+00 3.408672233963014264e+01
2.094839397032932382e+01 6.566359502139144766e+00 3.413884646930612377e+01
1.741476834984081634e+01 -1.395534444569264121e-01 2.851966796716342145e+01
1.896117758909066353e+01 -4.377827733296206780e-01 3.027275854085245399e+01
1.940909999999999869e+01 -3.530499999999999750e-01 3.077149999999999963e+01
1.980000092154574176e+01 -2.621129233025571992e-01 3.127442074649868786e+01
2.120332501772077549e+01 1.958920670495650773e+00 3.323493463688321725e+01
2.074928704753225261e+01 6.834958868180009972e-01 3.251348923562864712e+01
2.132217666971564185e+01 2.653273891153252961e+00 3.349526135727335685e+01
2.147310279763190977e+01 3.292969940859106437e+00 3.379982290456430860e+01
2.157146837018057539e+01 3.934559112323778862e+00 3.402247176698985243e+01
2.055218188892910547e+01 7.639744802047993666e+00 3.398504598940740351e+01
2.023059394064990357e+01 8.006554943400994162e+00 3.366470073355905157e+01
2.121230094561883561e+01 6.146437196117692459e+00 3.444964835295549932e+01
2.099916562130914599e+01 6.922977643186074559e+00 3.450754563531505426e+01
2.156517023759032270e+01 4.759165613622560187e+00 3.428202518554555667e+01
1.761863487080197643e+01 -6.917498735805224230e-01 2.877789763912689480e+01
1.837754412210960808e+01 -1.263874865608296982e+00 2.968081881049973703e+01
1.913572826623062895e+01 -9.090081753799716946e-01 3.050791389053882696e+01
1.873871279917159782e+01 -9.479146369155552199e-01 3.006292619474849204e+01
2.019131120902879672e+01 -1.710806139269933079e-01 3.177786817024840715e+01
2.058261647978480724e+01 -8.004886624696228026e-02 3.228130915445925098e+01
2.126556680573894553e+01 1.308616024842087500e+00 3.326226830691287262e+01
2.117672653712993380e+01 7.402686360263981413e-01 3.306237464968830153e+01
2.097400318093768234e+01 1.100061422284115409e-02 3.278485487479339611e+01
2.071238681284115302e+01 7.865579699723391549e+00 3.451323493141034504e+01
2.145832890541511162e+01 5.365744400235234579e+00 3.446451838085918240e+01
2.039088572067287686e+01 8.232268290929372512e+00 3.419295591479475860e+01
1.689932556210552406e+01 -1.340941206191998969e-01 2.795972492570444601e+01
1.784748337090756820e+01 -1.309980503577441668e+00 2.908623722829439018e+01
1.717119999999999891e+01 -7.763900000000000245e-01 2.827969900000000081e+01
1.962455475828899054e+01 -1.015541368453448001e+00 3.112371287837051170e+01
2.161187489156800012e+01 2.098176050653528080e+00 3.388818856700791571e+01
2.003735692125556156e+01 -9.909900081781266579e-01 3.166233570601481873e+01
2.144733277325232024e+01 7.676952164895398667e-01 3.348809528676735425e+01
2.152962852389385517e+01 1.433134613547458081e+00 3.368820188015805428e+01
2.136499999999999844e+01 1.019599999999999951e-01 3.328789900000000301e+01
2.079905910445823025e+01 -5.606212615332807347e-01 3.261566679696880300e+01
2.177641512546234992e+01 3.428636459377143453e+00 3.428827673335852921e+01
2.185880152847204627e+01 4.094800060240024742e+00 3.448860328189699942e+01
2.169412482130817210e+01 2.763240991394019019e+00 3.408818334556825391e+01
2.121071621540462360e+01 6.647716812069933034e+00 3.480001683088188003e+01
2.144614782960459110e+01 6.206210104088738966e+00 3.503004134341378517e+01
2.158358773606601133e+01 5.502973939179147678e+00 3.484970643874008545e+01
2.172122242423742833e+01 4.798744792129752135e+00 3.466911828147888031e+01
2.050298115869903981e+01 8.472530559321342025e+00 3.463673037931020815e+01
1.886232648129736233e+01 -1.465027965002946075e+00 3.024429887111893933e+01
2.049681611896498623e+01 -9.249642572421055142e-01 3.225776265792261199e+01
1.984014105017592300e+01 -1.678436253251397670e+00 3.147614065813899131e+01
2.164003247008572828e+01 2.552155386257178860e-01 3.376434151111032378e+01
2.114639084805295610e+01 -5.191338901719146914e-01 3.306667133623567167e+01
2.197041224701629858e+01 2.768824414081085372e+00 3.455301961841045255e+01
2.104783741425970689e+01 7.327889348914640166e+00 3.490551821032370583e+01
2.130873463578824811e+01 6.909302478284105931e+00 3.521033650013293936e+01
2.186251705901595699e+01 5.094142063153352495e+00 3.513048563675739899e+01
2.168510656012447413e+01 5.856106098310227992e+00 3.527067519381417782e+01
2.018147904916092727e+01 8.839219421447170433e+00 3.431644954675184778e+01
2.087288548296576352e+01 8.091828680463382995e+00 3.504239234240563405e+01
1.667768778292377263e+01 -8.175762698948918494e-01 2.775724614318031058e+01
1.738915459413884079e+01 -1.365130585024182386e+00 2.857335577665388016e+01
1.807633284005911989e+01 -1.928211125465112197e+00 2.939457791062760350e+01
1.937272603693535800e+01 -1.637886045613256680e+00 3.089536305413681916e+01
1.858915248055120983e+01 -2.020583510266512395e+00 2.998090335113001004e+01
2.027457210195897375e+01 -1.720116569998303646e+00 3.205009230573971024e+01
2.169628603393592670e+01 8.563788752918641833e-01 3.391471290696351559e+01
2.188147222457368102e+01 1.248342213096893083e+00 3.426233363405020071e+01
2.203470141299088070e+01 3.449869056192635064e+00 3.472431441676154407e+01
2.194347507004876974e+01 2.000965594526664670e+00 3.443643410766080137e+01
2.204001662547689477e+01 4.331999814052030828e+00 3.499035558963429082e+01
2.192406549211242961e+01 5.506002694585519386e+00 3.551130981692674737e+01
2.059102349627220008e+01 8.719904459432111565e+00 3.503820886039217442e+01
2.024698801399891579e+01 9.183152591172042634e+00 3.475940789201955283e+01
1.906959182010294285e+01 -2.301632843420011287e+00 3.060928313667723089e+01
2.092770069191668725e+01 -1.140458185056086871e+00 3.284536172623177208e+01
2.070900388064739772e+01 -1.761797476985510702e+00 3.262404496848866131e+01
2.154092041261800006e+01 -6.026596854062555852e-01 3.359544802272345976e+01
2.215322530044921834e+01 2.209940894367115050e+00 3.480834091954059062e+01
2.166665728713319083e+01 6.385801939474351485e+00 3.557134016969445867e+01
2.117119430395372603e+01 7.613052775817122253e+00 3.539080353818339830e+01
2.222109735759767091e+01 4.569023775968271472e+00 3.549173588899687104e+01
2.194745033488181107e+01 5.861004950764225896e+00 3.578208073054538829e+01
2.216030644542408012e+01 3.778213545503919857e+00 3.511916971590643755e+01
2.103340021174000185e+01 8.318099808405161610e+00 3.557160236377881546e+01
2.134327659652364417e+01 7.663049473833722480e+00 3.575596818839898106e+01
2.145070081140518781e+01 7.049578923152699517e+00 3.557448767394290456e+01
1.831607564118081299e+01 -2.575941956663090338e+00 2.971760158001741203e+01
1.958841304350491086e+01 -2.301090322252970832e+00 3.124795543822169819e+01
1.870865008773785831e+01 -2.593294862740912254e+00 3.020319486278395615e+01
2.005592831542139365e+01 -2.341949565652460485e+00 3.182889703839215656e+01
2.132232377216099550e+01 -1.224087760279715775e+00 3.337427243234115082e+01
2.191479768421293173e+01 4.083213258658534017e-01 3.424032105395897219e+01
2.181587164265875600e+01 -4.496981281491891358e-01 3.407175066811633002e+01
2.223183607300014231e+01 1.421262194561528691e+00 3.486720144218101325e+01
2.218940670796836656e+01 5.613417378615865871e-01 3.471603002030538221e+01
2.221074213886747017e+01 2.804423661507809307e+00 3.496021485746703661e+01
2.217278917659261595e+01 5.367586681618544020e+00 3.590530676438908131e+01
2.238776455892103812e+01 3.622337005730133619e+00 3.561869838182077785e+01
2.032526160197173937e+01 9.615479161789346918e+00 3.530796396248216240e+01
2.049013224343102380e+01 -2.383640504250782222e+00 3.240255203183930632e+01
2.228059551748457423e+01 3.224427727604577854e+00 3.524798218194956689e+01
2.238678513714530638e+01 2.158969935166135556e+00 3.519611834326594391e+01
2.240198522965832595e+01 4.805794938351110268e+00 3.599258209064176128e+01
2.244377611115142557e+01 4.171595306661108005e+00 3.591046120009094267e+01
2.165350827532588696e+01 7.007248017018363306e+00 3.594054534208598994e+01
2.137552912010760764e+01 7.879866067863407153e+00 3.603988797548277034e+01
2.067906401607124778e+01 8.967277721067851814e+00 3.543968308412432577e+01
1.937947023088547738e+01 -3.055435725895113475e+00 3.108973044544109499e+01
1.848819636075682382e+01 -3.106028543475753967e+00 2.999908487915473998e+01
1.893365224590931106e+01 -3.080742411913870438e+00 3.054418611279417917e+01
2.108888912938025229e+01 -2.031663396275606992e+00 3.315356586141903250e+01
2.080636836112624977e+01 -2.376519044871404418e+00 3.281842849971776133e+01
2.027149941653459564e+01 -3.004800827551528997e+00 3.218130036573346331e+01
1.982527611109891907e+01 -3.030129726998545880e+00 3.163525996557500264e+01
2.171694864038926198e+01 -1.307717894746925236e+00 3.390318555426572544e+01
2.215920495305176274e+01 -2.580250774671767888e-01 3.466651040918652171e+01
2.246411526765375299e+01 7.144167848426086209e-01 3.519191141699723602e+01
2.245273229942248960e+01 2.555814609312829333e+00 3.546788765456561521e+01
2.078504651205674136e+01 8.892302740463735589e+00 3.571596584842389888e+01
2.113403287627521365e+01 8.447401924636945836e+00 3.594918536365935324e+01
2.227296198675922412e+01 5.697777548062797237e+00 3.630909754978898007e+01
2.196312096424944826e+01 6.352753445600727744e+00 3.612475301422397678e+01
2.263489018676547104e+01 3.652066149110460014e+00 3.621859061736572016e+01
2.063111143969064543e+01 -2.946882693213991100e+00 3.264886217430598236e+01
1.995155569557844188e+01 -3.458589371581598293e+00 3.183349980351898623e+01
2.151583804078030582e+01 -1.998754991177805973e+00 3.371253379970742259e+01
2.206046845139641732e+01 -1.119595590698807319e+00 3.449828112062262875e+01
2.256303241837397877e+01 1.512767214583649711e+00 3.543229557502841232e+01
2.249537882349148887e+01 2.925907387820715577e+00 3.567621775221177671e+01
2.053713567228162162e+01 9.465482061472755504e+00 3.586007239265779134e+01
2.089764727181347226e+01 8.964973225084335695e+00 3.605170143518623149e+01
2.271296983979907580e+01 1.563781434651071667e+00 3.580573546734591162e+01
2.268690562799447008e+01 2.260887359986752276e+00 3.594355409145235569e+01
2.266088369026443061e+01 2.956864849545426388e+00 3.608114983531991982e+01
2.258289923069476046e+01 5.042599855438948175e+00 3.649350093742954471e+01
2.260890346200391576e+01 4.347095878239290556e+00 3.635599841482785877e+01
2.187478884427126857e+01 6.869850702773067752e+00 3.637907806342042960e+01
2.162779653079184072e+01 7.551207822525928925e+00 3.638004131950353326e+01
2.220036019760610202e+01 6.307660072939782481e+00 3.668985751702201270e+01
1.912254088950902187e+01 -3.723624811054740746e+00 3.084091275177929248e+01
2.099077522797675854e+01 -2.888957540482964159e+00 3.311649147133187654e+01
2.040734349151121307e+01 -3.603625576337570635e+00 3.242146455520487081e+01
2.238120855202937776e+01 1.730081343060327903e-01 3.505001830587240619e+01
2.273900000000000077e+01 8.675899999999999723e-01 3.566809800000000052e+01
1.963126343551667219e+01 -3.912872721474787152e+00 3.148532040929834253e+01
2.138527280110853823e+01 8.103941322156609672e+00 3.627295999696762152e+01
2.123464966989427083e+01 8.576684688652798982e+00 3.632670978063957534e+01
2.013020371556053689e+01 1.015152889268764369e+01 3.559036753165158729e+01
2.290159429536577917e+01 2.258372319442508935e+00 3.649454196760510172e+01
1.869782022392420728e+01 -3.820119707675667442e+00 3.032844849999345982e+01
2.135020775677580929e+01 -2.831067991836206943e+00 3.358381991791311805e+01
2.076699604984271019e+01 -3.545764324613255525e+00 3.288908556181254284e+01
2.189272046441242026e+01 -2.011746166831497096e+00 3.421047486413257133e+01
2.251537237787718126e+01 -3.272419996388845620e-01 3.528443780806853169e+01
2.240361198404592358e+01 -9.243725936783463437e-01 3.509269935581200173e+01
2.262718783006470247e+01 2.701797092578765991e-01 3.547627070904550095e+01
2.008723851177954955e+01 -4.057721158454788757e+00 3.207349784585464647e+01
2.079737645930422474e+01 9.442992376068957583e+00 3.640658183352807242e+01
2.028879198882746238e+01 1.003966213358358495e+01 3.600443054189143055e+01
2.289678144833543882e+01 1.079593714548085837e+00 3.613586336315753300e+01
2.286040637113331542e+01 1.705195950793493065e+00 3.622617726451860420e+01
2.285778551537734060e+01 3.001912316792411772e+00 3.660040070072790286e+01
2.239154527224625113e+01 5.675408164827579149e+00 3.659172124388995684e+01
2.200948902802906559e+01 6.938870934024969017e+00 3.678782946704006918e+01
2.152659936359352244e+01 8.073496697966922042e+00 3.660627308311570971e+01
2.229187438061005366e+01 -1.521381419693649484e+00 3.490100000323101881e+01
2.218013625059039384e+01 -2.118391212906877819e+00 3.470929974079189151e+01
1.931142794080537328e+01 -4.366507285870287802e+00 3.113763744079775364e+01
1.978391445232503898e+01 -4.584914196137159337e+00 3.175509645317783125e+01
2.133527508030382691e+01 8.705977772387969438e+00 3.670426583014875632e+01
2.305444751925785241e+01 1.291443215259071353e+00 3.660328684173027369e+01
2.296654355818431625e+01 4.668204296705564804e-01 3.619675181905186889e+01
2.262568415947098899e+01 5.240569962695739825e+00 3.683805387692994060e+01
2.274018299482690963e+01 4.377297744650761047e+00 3.670224560510634859e+01
2.289738249134607173e+01 3.712353999864313803e+00 3.691087989087555599e+01
2.181854988844588661e+01 7.570307840371969910e+00 3.688583770688268260e+01
2.170961970473398850e+01 -2.773183285565846035e+00 3.405112176687115522e+01
2.115365443901088938e+01 -3.607365657652901625e+00 3.340449390287852083e+01
2.054321554781050096e+01 -4.202570887801188704e+00 3.266167788865360677e+01
2.265102326364378271e+01 -9.442690158519652099e-01 3.551254111101026467e+01
2.290371504055205776e+01 6.481410118543917687e-02 3.594488958309694482e+01
2.019963928068924375e+01 -4.552743624158109625e+00 3.227216191536691525e+01
2.162723880173778923e+01 8.202975203347561362e+00 3.698403726055565954e+01
2.043113427150814232e+01 1.012048083770660689e+01 3.641553672604796077e+01
2.315871552844311410e+01 4.131310363606461866e-01 3.670204863967887832e+01
2.302117409557120098e+01 2.575214386752953999e+00 3.689493334495612231e+01
2.244628705124056367e+01 5.806705126287595498e+00 3.690084277780673716e+01
2.284965044579471538e+01 4.419509567674534622e+00 3.723121358020829774e+01
2.234533998001059274e+01 6.371180741428980276e+00 3.720168323267904498e+01
2.208167366145135446e+01 7.085543271821967082e+00 3.716687930665379014e+01
2.279185571273017530e+01 -5.323846465391189886e-01 3.575298298375195571e+01
2.091644453837356110e+01 -4.204183298094239518e+00 3.315326300699132389e+01
2.206839899999999943e+01 -2.715399999999999814e+00 3.451760099999999909e+01
2.244860078634885880e+01 -2.074031032957960097e+00 3.516509477216965962e+01
2.263769208293922119e+01 -1.577789503364166901e+00 3.548773290476356124e+01
2.305468805071391358e+01 3.046959440167623434e+00 3.711965329030908833e+01
2.105761631289210811e+01 9.420503423157198242e+00 3.695309009945408008e+01
2.143600100000000097e+01 8.835399999999999920e+00 3.708219900000000280e+01
2.322918703751936675e+01 8.891654123956669320e-01 3.698973906979662729e+01
2.310374951450255665e+01 2.070766639239999485e+00 3.695894295845394595e+01
2.266850574852395894e+01 5.438710267072760729e+00 3.718290247680850058e+01
2.196269408892877451e+01 7.636113331964481610e+00 3.739757570801160824e+01
2.181789030124325990e+01 -3.251951178132501674e+00 3.424269048646750235e+01
2.156720472237289954e+01 -3.788879375008570527e+00 3.396758556171784704e+01
2.240056782660996149e+01 -2.622664678875619604e+00 3.508168257749660057e+01
2.308405976881305222e+01 -1.192442371027105930e-01 3.639147734123013578e+01
2.306834073000411678e+01 -7.375263248916429371e-01 3.622153101820292420e+01
2.131653493240060016e+01 -4.325774669877041845e+00 3.369249811449386556e+01
2.106589571637589486e+01 -4.862602767626751366e+00 3.341744404410231795e+01
2.300022863099243509e+01 3.636235557224349435e+00 3.731993249370025012e+01
2.067962339857992404e+01 1.000500104060481732e+01 3.682411487597448740e+01
2.169924474032098871e+01 8.235990837269575593e+00 3.723982590703317186e+01
2.321194706557643173e+01 1.503070067847736446e+00 3.707021699431198414e+01
2.321207895735836502e+01 2.381204741961918447e+00 3.732854072532811074e+01
2.222633470929623556e+01 7.035800383483655551e+00 3.755544015069631314e+01
2.290133093146939558e+01 -1.209145562152627917e+00 3.593645476704178066e+01
2.067912590798193762e+01 -4.801687922097637617e+00 3.290195927673684650e+01
2.135503133199009440e+01 -4.875364360083057846e+00 3.383876012490870266e+01
2.164008536538862160e+01 -4.587824008992583913e+00 3.420473757664237269e+01
2.273273674200424210e+01 -2.529929332964319322e+00 3.564576430576471466e+01
2.316422970991845176e+01 3.089176027712005723e+00 3.764896110714882127e+01
2.337433240013328017e+01 1.038461596434610890e+00 3.741059754329943843e+01
2.336960023126723840e+01 1.714899983207669232e+00 3.753760196871731836e+01
2.280901638121806485e+01 5.020876747156220787e+00 3.750343295177937364e+01
2.306167107175431141e+01 3.775462746938418768e+00 3.770456990901649164e+01
2.271124375113059202e+01 5.636463355791518026e+00 3.752707773917327927e+01
2.249032059498160407e+01 6.434700633084046828e+00 3.771351065497205468e+01
2.202942279124176395e+01 7.767749806484649078e+00 3.780712429371094885e+01
2.191949429592349574e+01 -3.886592310467884115e+00 3.449444879021452692e+01
2.217009001777423549e+01 -3.349840841271696235e+00 3.476945251598944964e+01
2.242382036569185288e+01 -3.146526446284031220e+00 3.518450979876031681e+01
2.298318153937728070e+01 -1.823151977599104079e+00 3.607325780215045796e+01
2.322843273811050935e+01 -8.636660235315666290e-01 3.662566079593742074e+01
2.038621855644541014e+01 -5.374958784482897656e+00 3.260199259547561468e+01
2.081489790265586137e+01 -5.400201112172696050e+00 3.314199682578956896e+01
2.147949773449385091e+01 -5.341437742155525470e+00 3.409592519997235627e+01
2.295911688409981366e+01 4.461722139203110338e+00 3.776017752687145901e+01
2.326686364856118061e+01 2.402379867311867478e+00 3.759330837015478011e+01
2.113814029664074212e+01 9.429420089957588402e+00 3.723878357618726653e+01
2.084053032609714862e+01 1.002294014641616826e+01 3.739523634280303099e+01
2.150976339364444812e+01 8.982591473264294635e+00 3.753710598077697114e+01
2.337906144111780193e+01 3.625772581308291942e-01 3.728369950367204666e+01
2.325167197529271590e+01 -3.610876354710254033e-01 3.679191582343985800e+01
2.285656309909218109e+01 5.147980077623178552e+00 3.781578586845251522e+01
2.114744659797368698e+01 -5.370796923100413345e+00 3.361931789624410527e+01
2.181143495218931605e+01 -5.312088633645329239e+00 3.457236899110295525e+01
2.306503355263133770e+01 -2.437158281097086210e+00 3.621006322282028123e+01
2.323331406424803447e+01 -1.541561076267238928e+00 3.649875664496482131e+01
2.180295694071967105e+01 8.440987814585570348e+00 3.787688625175982082e+01
2.042192223409339746e+01 1.060358014719399122e+01 3.712339949082113577e+01
2.338379065529305123e+01 -3.131997900230505394e-01 3.715682428427787443e+01
2.253477529449315853e+01 6.522478701401579926e+00 3.798645859291449511e+01
2.231557807018402073e+01 7.210571175051201820e+00 3.810150381362156224e+01
2.275400007107479539e+01 5.834299857426281655e+00 3.787139921928400810e+01
2.242491341338264021e+01 -3.603344489034173925e+00 3.524096036199763660e+01
2.227178498666138040e+01 -3.984306333170899883e+00 3.502131381744274563e+01
2.203139917092464017e+01 -4.584626659967266704e+00 3.477157493927744980e+01
2.127414920890689132e+01 -6.226491839735012412e+00 3.397453187295297994e+01
2.159734767218806084e+01 -5.939019469298851384e+00 3.438666151387509018e+01
2.292016313394526605e+01 -2.980638581217123217e+00 3.602412521755458386e+01
2.339800130354849728e+01 -2.344199962141648275e+00 3.677550213619485220e+01
2.313630031398543352e+01 3.990382678377687675e+00 3.806340250442723061e+01
2.344137946870776190e+01 2.071432044546051010e+00 3.796647964302731992e+01
2.123928824690978701e+01 9.494944321215415428e+00 3.763391303291178502e+01
2.054267890559443543e+01 1.061694112737841245e+01 3.755181488505271403e+01
2.349777937879716916e+01 9.228539673389913878e-01 3.779708324900222038e+01
2.356888439666929003e+01 1.257552308048267120e+00 3.821538088771936259e+01
2.339326496047723936e+01 -1.667225953887607748e+00 3.690260573920272691e+01
2.350483366673581642e+01 -9.094219427240846088e-02 3.760661184138575663e+01
2.308619135602898709e+01 4.615264320686013555e+00 3.825244068669198327e+01
2.209615109317171999e+01 7.899384796774433504e+00 3.821666951704283122e+01
2.158352582154808630e+01 9.129783590632122525e+00 3.799201413864842181e+01
2.266737529980633425e+01 -3.397312645261628017e+00 3.563618153181478476e+01
2.338852492873394340e+01 -9.898051019101603565e-01 3.702979148430441825e+01
2.321335939735639897e+01 -2.926297258789301914e+00 3.652531042788734084e+01
2.292001642357844204e+01 5.225073435371997199e+00 3.806182944289263048e+01
2.329148712219954476e+01 3.242037693448127200e+00 3.814142875322927040e+01
2.356609190433250589e+01 1.792411187089518965e+00 3.839318280833336416e+01
2.357251664829631821e+01 -9.948525998977739704e-01 3.764112864808600278e+01
2.362587643346266120e+01 1.313166319622409706e-01 3.805639884365615444e+01
2.103522755583086479e+01 9.965777455050186973e+00 3.784834221576333846e+01
2.187668552390195131e+01 8.588319605071903950e+00 3.833185552676079055e+01
2.122992534082370142e+01 9.908614762871581050e+00 3.830144965305102289e+01
2.165730100000000036e+01 9.276999999999999247e+00 3.844699899999999815e+01
2.245505377237646627e+01 7.093251635381139231e+00 3.844109782493747218e+01
2.255796534005281728e+01 -4.037290361369802127e+00 3.552316874077653353e+01
2.237347984012388125e+01 -4.618771104946427286e+00 3.527317483303133372e+01
2.375421279964624688e+01 -6.617028851589314975e-01 3.831619816947979018e+01
2.350551147050055079e+01 -1.513139539638817421e+00 3.730872799905283443e+01
2.277185877299701744e+01 6.110911069815738728e+00 3.829048076370188625e+01
2.194520800964205876e+01 8.623120388968539274e+00 3.861774630125368901e+01
2.223271537934711972e+01 7.970148888103565810e+00 3.878825779691067765e+01
2.346645972542214764e+01 -2.994481021824594080e+00 3.704200968894636503e+01
2.302868895132447591e+01 -3.508487058057772945e+00 3.627508109565621197e+01
2.265972968017435463e+01 -4.671658738227966623e+00 3.577513856143261251e+01
2.284414516921592053e+01 -4.090273262830187662e+00 3.602502262183170245e+01
2.351925567781471216e+01 -2.121315678930185022e+00 3.722612533627722087e+01
2.325231520591926682e+01 4.005641994374391501e+00 3.844299310704153783e+01
2.299344149595204811e+01 5.297838509325140777e+00 3.854472392900416367e+01
2.351318586069300665e+01 2.428099893135780007e+00 3.839551991649028650e+01
2.366080267781959989e+01 4.933421815837599755e-01 3.833190771699912602e+01
2.368410703047416632e+01 1.372303453346630508e+00 3.874165473435601825e+01
2.364025863897230906e+01 -1.898894050906392517e+00 3.767581420636389566e+01
2.278972721064630491e+01 6.387672971265924815e+00 3.870979078763171799e+01
2.290426265005477902e+01 5.839108239273424594e+00 3.869175203580827826e+01
2.080261013921915492e+01 1.054014106260797945e+01 3.815592284385522248e+01
2.133622696616451364e+01 9.865301652160489709e+00 3.858766945144944316e+01
2.252001952392282647e+01 7.317637477331427220e+00 3.895864567476854035e+01
2.247520099999999843e+01 -5.253400000000000070e+00 3.552510099999999937e+01
2.328821703267215071e+01 -3.477787314349344960e+00 3.678471802874203433e+01
2.292366668192250856e+01 -4.642689736491274033e+00 3.629388514192757498e+01
2.316319755787839796e+01 4.576620629507457849e+00 3.862496297194837069e+01
2.341874470457490531e+01 3.394899829836206084e+00 3.863389720642961578e+01
2.164405065106255321e+01 9.518597245635064041e+00 3.898384287963238393e+01
2.376124252966115691e+01 -1.676506721990348225e+00 3.812543236338431996e+01
2.373363663434900772e+01 6.664056728502463223e-01 3.870020388649094656e+01
2.378316583997601086e+01 -3.949159159088644344e-02 3.865875066261535409e+01
2.101549612424295432e+01 1.045297495175665681e+01 3.872819070403889441e+01
2.197984118035769896e+01 8.694942908006343174e+00 3.902582792181645033e+01
2.192518090641328854e+01 8.985798798784220054e+00 3.942276327451129703e+01
2.277447449741650232e+01 -5.176268170981740191e+00 3.610441480811662274e+01
2.332605940345885998e+01 4.077069226793183176e+00 3.892605880141806551e+01
2.319651306677141278e+01 4.723584170222698830e+00 3.897681632039844146e+01
2.306686562632675219e+01 5.370602654160589573e+00 3.902761222501595739e+01
2.358499903508966611e+01 2.784799900781714577e+00 3.882460026823800803e+01
2.132977327588514527e+01 9.985786690887019645e+00 3.885601778745222390e+01
2.280759986722902610e+01 6.664500443972579902e+00 3.912920152343937019e+01
2.251327993396159144e+01 7.438740846732752487e+00 3.922711469368964288e+01
2.221929647239678118e+01 8.212096218899803901e+00 3.932491740546662840e+01
2.363456516105834737e+01 2.078378289340465201e+00 3.878311708374575772e+01
2.383275154865624756e+01 -7.461891049003663845e-01 3.861725279553800050e+01
2.388240111979983382e+01 -1.453799920330546058e+00 3.857569999853960496e+01
2.293721462770215425e+01 6.017643146445967872e+00 3.907841447596655371e+01
2.121167231746475679e+01 1.038320510143696573e+01 3.935010699605203399e+01
2.163080000000000069e+01 9.760199999999999321e+00 3.952069900000000047e+01
2.053497544200323333e+01 1.110623282582891136e+01 3.843952257312469811e+01
2.079295164538203622e+01 1.100560403281076027e+01 3.917968238742223264e+01
2.069488739560923918e+01 1.104042355300810385e+01 3.886865613182555990e+01
2.363420672600177497e+01 -3.019130929102756600e+00 3.767060382545201946e+01
2.353497185813048276e+01 -3.645273074601029339e+00 3.730872634956327261e+01
2.320077625288439194e+01 -4.265266384501137154e+00 3.676890894664811782e+01
2.338223145190359986e+01 4.264105919612213746e+00 3.943599889315430573e+01
2.345551055315475253e+01 3.431029310129033671e+00 3.887533856150628964e+01
2.346116900282341078e+01 3.719873405210056383e+00 3.923401819549034286e+01
2.223463151908024216e+01 8.333828689230369235e+00 3.993810476307358925e+01
2.193289403234238222e+01 9.046593363344548777e+00 3.972952562933159726e+01
2.370098538873019933e+01 2.013554216277630093e+00 3.919054567485948581e+01
2.381704315337272604e+01 1.241834086942160909e+00 3.955671685730543885e+01
2.371917811692187072e+01 -2.375116891398720842e+00 3.797878633316098274e+01
2.384024796298856330e+01 -2.152578187606693838e+00 3.842872386215019986e+01
2.307368438011905454e+01 -5.099152737398699564e+00 3.668360547508472536e+01
2.319302898371708821e+01 5.261298384664762295e+00 3.957040501663954046e+01
2.358270020079158868e+01 3.142864883223419170e+00 3.921998413403397166e+01
2.358040130468443252e+01 3.500944859560636058e+00 3.961538493425893392e+01
2.267192117471410029e+01 7.142849066532827251e+00 3.963758331109887934e+01
2.300046321001858729e+01 5.962357767134148112e+00 3.934997268168253726e+01
2.285351042997636739e+01 6.485686875402341123e+00 3.967807086597371580e+01
2.133901806002333501e+01 9.831782928697851531e+00 3.983519127432238349e+01
2.115848179493541537e+01 1.029376341227303548e+01 3.957700753641243097e+01
2.068654437649218636e+01 1.082689694351093301e+01 3.963327026056077074e+01
2.370261404714738873e+01 2.305554664551257904e+00 3.955139612759835899e+01
2.388651245991830763e+01 -4.377902176102517195e-01 3.913651228609995769e+01
2.393804528765728534e+01 -1.069968026602216682e+00 3.914708519223103877e+01
2.394257093244138801e+01 -2.106207038631177753e+00 3.886242732374957853e+01
2.063106872604516440e+01 1.063172962638550167e+01 3.991937648889405921e+01
2.104750063577893116e+01 9.903300637100997506e+00 4.014939879881712415e+01
2.154399250631499640e+01 9.142319359271168011e+00 4.014843209831808224e+01
2.364734801276851073e+01 -3.692231874212277276e+00 3.773030505920941380e+01
2.360343111886310652e+01 -4.295567799700177325e+00 3.757523850720674830e+01
2.338554589123493344e+01 4.560416289848266302e+00 3.979078044216807797e+01
2.274462730932966537e+01 6.868780331057339872e+00 4.011942343453268478e+01
2.295307862712087044e+01 6.116135039523170391e+00 4.009235680590263939e+01
2.302839365403876926e+01 5.852034255555555120e+00 3.974935039272243387e+01
2.253610000000000113e+01 7.621699999999999697e+00 4.014650000000000318e+01
2.204007594304754747e+01 8.381964166538944383e+00 4.014746633298057787e+01
2.121964787027420130e+01 9.631676045189077939e+00 4.053290341640400385e+01
2.038643526351785695e+01 1.056656573009120237e+01 4.028127191184952238e+01
1.972595641938096378e+01 1.122924261468887153e+01 4.041302774729009428e+01
2.052706234323309431e+01 1.040063546099857206e+01 4.051511625480321754e+01
2.000637401649634484e+01 1.089820950867385285e+01 4.088100895509801092e+01
2.365401102935486932e+01 2.880547835910340915e+00 3.969383213565557611e+01
2.387999342725015595e+01 1.557469007936016503e-01 3.940483744254397891e+01
2.373527214804704144e+01 2.471152041403095190e+00 4.010402949661106931e+01
2.381380570978632250e+01 1.777492446071424315e+00 4.015041384008230807e+01
2.379809713692305095e+01 -2.851338683638382498e+00 3.828175672861566881e+01
2.337286343752630557e+01 -5.022044704656263292e+00 3.726273636340437889e+01
2.375600186504923528e+01 -3.549168755651045615e+00 3.813498314817088186e+01
2.399601208781205841e+01 -1.898872776024269626e+00 3.936115439918108905e+01
2.399362859146884119e+01 -6.865534585143771018e-01 3.971784622638237749e+01
2.401159581796729370e+01 -1.361625682156545780e+00 3.965448739209189455e+01
2.371390606692736114e+01 -4.247007551487146593e+00 3.798820773285704888e+01
2.316140419030481468e+01 5.363943805005947141e+00 4.006530647125888578e+01
2.357810000373270398e+01 3.859399973592780420e+00 4.001120000934341192e+01
2.298260273497811568e+01 6.257135187868713366e+00 4.045587253949128126e+01
2.275945510040720521e+01 6.939100995227311053e+00 4.030125721522939131e+01
2.215462057154035591e+01 8.201219893303905550e+00 4.040307514084332752e+01
2.177301593456379081e+01 8.780930028169549928e+00 4.065973288686156906e+01
2.236099951433535438e+01 7.803800779830018186e+00 4.080360005641743015e+01
2.262787754539516882e+01 7.076415616043467693e+00 4.079397826353098822e+01
2.075688957750434227e+01 1.003819179322753286e+01 4.102621565444185592e+01
1.906489906560574354e+01 1.189249996960457345e+01 4.054489895120073584e+01
1.948640100000000075e+01 1.139509999999999934e+01 4.124639899999999670e+01
2.393322822767867564e+01 4.692660641724670789e-01 3.992328865592932630e+01
2.378610612323728546e+01 2.387849219432431891e+00 4.053186494456137012e+01
2.389227348333114875e+01 1.084412813662094521e+00 4.019675810726369036e+01
2.389916001962966519e+01 -2.712400348961915064e+00 3.870577644693811692e+01
2.320083629637183265e+01 -5.935183617239932374e+00 3.721863179603575134e+01
2.367180114312295913e+01 -4.944999969600020862e+00 3.784140079170049376e+01
2.382658422541438981e+01 -4.025742772278366743e+00 3.845786623772041679e+01
2.390806520374574617e+01 -3.382574346958790557e+00 3.877496034823646198e+01
2.012153364392851529e+01 1.071676455683059714e+01 4.113632729854919035e+01
1.606634507022603131e+01 -1.882903479064371721e-01 4.909200104800159181e+01
1.644408999999999921e+01 6.298190000000000177e-01 4.935020099999999843e+01
1.582058987062004185e+01 4.250689575131576525e-01 4.968470206941094602e+01
2.336974699364863284e+01 4.611690580617313628e+00 4.003825428134425835e+01
2.289515412017832574e+01 6.347942955872608373e+00 4.078434324744102213e+01
2.316203774419699002e+01 5.620541400892722805e+00 4.077472223614884683e+01
2.320573847550451774e+01 5.575206009486232794e+00 4.061047382435099706e+01
2.187605423271310912e+01 8.582475715342035016e+00 4.085993391600604241e+01
2.139170011086305223e+01 9.360199961658178580e+00 4.091620050425877508e+01
2.365667764863905731e+01 3.165348609987580719e+00 4.005760762338379521e+01
2.404929900000000131e+01 -3.025399999999999756e-01 4.028950100000000134e+01
2.397076237579619473e+01 3.911472059125529199e-01 4.024311545789880284e+01
2.400267589505147114e+01 -2.757907629759161150e+00 3.914884666546606695e+01
2.343629572511716219e+01 -5.440140003414529524e+00 3.752998558628060977e+01
2.378446159220012035e+01 -4.723701316446780929e+00 3.831098230984167685e+01
2.406398034204197600e+01 -1.053950451214638040e+00 4.017575155158245082e+01
2.407867895214741694e+01 -1.806266880843522937e+00 4.006186143294203106e+01
2.401002049445649078e+01 -4.280636126404993469e+00 3.925113708400893131e+01
2.032924823795261915e+01 3.160337950634158677e+00 4.581306158659008787e+01
2.037878999999999863e+01 4.011000000000000121e+00 4.586469999999999914e+01
1.999219071690421501e+01 3.457972550160927749e+00 4.633833936454518465e+01
1.960548999999999964e+01 2.904799999999999827e+00 4.681210300000000046e+01
1.994271121299587435e+01 2.606989453031391513e+00 4.628656559740265664e+01
2.066264744962412436e+01 4.641161176065180527e+00 4.540733892301403785e+01
2.093096700439680902e+01 3.690089453212261894e+00 4.481856503776948131e+01
2.060543002108513022e+01 2.999956222948389151e+00 4.528983852990673853e+01
2.099000536005061335e+01 3.030040052678933726e+00 4.483442270425651799e+01
2.027968999999999866e+01 2.309393000000000029e+00 4.576140600000000092e+01
2.069383723765039207e+01 2.008560733742805748e+00 4.531397240203607168e+01
1.884505326240776313e+01 1.179134058245867145e+01 4.161298297226423415e+01
1.883184991976992251e+01 1.147096241767579983e+01 4.197508702392599389e+01
2.010881635305517534e+01 1.039596642909038593e+01 4.149823434325666227e+01
1.946648799999999824e+01 1.091456499999999963e+01 4.178965399999999875e+01
2.001872271770371370e+01 1.039242155477143115e+01 4.165016122788494357e+01
1.853006233000423464e+01 1.391300303964341012e+00 4.768532965174341598e+01
1.864319029814812012e+01 1.996898844799350758e+00 4.773480162277054717e+01
1.811461004304386435e+01 1.618762063277309649e+00 4.815928556030760888e+01
1.949609180048989288e+01 2.024400498885936095e+00 4.675434745799603320e+01
1.901508447272060565e+01 1.570681148979827135e+00 4.721558036191751739e+01
1.938677820172198807e+01 1.144689626860677656e+00 4.669663810610980192e+01
1.983318239914497738e+01 1.726972605032114805e+00 4.622907614462823744e+01
1.912460119168473227e+01 2.451095926469665454e+00 4.727320205699230371e+01
2.029049021383508844e+01 1.634160695236147376e+00 4.577610217691689343e+01
1.701500382655481047e+01 9.351893578357521886e-01 4.896702560327195641e+01
1.675334609548000131e+01 3.674459718453992885e-02 4.883854957850822842e+01
1.758599099999999993e+01 1.240599000000000007e+00 4.858380100000000112e+01
1.741155727931482389e+01 6.416734192393186431e-01 4.849816116706414704e+01
1.794500386860672592e+01 7.106027677249993069e-01 4.808505603853243571e+01
2.350350329849306164e+01 4.376277144891909110e+00 4.038813283290468803e+01
2.342889999999999873e+01 4.893200000000000216e+00 4.076509899999999931e+01
2.194811006085626204e+01 8.318886718276047532e+00 4.099289014274494747e+01
2.255762036227351786e+01 7.168865747920842857e+00 4.095147797772045095e+01
2.212190100000000115e+01 7.680500000000000327e+00 4.122449900000000156e+01
2.075035603980417420e+01 9.878004606064255455e+00 4.120717249862474318e+01
2.112269999999999825e+01 9.348599999999999355e+00 4.137129999999999797e+01
2.057073427133172316e+01 9.870489130045180914e+00 4.151072480209992932e+01
2.061650914082329322e+01 9.746213003220619342e+00 4.163206712957721578e+01
2.088779878524650613e+01 9.264900139093970921e+00 4.175590261344436982e+01
2.129962288662119363e+01 8.736182187698879886e+00 4.157857009935715098e+01
2.153510501043809455e+01 8.834117974221317837e+00 4.118223233902007507e+01
2.145562020764153743e+01 8.792811572988529889e+00 4.132238801299344999e+01
2.141076599368470212e+01 8.069542062224694945e+00 4.193960528564640811e+01
2.121919099341186055e+01 8.667649415065802998e+00 4.172236754844298900e+01
2.094054788925517840e+01 8.664163096873718217e+00 4.222380129131292392e+01
2.128767486797901753e+01 7.931683677064007121e+00 4.223200070608429968e+01
2.043670512039991038e+01 9.347958294341037089e+00 4.232663858827748982e+01
2.188100018390127843e+01 7.474900181957284673e+00 4.165540012459284469e+01
2.155018277388908743e+01 8.071118750372466621e+00 4.168887421535146842e+01
2.171079073330113118e+01 8.208303512013340963e+00 4.140152258726307366e+01
2.361733711807637093e+01 3.567336468069517430e+00 4.086078252722105475e+01
2.368208489798302807e+01 3.123753111085908696e+00 4.027148691675287751e+01
2.157799922090561395e+01 5.329157810657425998e+00 4.338765247963281269e+01
2.147336855708727299e+01 4.377828246359135811e+00 4.387469164017669243e+01
2.176571878231193224e+01 4.787328392128221921e+00 4.318290414286797585e+01
2.132039045210267503e+01 5.236878024097542550e+00 4.391732554826034374e+01
2.169593920681828436e+01 4.153280792385197984e+00 4.350759599132193500e+01
2.094649143154469684e+01 5.271298177155895992e+00 4.494999972186143111e+01
2.112566431828451385e+01 4.463425326968308404e+00 4.436797854855690559e+01
2.135133075896978383e+01 6.013007388565965172e+00 4.356674886726426621e+01
2.093872900050999775e+01 4.480694051946122691e+00 4.488428300431795037e+01
2.371153800198897343e+01 2.904529037487153520e+00 4.090861680390715804e+01
2.390533340723150602e+01 1.281564088847295668e+00 4.054442060959421923e+01
2.389000306767192328e+01 1.652824569832308299e+00 4.079193133484078970e+01
2.362124205256770892e+01 -5.674969137801126884e+00 3.812150404931822578e+01
2.409336386286431164e+01 -2.557837805399600928e+00 3.994809121395453388e+01
2.406268791424940545e+01 -3.408604452273328089e+00 3.943482186451496574e+01
2.389716594131693128e+01 -4.502316098451300874e+00 3.878074654985076819e+01
2.127843840117295215e+01 3.604880081961622462e+00 4.432553838049535244e+01
2.162620020144787958e+01 3.519599871546452263e+00 4.383209982470798138e+01
2.110062479479644182e+01 5.942328048595595824e+00 4.454894265174078072e+01
2.104912071566261034e+01 2.369118972132368661e+00 4.485030283689279429e+01
2.145355369804065049e+01 2.915526003634345109e+00 4.417682434831828431e+01
1.984910329426498166e+01 7.143224664858398576e-01 4.625139178567162190e+01
2.183550137009718028e+01 5.421399966829326900e+00 4.285819952194302829e+01
2.160893655927108625e+01 6.105472344114287075e+00 4.303701292826685432e+01
2.173515218465869481e+01 6.310623707394262816e+00 4.254905269398646794e+01
2.150872534258285640e+01 6.994595878636362229e+00 4.272754847284656421e+01
2.138229544141934113e+01 6.789778091976724994e+00 4.321588779323783314e+01
2.032499100000000070e+01 9.624624999999999986e+00 4.271276499999999743e+01
2.121497127208057165e+01 7.522882039822622602e+00 4.300038496236619778e+01
2.120119098781975353e+01 7.954397298856810572e+00 4.356089769259816791e+01
2.104773899999999998e+01 8.255582000000000420e+00 4.278500400000000070e+01
2.134148859310971602e+01 7.726985820786411274e+00 4.251244464083972474e+01
1.819730161518248224e+01 1.202728112760101453e+01 4.216049381657244055e+01
2.041015985870620852e+01 9.648678461710627374e+00 4.209261568185915081e+01
1.993208841229348494e+01 1.003280371182707853e+01 4.242963477009506335e+01
1.884587364585379632e+01 6.631779752700903696e-01 4.714110867574913044e+01
1.933205311375727931e+01 4.519022852749330355e-01 4.671689145858763936e+01
1.861050922889191739e+01 -1.911645539602595534e-01 4.730976839168079806e+01
1.723707434812246220e+01 4.257728955377060309e-02 4.841249653930489671e+01
1.706262884529396118e+01 -5.563856366576581669e-01 4.832685185058467425e+01
1.637542449625422591e+01 -7.814550807371090091e-01 4.858039646515820920e+01
1.768337434219936100e+01 -1.877657885532164617e-01 4.795658653335771504e+01
2.163489900000000077e+01 7.198999999999999844e+00 4.224020000000000152e+01
2.202642479148896015e+01 6.776362799283802474e+00 4.184869896104784459e+01
2.178887529307371196e+01 8.236464650226462680e+00 4.127342641318361416e+01
2.233017269178824549e+01 6.905156694102966952e+00 4.141552111820541171e+01
2.217183103321953297e+01 6.077910023754085067e+00 4.204197551605277283e+01
2.216963023469697802e+01 6.767701768481745539e+00 4.170294347132568191e+01
2.245834230437858636e+01 6.060299570815880443e+00 4.175050208456522682e+01
2.231749900000000153e+01 5.378199999999999648e+00 4.223559999999999803e+01
2.274729909119582416e+01 5.352299979264374841e+00 4.179809990853179613e+01
2.253883238189395044e+01 6.128368967720573046e+00 4.160689909975367584e+01
2.295155350802419747e+01 5.896762224286364429e+00 4.124775317769400829e+01
2.275452559597914970e+01 6.533011577743707221e+00 4.109957020695993890e+01
2.237830152273071604e+01 7.076177902251451712e+00 4.126728737245210255e+01
2.045972169186137535e+01 9.690604467847776959e+00 4.188852090047470256e+01
