1.034581848538354443e+01 1.562534224221118961e+01 3.925132972270299803e+01
6.905146711784701630e+00 1.646732654880457858e+01 3.981799804397756049e+01
8.189541095945298110e+00 1.587884686774440368e+01 4.019694205963938316e+01
7.504431216268660165e+00 1.612852382764094372e+01 4.029129847386372631e+01
8.922824948620970531e+00 1.592062969484801371e+01 3.946472093523414770e+01
1.183089632042204364e+01 1.584388791828433440e+01 3.889534065675330510e+01
1.963194405169244661e+01 1.000170409861376797e+01 3.548066442317470859e+01
1.886652669879105204e+01 1.206421989680227824e+01 3.658396880221343395e+01
1.944814475693936373e+01 1.103099960717010397e+01 3.623536955210170163e+01
1.809173426143959418e+01 1.300737354482575725e+01 3.698189709865753372e+01
1.417585730250774745e+01 1.529771904253029113e+01 3.857572510586983583e+01
1.536772546889632451e+01 1.491450781809309589e+01 3.836647913027220369e+01
1.366898962498442316e+01 1.522916746147454425e+01 3.885244538611271992e+01
1.686350945100673826e+01 1.402940473157329215e+01 3.813599942922582642e+01
1.109996037841567507e+01 1.574164517018445508e+01 3.907155769251876620e+01
1.105094686146501992e+01 1.551626149746644145e+01 3.917051629357009546e+01
6.323086714911016593e+00 1.664171203090572249e+01 3.990618216201113455e+01
5.740070205861220742e+00 1.681633082402178658e+01 3.999449081288602059e+01
4.845371285659547667e+00 1.744960409135437729e+01 3.970774037322203753e+01
3.161685489248500680e+00 1.861161128811912491e+01 3.938556659084002831e+01
4.184606334565334151e+00 1.773892342252978338e+01 3.970222109375000485e+01
5.156844076612349781e+00 1.699096542493273176e+01 4.008281247656249491e+01
4.670937396991151402e+00 1.736500306989637821e+01 3.989250200622777953e+01
3.456156334127020724e+00 1.805417954866906882e+01 3.967227802532008241e+01
8.863307156134951015e+00 1.571215702105829770e+01 3.981456463267990387e+01
1.040437844933378564e+01 1.536610391240590801e+01 3.937276325064163984e+01
1.024073354945987191e+01 1.513087487800608244e+01 3.989940584969070869e+01
9.551559105953238316e+00 1.542171224388538242e+01 3.985695540523628466e+01
1.175643216694836468e+01 1.540711220054561892e+01 3.908965988671874925e+01
1.847908526986629241e+01 1.253563667054451614e+01 3.678286985501205919e+01
1.964328370131589097e+01 1.046815105894421016e+01 3.608530448816222957e+01
1.882715551065820137e+01 1.221874912822494252e+01 3.701061338286356062e+01
1.523689554606030683e+01 1.484292564452384866e+01 3.851547053558073941e+01
1.471813115245878834e+01 1.490726289621705192e+01 3.868202805357674379e+01
1.239389979817669918e+01 1.534780780349523965e+01 3.901059564761548870e+01
1.757621027500474753e+01 1.366871345862680798e+01 3.779907029372949268e+01
1.779309526063763869e+01 1.346345083381886809e+01 3.749228910115158442e+01
2.190086749459646320e+00 1.903220438409544357e+01 3.934553847252489334e+01
4.474385620596143198e+00 1.724489438274434860e+01 4.005797938245490286e+01
3.598442869354893769e+00 1.782839529785202259e+01 3.979591519089571250e+01
1.085404159974084060e+01 1.491364640992111923e+01 3.979827063647213947e+01
1.116777276139339392e+01 1.499789447642911355e+01 3.941337828117701747e+01
8.873260166636036672e+00 1.562961273831642472e+01 4.009849081577636554e+01
9.556583735604592178e+00 1.538044319416321848e+01 3.999902533048614828e+01
8.162602108846186866e+00 1.589261312901063050e+01 4.030280516302234872e+01
6.722079920564182132e+00 1.641593768191725644e+01 4.022379137509560110e+01
1.983853962121451531e+01 9.904745090183492806e+00 3.593509220511051439e+01
1.960473656798065534e+01 1.102404098457125947e+01 3.653292701518871155e+01
1.940205659553847539e+01 1.156834490644948943e+01 3.690433853182774726e+01
1.856925588195833399e+01 1.256039431643817039e+01 3.724965522386921180e+01
1.303179694050324500e+01 1.528845794536806579e+01 3.893147737590661706e+01
1.239373858157893338e+01 1.506480532292036933e+01 3.913765137319726506e+01
1.353204340722268029e+01 1.479163002145442363e+01 3.907157312781477998e+01
1.303166109844404374e+01 1.472214658956422006e+01 3.918569158440572409e+01
1.673247837340825939e+01 1.401080460782667991e+01 3.850230461170419005e+01
5.939695083095926087e+00 1.670336519877507442e+01 4.015446089050300316e+01
2.727131292219589387e+00 1.836967973183393710e+01 3.964231167570482484e+01
1.997778646715832274e+00 1.868531740716018064e+01 3.961233217419358255e+01
3.012124079971846058e+00 1.791785306972064618e+01 3.988961134351656312e+01
3.792253158366480026e+00 1.749869754807704325e+01 4.003315871216866384e+01
9.476508366393193938e+00 1.542164882249278435e+01 4.032577876368145553e+01
8.819712263266191954e+00 1.565707758435687147e+01 4.031429509460428307e+01
1.222565076695925335e+01 1.483411639005959870e+01 3.929218840270578283e+01
1.193080289655212489e+01 1.462981323530307343e+01 3.945397962169707284e+01
8.121256661104634844e+00 1.591464855158287328e+01 4.045442828092492249e+01
6.819796342667146405e+00 1.626338353101556322e+01 4.035111736142918915e+01
7.823174718502896141e+00 1.588104746910815912e+01 4.069859468441035943e+01
7.058506843756339855e+00 1.607776562093932782e+01 4.065703798197591112e+01
2.845905065600318640e+00 1.536879864528058093e+01 4.097801415181766060e+01
2.103637541154201429e+00 1.514547738651042330e+01 4.094601061689409249e+01
2.572069495246754212e+00 1.435566933123780053e+01 4.144135532430911439e+01
3.080021464242750362e+00 1.497382920092075587e+01 4.122569149018776358e+01
3.588007139755114316e+00 1.559209535862676432e+01 4.101001616299988228e+01
3.055814968437065904e+00 1.586628855850051956e+01 4.082905136396448853e+01
2.523613082665434160e+00 1.614049025222903921e+01 4.064809483824216585e+01
2.135984504311973620e+00 1.578147565930160212e+01 4.071954233372694176e+01
2.684808335303739302e+00 1.647808669263072545e+01 4.048335954738903553e+01
3.378138483267250525e+00 1.654131213654797605e+01 4.049967725235460847e+01
4.176408171552571602e+00 1.612969068288705188e+01 4.077121447525770748e+01
4.317036712939103182e+00 1.568518579634791443e+01 4.102075425925636409e+01
4.090317054610510539e+00 1.532924359881683429e+01 4.123292980825213760e+01
5.047409952008333534e+00 1.577845758907587204e+01 4.103151373339151320e+01
4.764871035136156507e+00 1.666779429256015277e+01 4.053238807590557968e+01
4.592951310388708741e+00 1.506621963839694267e+01 4.145599788720931400e+01
1.827030459184506483e+01 1.297769900703328538e+01 3.760522626070333274e+01
1.431417184295787592e+01 1.483801368160250078e+01 3.891514459903451950e+01
1.740976029388380653e+01 1.355947953400649908e+01 3.857013734449645170e+01
1.579053966334531189e+01 1.431956241294743393e+01 3.873233200704322599e+01
6.135058472972070298e+00 1.639819381608373305e+01 4.041127018265908077e+01
2.425026904662524796e+00 1.800739480579214558e+01 3.998341052358703962e+01
3.109111325321108676e+00 1.775287229423070201e+01 4.000830180865865771e+01
4.562203397654332804e+00 1.708946024812047426e+01 4.012962440227448724e+01
5.449872781935320099e+00 1.653303501577289936e+01 4.047172854706698786e+01
3.967272470540179174e+00 1.718795351365900359e+01 4.017236336497215632e+01
4.102419436706398415e+00 1.690679223394880282e+01 4.044023267435523650e+01
1.146711940486128256e+01 1.469643955660675516e+01 3.969715167725554750e+01
1.082504725007966151e+01 1.490494788400866000e+01 3.990602153623882486e+01
1.013422083786096373e+01 1.518588452910574560e+01 4.033727949109576372e+01
9.353042078594459241e+00 1.548744459290729303e+01 4.078670715729617768e+01
1.269443877573598378e+01 1.426136787455141963e+01 3.949462272945193320e+01
1.208113799911157749e+01 1.447882429819206074e+01 3.959584719089295390e+01
1.344356538968011705e+01 1.407270081236775994e+01 3.943969474386707219e+01
6.294038102685191483e+00 1.627442643006506273e+01 4.061549224628653576e+01
6.506246069898548257e+00 1.596479375892639929e+01 4.106278183324126019e+01
7.218358032633115151e+00 1.584541601940565059e+01 4.099364430147715410e+01
8.737170528820964677e+00 1.570105744929565006e+01 4.061786452509009848e+01
2.821461822382099527e+00 1.400360577351128732e+01 4.166260916097036215e+01
4.071331068314153256e+00 1.660453200426175613e+01 4.051601596535790151e+01
3.439934273251385122e+00 1.714579241029308676e+01 4.034828709996565266e+01
3.579839275921578690e+00 1.427008262186765997e+01 4.166816965695151964e+01
2.777338413874072653e+00 1.738483104767086118e+01 4.025656469767621104e+01
5.344809713085565406e+00 1.643367856186464593e+01 4.070563951874391506e+01
5.096060337084912462e+00 1.480293850344754958e+01 4.167929186823928234e+01
5.776591948383524411e+00 1.587158696387578338e+01 4.104225840948815573e+01
4.337879366813076842e+00 1.453646972147201666e+01 4.167372931602181296e+01
2.002734967046508174e+01 9.990302297626218575e+00 3.638197267185645956e+01
1.905227331058133089e+01 1.206743284188497256e+01 3.736259157948711618e+01
1.975409091955870622e+01 1.099862306308257942e+01 3.705232818100359538e+01
1.495907741930303736e+01 1.444703808921486932e+01 3.897781644928767975e+01
1.409422745518320852e+01 1.471784084570396622e+01 3.901150814715038706e+01
1.366933226932065004e+01 1.437959066634858196e+01 3.923371740312252598e+01
1.783652325476589695e+01 1.338822737617569203e+01 3.821853946220598175e+01
1.846912679396168100e+00 1.850440305372591254e+01 3.978276938001656049e+01
3.372249231702967087e+00 1.728642012988427012e+01 4.021432450634328148e+01
5.366600909941651842e+00 1.651300574177832203e+01 4.056508882090448509e+01
1.096268716445855596e+01 1.485172685930732328e+01 3.990758263118679849e+01
1.086274466951248741e+01 1.491350955385768096e+01 4.005900936071581953e+01
1.004170274977715493e+01 1.523529567706921029e+01 4.067892674816381771e+01
1.168470401048671192e+01 1.457252461251464304e+01 3.991575516470792451e+01
1.331922509935410126e+01 1.399316622734908400e+01 3.964577176539521730e+01
1.240598450042141998e+01 1.429356789987575915e+01 3.992392490795847948e+01
7.131330985741505479e+00 1.569157644736952761e+01 4.130672354607272467e+01
6.558564004985321994e+00 1.505301232130837441e+01 4.166241913534605601e+01
7.289401308443643757e+00 1.517800299686016530e+01 4.165400472878551597e+01
7.243891402884579556e+00 1.472075098260619441e+01 4.199519841727304481e+01
7.222151318452651125e+00 1.580294778459950322e+01 4.111897433419497361e+01
7.930355573571493899e+00 1.572604060788733094e+01 4.092457012867055965e+01
5.529589037952419517e+00 1.647107832148018858e+01 4.057394644657808414e+01
8.588060279879623948e+00 1.568426361924704437e+01 4.074258829352271505e+01
8.752021770781812648e+00 1.564207940262742191e+01 4.075205041864896316e+01
8.642003965899132112e+00 1.560670559036924665e+01 4.085557695627299779e+01
5.801277139355232926e+00 1.538391967967696772e+01 4.136609520089385228e+01
5.925466084573484338e+00 1.619926515732499084e+01 4.088241986313340703e+01
5.827683097613349794e+00 1.492803093004909698e+01 4.167084518963790885e+01
1.955128012661973003e+01 1.154323897035350299e+01 3.742396211741400691e+01
1.995678195179056402e+01 1.045402241987810577e+01 3.668069214915182386e+01
1.874695159442147130e+01 1.249147308827791925e+01 3.771827363737326522e+01
1.800831210750925493e+01 1.323030775685277227e+01 3.786813455187647293e+01
1.633756410718083529e+01 1.379667633351530043e+01 3.894899340154653089e+01
1.560255985314389804e+01 1.405581364846984904e+01 3.904052951579217989e+01
1.079189398085127038e+01 1.495012542914985509e+01 4.034878007933492228e+01
1.073035771873702338e+01 1.498308828935054215e+01 4.057624180860911167e+01
1.148473975091003219e+01 1.469613886294866845e+01 4.021861386228898283e+01
1.394223009798152191e+01 1.372495013522752139e+01 3.979692903216751176e+01
1.312706977348314119e+01 1.401462857309238430e+01 3.993209344269732952e+01
1.210626294637534706e+01 1.447891983191068732e+01 4.037176636236500826e+01
7.263689807172991841e+00 1.563372419179919959e+01 4.135837618903774171e+01
6.467755632702818502e+00 1.413870804723521424e+01 4.234520361941076771e+01
5.782206370790976990e+00 1.447070749149266611e+01 4.201223608813118204e+01
7.938484022897203118e+00 1.564100295631136106e+01 4.117517302418701064e+01
8.020288270498534544e+00 1.530302297301622083e+01 4.165363713005793755e+01
8.714337479590838598e+00 1.522589786267836409e+01 4.159024577507454268e+01
8.654766717732469417e+00 1.547906888081938703e+01 4.123133729212734266e+01
8.744645234841225800e+00 1.558949160483879481e+01 4.084563172705822609e+01
4.545269171784512174e+00 1.420346485772114775e+01 4.191791401085674096e+01
4.954995303114133165e+00 1.357113902211796663e+01 4.237080758849278794e+01
5.710805885454679043e+00 1.385469189473707985e+01 4.235798525111000146e+01
3.993934250767150473e+00 1.360343464516083145e+01 4.215712148693783945e+01
2.753318924792047984e+00 1.337098559757400729e+01 4.202623982156283944e+01
4.199250604935162556e+00 1.328764882414432869e+01 4.238370154593332018e+01
1.841182876825243042e+01 1.281466513480738456e+01 3.807656866276587238e+01
1.451899108431867980e+01 1.420664530025280925e+01 3.917052625102106589e+01
1.624265978554842960e+01 1.366464572895462304e+01 3.910323266593305647e+01
1.749392376528510340e+01 1.319029618344123556e+01 3.890208444580431291e+01
1.144944119120269121e+01 1.471440003600745783e+01 4.036027835721709067e+01
1.070718268469590662e+01 1.502791838138531411e+01 4.085838791955685423e+01
1.003022877628892395e+01 1.525764560296124728e+01 4.082256935117668206e+01
9.370064036042524691e+00 1.531735108198501116e+01 4.128740044382473684e+01
1.419214813954302379e+01 1.388379069293232959e+01 3.938470032200439874e+01
1.430632929232907280e+01 1.403712920845134526e+01 3.928173055742858111e+01
1.272247973434717494e+01 1.422339477397920326e+01 4.026887019443810800e+01
7.183359598989847328e+00 1.427825095056145877e+01 4.232247843019386835e+01
8.680382002025908150e+00 1.517107640176747552e+01 4.171471634593633837e+01
3.443167674293577285e+00 1.300406471864614133e+01 4.239670021658131560e+01
1.922338281757971856e+01 1.200525584873962437e+01 3.783324944641229592e+01
1.990178449008659456e+01 1.089844514307170975e+01 3.740897881100928402e+01
2.009111939418228587e+01 1.043152633873476809e+01 3.714855536141621428e+01
2.030884936687931130e+01 9.883896729606975740e+00 3.682848488625776184e+01
1.809684999999999988e+01 1.310771121288230390e+01 3.863803745312500126e+01
1.559147497716424091e+01 1.355417839171299832e+01 3.927513321985948380e+01
1.494127404623440292e+01 1.369490444450489619e+01 3.932971038425343835e+01
1.624148594975617499e+01 1.341349638599158389e+01 3.922057103309085591e+01
1.141883708576874490e+01 1.473086570157767738e+01 4.047380097954906120e+01
1.007665971532271243e+01 1.524066420430104252e+01 4.109336687695282109e+01
9.409268047837219484e+00 1.514867066675275353e+01 4.152669944047424622e+01
9.341583470117763355e+00 1.503890772863396386e+01 4.177583554934607690e+01
1.384746090097143423e+01 1.373564037288804407e+01 3.994026265914627771e+01
5.884392376481946130e+00 1.363943954536222414e+01 4.260082357217579130e+01
7.058328965138867872e+00 1.391004565903741685e+01 4.270365117925346254e+01
6.916220588321072782e+00 1.342143396121562660e+01 4.306935979218617661e+01
6.183011251113391005e+00 1.316134414333784619e+01 4.307811960905356585e+01
7.899382566852622745e+00 1.441789597535529310e+01 4.229980547840246174e+01
8.676019072922906972e+00 1.500022787046506600e+01 4.195195265329134315e+01
5.301629573275428164e+00 1.314071665801269972e+01 4.285072287269979086e+01
4.080883735831776882e+00 1.282317324820671622e+01 4.274875741224951042e+01
1.970081370635435647e+01 1.151809562856878166e+01 3.795185492787295090e+01
1.996324731154131271e+01 1.096345904470921973e+01 3.778762635098579636e+01
1.916550261536673361e+01 1.204870873762095762e+01 3.818080690901486918e+01
1.456959921874999964e+01 1.345608522868700874e+01 3.994845056249999971e+01
1.689122226562500018e+01 1.327287572570073593e+01 3.916603232421874736e+01
1.620657444051641605e+01 1.301453498234749873e+01 3.961891915448574508e+01
1.138390693360846129e+01 1.479825951589027255e+01 4.089416584964192936e+01
1.000306763629960649e+01 1.490668075912654622e+01 4.183691936589506355e+01
1.066374603342604743e+01 1.477461262415939025e+01 4.189786585268804231e+01
1.010461614442534461e+01 1.507139434926907562e+01 4.146303808188694262e+01
1.079940921491929018e+01 1.499417395773750883e+01 4.139935689414591025e+01
1.008452994403562997e+01 1.515581378715147132e+01 4.134337523637949374e+01
8.615978020802300463e+00 1.455767588488140696e+01 4.227716850704563001e+01
1.205997493056595360e+01 1.456880996147246243e+01 4.092988039415738655e+01
1.333857584918219708e+01 1.396778104832717382e+01 4.016338525135530091e+01
1.283875705051357841e+01 1.418463829250183572e+01 4.041475667568367669e+01
1.273595078360802013e+01 1.433937208474788250e+01 4.096556120881125196e+01
1.557346356758866968e+01 1.335496759803869615e+01 3.947421026972237712e+01
4.718966169187653215e+00 1.264211064472278956e+01 4.309560771484375152e+01
5.451003726709268804e+00 1.290171622746774105e+01 4.308686360752081868e+01
4.039301969198939801e+00 1.229089555523973942e+01 4.311315660129024963e+01
1.863216756945268671e+01 1.257830314394209203e+01 3.840907222579845381e+01
1.532669552505023169e+01 1.319528375941147225e+01 3.988681038809959034e+01
1.686545573712189139e+01 1.297340824466172293e+01 3.946492475083501716e+01
1.009488198813517279e+01 1.464368298269144475e+01 4.218438395172704958e+01
9.331863218027484308e+00 1.469734377724054930e+01 4.225459890681329966e+01
1.021569018505863191e+01 1.463518564043618042e+01 4.217392533024838741e+01
8.489944678600632955e+00 1.418908641762212675e+01 4.265787752679496947e+01
1.145279152570808456e+01 1.477307993950633680e+01 4.129976624216589443e+01
1.395425269567151183e+01 1.371213524580977605e+01 4.005600134565841586e+01
1.430423787350055953e+01 1.359568777120534655e+01 4.050081899168870336e+01
1.357168559004111330e+01 1.389013165239550496e+01 4.045778812688300974e+01
1.275905812573104114e+01 1.429441539482987622e+01 4.067892267532975126e+01
1.210592481725498359e+01 1.455203992072826225e+01 4.120024709735395874e+01
7.648843439107105624e+00 1.368134884176248178e+01 4.306060896093750046e+01
1.608333341781830228e+01 1.293463881645781122e+01 3.982521277531738946e+01
6.820112774751492246e+00 1.309730986662823859e+01 4.343059629327684235e+01
5.355535505795350204e+00 1.257774401936308450e+01 4.344815833808313954e+01
4.074648039756854523e+00 1.199493261862505378e+01 4.346278575404122790e+01
2.022546591777201641e+01 1.040904722752576639e+01 3.762345179384348626e+01
2.009516689143926982e+01 1.090338490659724080e+01 3.813340231769764443e+01
1.908845166899644141e+01 1.215461470794786614e+01 3.894687391620428940e+01
1.859272789178136165e+01 1.263108957423546386e+01 3.879380935199550606e+01
1.833303563966596172e+01 1.271032360683383189e+01 3.895372178836634447e+01
1.752928022302516098e+01 1.282037555026513509e+01 3.930078518879425076e+01
9.017363887398612832e+00 1.393043229262823601e+01 4.301203293272232742e+01
9.858940428288393676e+00 1.443868220172130634e+01 4.260763658749667115e+01
1.139118585919596960e+01 1.475251375731667380e+01 4.170941897249529973e+01
1.003954236907029163e+01 1.455927519078189469e+01 4.234636746690384257e+01
1.516991251854924627e+01 1.323139294605676852e+01 4.027241161986583506e+01
1.341238050963422701e+01 1.410975003791777382e+01 4.100123864133230001e+01
1.275895301105094148e+01 1.433099347155016723e+01 4.110076465319231431e+01
1.683970654296874869e+01 1.267408874917438943e+01 3.976363359375000073e+01
5.991547590341427032e+00 1.251342822901671781e+01 4.380050349218750227e+01
4.711209947799286368e+00 1.193054168403847015e+01 4.381537678336886898e+01
1.982531636455668789e+01 1.141243069912995445e+01 3.838677504260540729e+01
1.952162158948896220e+01 1.172000821027350526e+01 3.868694383318937469e+01
9.701449270849092699e+00 1.405498310858572175e+01 4.298666277820460380e+01
1.109939891181465477e+01 1.457303663633324220e+01 4.209697722808280673e+01
1.132339055611474343e+01 1.464274197786159704e+01 4.195866644043050542e+01
1.152408551313052065e+01 1.474324052801259555e+01 4.145239679181410963e+01
1.074751511971247453e+01 1.442114931428181812e+01 4.244032352648450512e+01
8.332876485313351012e+00 1.380583950133834392e+01 4.303770453421968512e+01
1.224850617912721340e+01 1.449238460841267973e+01 4.150533671163172755e+01
1.198281664170888128e+01 1.451090871406684357e+01 4.201938611608539276e+01
1.503377289059866051e+01 1.330133934771632909e+01 4.054388460350191536e+01
1.400192180993331448e+01 1.383406108031126003e+01 4.089854951873016375e+01
6.678728807279988189e+00 1.272286103003606250e+01 4.379783792760284200e+01
7.365058264533733912e+00 1.293206031465894235e+01 4.379517559850606290e+01
1.576994777048370722e+01 1.300679451780066387e+01 4.059066971729002660e+01
5.351567767210038795e+00 1.222204971349045977e+01 4.380794025139569925e+01
2.023484605918122625e+01 1.078486954405447840e+01 3.861765304769420482e+01
1.856931071854118542e+01 1.231277673841082354e+01 3.926855163497543799e+01
1.816756043782363861e+01 1.236772110290733018e+01 3.943896506656166423e+01
1.749480250976482054e+01 1.242121406106994108e+01 3.969921475671640110e+01
9.563107213226521353e+00 1.376550663666176000e+01 4.338178175783977508e+01
1.038649817159123145e+01 1.417973069749682402e+01 4.296148822218049901e+01
8.193515776714985321e+00 1.351627326365763260e+01 4.342491493338692976e+01
8.051448074515356268e+00 1.314130579333058968e+01 4.379251227266470181e+01
1.297290156981673626e+01 1.424151958594474721e+01 4.155819288527553823e+01
1.264508597748439023e+01 1.430150971477377375e+01 4.192292872668047465e+01
1.459089263298384687e+01 1.355848295782012336e+01 4.079594117533009978e+01
1.516034154001040690e+01 1.325069895691506794e+01 4.055193973458623447e+01
1.405764316027288174e+01 1.380918347034768345e+01 4.105843693032417718e+01
6.698371919120759799e+00 1.243745062703720272e+01 4.409117436240714483e+01
1.630478072692007885e+01 1.284047451097106318e+01 4.017671396241961190e+01
5.516916185955956564e+00 1.197131654236782339e+01 4.411742906585960355e+01
6.222175071918189637e+00 1.189486420212347717e+01 4.440772943937029282e+01
5.041989832330460608e+00 1.142897752578181603e+01 4.442456666431593248e+01
2.048907635194174404e+01 1.028914719868874172e+01 3.831069463653724938e+01
2.048789022397041748e+01 9.854036434373858455e+00 3.745908242393335286e+01
2.068534118287755064e+01 9.764531909976795987e+00 3.797584068602627383e+01
1.994985203178287847e+01 1.130681616229152375e+01 3.881696710797508842e+01
1.958120670137013875e+01 1.167746147650004751e+01 3.909744382026077858e+01
8.738972415292764140e+00 1.335092465353926627e+01 4.378984580078125077e+01
1.128000760838093441e+01 1.456033496749706657e+01 4.208116474794314854e+01
1.216376759899384297e+01 1.414482808398191338e+01 4.263024177779551849e+01
1.145553716505542852e+01 1.428301276752054072e+01 4.253531625402339245e+01
1.261228007326284839e+01 1.426639218316341307e+01 4.209537028655650204e+01
1.517715244944425201e+01 1.328268435514936918e+01 4.069329381710217319e+01
1.391731130218612478e+01 1.392461057234776156e+01 4.133280272232723007e+01
1.369785035041946131e+01 1.399043120857308331e+01 4.161101045752172212e+01
1.279586847735698285e+01 1.425383193938073134e+01 4.190095975663952999e+01
1.360919880576010321e+01 1.399663767856312724e+01 4.178235977277453372e+01
8.071275508592673731e+00 1.285600894465310340e+01 4.408582868760498030e+01
7.404202812815372958e+00 1.236158597971878059e+01 4.438152213076865849e+01
5.631988881879318676e+00 1.166187034128874167e+01 4.441613014670665649e+01
1.649467549900623453e+01 1.266830633497446001e+01 4.050613795441535103e+01
1.739105989824905407e+01 1.233311476618784397e+01 4.004727949494385797e+01
1.943980871842440550e+01 1.155813332362780166e+01 3.941450683411535039e+01
1.880556357421874836e+01 1.191525955610251586e+01 3.958060820958574055e+01
1.815020209950980856e+01 1.216822633537531573e+01 3.964023922994074667e+01
1.837399341942801811e+01 1.195373901455673504e+01 3.995757921803458856e+01
8.665494273892457855e+00 1.267888777051807736e+01 4.435693954033778397e+01
9.334074704473080075e+00 1.317407639511509743e+01 4.406089644449349407e+01
9.374442992277979059e+00 1.344240442501172161e+01 4.376881262313165877e+01
1.000968055533837564e+01 1.353386919674006172e+01 4.374778596262850527e+01
1.108225827637769711e+01 1.413127206089201060e+01 4.289197663701648366e+01
1.064429506270588455e+01 1.362526451069178179e+01 4.372677836938930085e+01
1.242716479797692841e+01 1.425894161046222131e+01 4.237205210903928787e+01
1.204384565152067665e+01 1.406430016887221335e+01 4.279612282317123118e+01
1.470242178140129496e+01 1.350878421915961169e+01 4.111544914831129915e+01
1.442198359735616719e+01 1.373956331197944358e+01 4.166369470368515238e+01
1.324219277225689062e+01 1.402168812695413358e+01 4.217132375866961524e+01
6.813158891565780806e+00 1.212819963302575843e+01 4.439477716011133879e+01
8.034836862518696776e+00 1.252022450150494137e+01 4.436923133478119041e+01
7.275902777011408418e+00 1.183874565584300953e+01 4.468111665992079651e+01
8.016420680776533914e+00 1.226026051911504489e+01 4.451381242202089084e+01
5.743713493182701413e+00 1.139133436670294230e+01 4.460682437385270305e+01
1.721821092852141177e+01 1.233038011480895157e+01 4.042087932022640473e+01
2.037479886440637600e+01 1.066608647794169151e+01 3.910169033382344139e+01
9.297424131657708202e+00 1.283789054431826138e+01 4.434462269864102524e+01
9.929766270353448832e+00 1.299701819531536451e+01 4.433229714453124615e+01
9.240842723668956538e+00 1.205754707210101273e+01 4.477853237499999750e+01
9.585437995223641039e+00 1.252732872832216415e+01 4.455539228950087249e+01
1.101714722389374934e+01 1.404531806687216644e+01 4.306194014226710465e+01
1.083261905268434333e+01 1.394804820986957772e+01 4.333569437614863062e+01
1.121535644788786357e+01 1.412200267912599827e+01 4.287869397552223205e+01
1.534419515103573595e+01 1.320801886658054691e+01 4.117237243368447963e+01
1.516079526129545840e+01 1.336195072186085220e+01 4.153773457888402731e+01
1.387230951279787128e+01 1.377688362030568747e+01 4.224721540688216237e+01
1.287208883031742523e+01 1.400661760546297074e+01 4.272508107783536957e+01
6.445222516906496502e+00 1.135371691944512840e+01 4.478906673500085134e+01
7.846000985408205786e+00 1.156347519585819406e+01 4.491093620655339436e+01
5.074021285209915355e+00 1.087587024346775877e+01 4.477583976933124887e+01
1.599263806042746872e+01 1.290727503399670084e+01 4.122914267724640780e+01
1.620566217986573321e+01 1.280659715642053875e+01 4.093898957734504762e+01
2.007452851455150977e+01 1.120114905348936141e+01 3.924744194941258968e+01
1.932680920065891073e+01 1.136865425943498309e+01 3.982351163506505998e+01
1.794231850928681027e+01 1.199219124132442538e+01 4.033480991179671804e+01
8.628366936204908910e+00 1.215896525809805162e+01 4.464608304808855621e+01
1.060444594564574672e+01 1.335703747778606854e+01 4.401883583553534862e+01
1.164722198046099066e+01 1.391102598957345116e+01 4.316230655505097502e+01
1.511186904400847020e+01 1.335207395024412236e+01 4.175722351228353091e+01
1.589883188654816415e+01 1.298416695133947485e+01 4.141172755185447585e+01
1.450161407955804549e+01 1.353235641289083624e+01 4.232292668610853070e+01
1.729200455157325322e+01 1.229923100299706462e+01 4.081005441332123951e+01
1.362536977235841285e+01 1.376691513816777501e+01 4.261681115850906565e+01
7.147384331305880245e+00 1.131606894082511161e+01 4.497154899022300611e+01
6.466529261452273580e+00 1.098481750071395169e+01 4.502337414397954518e+01
5.786608007531909514e+00 1.065407884025826668e+01 4.507541826518893657e+01
1.664115950398457144e+01 1.260649732259516576e+01 4.128576963564373159e+01
9.985786341230925345e+00 1.220910539030708541e+01 4.470916966335664000e+01
8.543136122977394109e+00 1.181039023856226500e+01 4.484588722281567641e+01
1.127823029577270830e+01 1.371658529031678952e+01 4.370578935036656532e+01
1.070333936491137905e+01 1.307215776132100338e+01 4.428772851894030538e+01
1.070360810339117208e+01 1.275462295528746282e+01 4.445137993339989180e+01
1.073125101923104019e+01 1.236079321037368217e+01 4.463975624568760736e+01
1.147633135730082365e+01 1.251243194617964249e+01 4.457037296836227824e+01
1.227683734463988685e+01 1.377683213316225341e+01 4.326260062757390301e+01
1.190401776957718916e+01 1.365889250298220503e+01 4.364172512694825201e+01
1.513095426052328207e+01 1.328773839117532418e+01 4.239857142266887280e+01
1.579927490000666523e+01 1.296448419947813946e+01 4.185057742428724481e+01
1.437813061266344228e+01 1.352735768574942554e+01 4.250797673487964090e+01
1.354644363961647002e+01 1.371269117681990934e+01 4.283306090412384748e+01
2.045569828601611917e+01 1.059645646135339447e+01 3.947762147678550804e+01
1.996140839261467903e+01 1.101146827574345366e+01 3.965612445817917120e+01
1.857761152071518396e+01 1.160223101862543338e+01 4.024549159901807371e+01
1.921280239139479207e+01 1.121173229807974181e+01 4.015550277017887737e+01
1.733805360906719528e+01 1.213432119811455223e+01 4.118330568765723854e+01
9.889467404997811073e+00 1.193747361085644343e+01 4.496163235154080695e+01
9.306980526119019714e+00 1.159014398688207415e+01 4.523807652435748139e+01
8.630868999552983922e+00 1.118733961579484948e+01 4.545508037729598527e+01
1.147578126917463059e+01 1.314720652514614052e+01 4.424322142011949666e+01
1.185548980897169535e+01 1.357146992454316248e+01 4.375196737507959455e+01
1.422034454167981643e+01 1.341894026146057328e+01 4.294068656224170866e+01
1.803210691475391059e+01 1.166251746979463633e+01 4.108027050745817377e+01
1.320418065259139340e+01 1.375744155018474757e+01 4.308919818232787691e+01
1.290685457502022615e+01 1.364254865770586811e+01 4.336296747559344311e+01
7.890817076206420921e+00 1.125162866976251763e+01 4.521031254388460496e+01
1.984827125840133277e+01 1.082169342992124683e+01 4.006511701657585434e+01
1.833385092177255871e+01 1.159143589972572741e+01 4.065624746888892815e+01
1.649235047887277972e+01 1.257669999137238648e+01 4.194377998847706834e+01
1.053595665709428175e+01 1.181745059453847269e+01 4.513800217480282839e+01
1.118765880233945254e+01 1.169739715357411569e+01 4.533663963417109954e+01
1.176318994075015212e+01 1.346943672161369143e+01 4.395223784760410268e+01
1.203074697071513377e+01 1.364721088525688408e+01 4.362773738302080062e+01
1.489466692095465561e+01 1.312495993146701601e+01 4.304811466514851048e+01
1.278361004373679499e+01 1.357780341399241486e+01 4.354513967648450290e+01
7.447187575742898247e+00 1.082023697105380045e+01 4.540619701988553913e+01
6.425913953674965207e+00 1.032385693843051300e+01 4.548423621672890249e+01
2.030427650391348848e+01 1.034373913046399984e+01 4.002273289618861440e+01
1.928591790388154337e+01 1.100635939373349714e+01 4.052107311310813031e+01
1.872420201212240798e+01 1.119084642647254846e+01 4.097668823368000801e+01
1.581405368861477001e+01 1.292167496696785456e+01 4.227827243453775452e+01
1.718583388929544498e+01 1.218869332041817799e+01 4.203683870684609047e+01
9.980818335136698138e+00 1.131447977569452412e+01 4.558386380474465938e+01
1.186228132423432058e+01 1.286737941061470281e+01 4.438452850475727018e+01
1.179632560654312812e+01 1.179107899177112451e+01 4.521651770859057962e+01
1.224807401768616444e+01 1.322226483269504271e+01 4.419871465944525113e+01
1.353596101946899566e+01 1.350844795344683291e+01 4.346320645743731603e+01
1.421306707115243917e+01 1.328281885516262228e+01 4.335516469613788360e+01
1.770068562359715258e+01 1.185612353636987137e+01 4.168362437322245739e+01
1.202188873623560994e+01 1.352963722967221116e+01 4.376528006709792606e+01
1.276536164242376969e+01 1.334271915719651957e+01 4.382467682055758473e+01
1.291585179485928414e+01 1.313772557418521458e+01 4.411392288374313608e+01
1.288878471075075005e+01 1.292366522183159816e+01 4.427114968090616998e+01
1.216076306094483606e+01 1.254990816532560771e+01 4.449476281483896400e+01
5.766238351630979864e+00 1.032340569058721869e+01 4.530608604011492702e+01
7.085819230866776230e+00 1.032432071787884098e+01 4.566254694131356473e+01
1.649850400864920985e+01 1.255541728384979194e+01 4.215772534710549024e+01
1.058471112154873062e+01 1.150603364191244005e+01 4.545911263053614704e+01
1.030128065840156992e+01 1.108328706819172638e+01 4.612450686939357070e+01
8.287169529658450884e+00 1.059093190815156760e+01 4.579176120251142379e+01
9.377448245250590730e+00 1.112319371145941815e+01 4.570934022741676017e+01
1.570250032026008924e+01 1.292041300233014844e+01 4.250898795869966307e+01
1.489134663543359061e+01 1.305678001792984055e+01 4.325595265150748503e+01
1.418347693354967198e+01 1.320884954634002284e+01 4.350439066549309786e+01
1.821222326309237616e+01 1.152352650925003452e+01 4.133025953225707383e+01
1.284503316890844005e+01 1.258762746950694833e+01 4.441915597102179447e+01
1.224495288912954116e+01 1.224513827649913011e+01 4.477285158622104433e+01
1.352877322080779621e+01 1.262559212282815047e+01 4.434358713787553086e+01
1.301545827198624394e+01 1.197850667032846239e+01 4.497499193412740226e+01
1.240574616956316767e+01 1.188480628984651588e+01 4.509312164974053871e+01
1.198887842159449058e+01 1.158556856740706209e+01 4.565022055136207513e+01
8.827704512013978544e+00 1.085696432495743302e+01 4.574679031315177014e+01
5.637919963440428006e+00 9.763135050739244036e+00 4.567343105496314593e+01
2.022897322141100673e+01 1.011515990861869341e+01 4.036492676140534996e+01
1.935265769830317595e+01 1.059644848324444766e+01 4.087298352613937169e+01
1.627471033262820299e+01 1.255274213942221273e+01 4.261769093689729715e+01
1.389057405134117573e+01 1.195664019390056509e+01 4.480127870270102619e+01
1.414069650048308446e+01 1.227934933251615668e+01 4.447442221943241236e+01
1.120860768672187291e+01 1.104373676517998781e+01 4.654340495140860412e+01
1.556867529512619974e+01 1.283102283264074295e+01 4.315525103398471174e+01
1.350910191673928473e+01 1.315570239733790636e+01 4.388169283149194655e+01
1.364634349362861698e+01 1.312118673352818554e+01 4.389223283759985605e+01
1.358462428830438284e+01 1.305305416572255872e+01 4.402899276564723863e+01
1.482451923244670766e+01 1.290881948891219366e+01 4.355456364927068336e+01
1.425429671157293576e+01 1.296825890842969287e+01 4.393899069887922337e+01
1.784199128719037120e+01 1.169830018320849696e+01 4.196247742035090056e+01
1.277250474478461229e+01 1.147446576579623745e+01 4.597540491214021330e+01
7.745656339153706327e+00 1.032479822384330959e+01 4.584102387128800871e+01
9.578993061376586127e+00 1.071314640219026160e+01 4.640261342045967297e+01
6.693931141624731573e+00 9.577546951305963674e+00 4.609262698162937966e+01
1.370553348826531526e+01 1.180043795279167007e+01 4.519681505559073997e+01
1.684418693945573153e+01 1.218496215646445613e+01 4.272486587834117699e+01
1.199109433759823418e+01 1.125921611354653606e+01 4.625908209772538271e+01
1.518559082128170878e+01 1.263864267004786690e+01 4.378672730093113330e+01
1.441913439977607503e+01 1.248002893028441918e+01 4.420000560508585608e+01
1.545978890845592169e+01 1.260923344244729805e+01 4.360286677588819515e+01
1.849417910862229064e+01 1.120797670781672117e+01 4.188731234990670771e+01
1.741270461881320486e+01 1.181779948629675658e+01 4.283052530591259455e+01
1.357386845914986928e+01 1.154860201128298591e+01 4.569731844716534397e+01
8.424012154728199420e+00 1.031701303488893018e+01 4.625893989010749152e+01
9.096911337272016951e+00 1.031000198978481031e+01 4.667829849738644299e+01
7.219577502419867621e+00 9.950982267114937940e+00 4.596674357320504356e+01
6.168273855566922315e+00 9.204175352970056068e+00 4.621872835657433143e+01
1.618474959259051005e+01 1.249345409758583259e+01 4.304988544230895542e+01
1.476640325021826960e+01 1.193475844843670686e+01 4.462403199454815450e+01
1.437496069371669094e+01 1.162283450981236399e+01 4.541858873860103074e+01
1.048560606718774402e+01 1.067322607416592462e+01 4.682160729983340985e+01
1.478178043628577143e+01 1.265096710160293370e+01 4.400034421419898223e+01
1.799157565512898671e+01 1.145110770727844951e+01 4.249097269206497884e+01
8.109832469373984054e+00 9.825278879816584876e+00 4.672139096836930605e+01
6.936996711081182987e+00 9.244907972335866475e+00 4.668002856847476778e+01
6.781406797496477346e+00 8.664600536605105319e+00 4.713466272303286075e+01
1.914785153656050554e+01 1.071745537610494559e+01 4.181145688529444016e+01
1.856971045854263025e+01 1.108432425104045649e+01 4.215128886308080070e+01
1.609202578417390228e+01 1.230956876462274963e+01 4.364982463590118300e+01
1.608381818918065775e+01 1.246332265313834853e+01 4.318459320044010497e+01
1.680102376026351152e+01 1.215515940350886126e+01 4.294116189275510465e+01
1.624782063821728428e+01 1.234637121407323157e+01 4.319370582083634247e+01
1.685564553314575775e+01 1.184301208142249351e+01 4.345872306356078241e+01
1.516164487782798531e+01 1.156017406839553097e+01 4.514706328737830177e+01
1.692495135629190983e+01 1.186167987264306589e+01 4.323066325978890490e+01
1.540656067560770026e+01 1.255886632390203594e+01 4.375428764377821977e+01
1.530964336260167080e+01 1.233456087101333587e+01 4.408060293891267634e+01
1.798483071443390102e+01 1.137802910540518120e+01 4.272503229789222701e+01
9.764521160593329085e+00 1.030380216835034091e+01 4.709916304039519019e+01
5.426303036217182907e+00 9.165466223672227741e+00 4.598759827203179640e+01
5.801695801173631928e+00 8.756428195407007564e+00 4.634367515120046477e+01
7.701988261609407083e+00 9.286448821232237805e+00 4.714268777484682715e+01
1.611266857499948557e+01 1.198095949445083974e+01 4.393636279682378643e+01
1.650440776030692902e+01 1.196778628447625259e+01 4.372037789519667683e+01
1.556284875762826481e+01 1.174048241605588139e+01 4.447352048906847699e+01
1.595357501750157958e+01 1.149766512243251348e+01 4.488784045134110556e+01
1.635896829969743393e+01 1.154628801512226488e+01 4.431007142396621390e+01
1.582723243310319461e+01 1.193905054862944048e+01 4.420199371458372894e+01
1.760019487660935411e+01 1.137658781717154888e+01 4.326670910287397476e+01
1.690961823793973551e+01 1.162768981116748535e+01 4.379024620970464809e+01
9.113264635531177049e+00 9.816298013466173700e+00 4.735267335029727320e+01
7.920327986606773507e+00 8.727482828207675070e+00 4.783078850847161334e+01
8.461865195944373141e+00 9.328807496702662405e+00 4.760631416066095767e+01
1.669518107432206122e+01 1.126705729465705197e+01 4.467965892318992616e+01
6.617361764501695554e+00 8.037895390014270447e+00 4.756705357097315101e+01
1.706365923019561137e+01 1.120159847073948534e+01 4.415179997516919030e+01
1.710418987725051210e+01 1.119345931204946964e+01 4.441990061255707190e+01
1.761069443893970288e+01 1.112487514463862581e+01 4.364168646326508139e+01
1.734033037185977832e+01 1.124167536123540678e+01 4.389430483855104370e+01
7.379501547716789567e+00 8.127287822446540133e+00 4.805494830784935090e+01
5.844937710024862731e+00 7.949271916750483946e+00 4.708001615895537384e+01
1.713438298446787300e+01 1.113033076979115421e+01 4.455593405639577043e+01
1.831425231491429173e+01 1.062193746261959681e+01 4.349317577678691293e+01
1.777126648525779373e+01 1.085689650747981361e+01 4.399451829033302630e+01
1.743588048152968994e+01 1.103645181482455229e+01 4.447092018782738165e+01
1.807302398762669782e+01 1.067103432714039180e+01 4.433064405674235076e+01
6.375444297290306039e+00 7.574403015990760935e+00 4.768687080377932830e+01
7.010911917213312528e+00 7.431711196512432061e+00 4.823512475619144624e+01
1.303483605803721623e+01 1.092221649754445423e+01 4.598880815766734287e+01
1.256035734203055299e+01 1.092570957975403445e+01 4.614488464814948543e+01
1.329393025607122603e+01 1.036996725138283537e+01 4.600262175627218397e+01
1.356734749441321775e+01 1.088843550799746929e+01 4.581824932003255668e+01
1.144872681678318393e+01 1.045470799272243845e+01 4.658077983576891512e+01
1.234671620875673526e+01 1.037663594425703195e+01 4.631500282655923684e+01
1.383021950219761464e+01 1.041924210999697742e+01 4.581654562767563732e+01
1.410142712663627407e+01 1.102078951078861380e+01 4.561736558805779396e+01
1.466417973530057850e+01 1.094672377258100227e+01 4.544870746540632211e+01
1.439749818345037724e+01 1.043649787807445861e+01 4.563035495461047475e+01
1.302317964018829954e+01 9.637833139508222402e+00 4.622991558383132826e+01
1.265169788851761012e+01 9.933838079865545012e+00 4.629518750043501285e+01
1.356865304618101220e+01 9.817720414440460175e+00 4.601687801896212449e+01
1.103614004687514338e+01 1.014070404511639367e+01 4.675819299453544886e+01
1.168332264758672601e+01 9.866191699916381452e+00 4.661842030699208550e+01
1.213231356632976521e+01 9.826940117610741154e+00 4.648565404195333883e+01
1.497105385018133283e+01 1.027081753326313240e+01 4.547668239221570019e+01
1.572880875406350576e+01 1.086348027362953239e+01 4.509512174727164791e+01
1.550359098399188085e+01 1.022937651880926779e+01 4.530253922530270927e+01
1.635708268691747946e+01 1.031569275901498095e+01 4.498983966928587108e+01
1.442310840877995126e+01 9.706327611836753633e+00 4.576270025859636803e+01
1.527802594066395514e+01 9.594873354389671150e+00 4.550881722744415470e+01
1.581764058412062468e+01 9.955325271096938877e+00 4.524920161627640169e+01
1.689671485364348769e+01 1.067621496984370211e+01 4.473027333169549991e+01
1.504522125568585800e+01 8.940260279485352513e+00 4.572313852732740713e+01
1.376374998125897520e+01 9.107970415022776933e+00 4.610290737579456533e+01
1.440159271016344356e+01 8.920578240810300485e+00 4.593552695953400899e+01
1.344300974102691448e+01 9.223475198960281674e+00 4.618221903369089887e+01
1.289738607398006742e+01 9.043551783564694801e+00 4.639531114012743274e+01
1.120101924107326674e+01 9.620156621474615477e+00 4.680396648086216516e+01
1.247735844040099629e+01 9.457866298011465389e+00 4.644308130069065044e+01
1.048524456590303977e+01 9.961997611383745621e+00 4.695152832497960560e+01
1.718357953974784635e+01 1.039057548035277634e+01 4.469194028634642279e+01
1.395840871564884011e+01 8.398221842594477238e+00 4.618956418548928866e+01
1.481252588788857061e+01 8.286152010117547206e+00 4.593694619516247712e+01
1.331710454033292201e+01 8.629242266234799175e+00 4.634782324305449208e+01
1.193127652164315400e+01 9.277850664517872659e+00 4.665634485607167647e+01
9.982760316802727019e+00 9.675926847034499900e+00 4.714344604510750969e+01
1.063112713307206292e+01 9.404870208721010982e+00 4.700350041151533986e+01
9.611891425424403224e+00 9.281743340164233302e+00 4.730658260514761793e+01
1.117387455638535165e+01 8.848602871938366476e+00 4.694477142519859569e+01
1.218339163675839920e+01 8.670057121123004862e+00 4.670321920874493316e+01
9.112638632716901554e+00 9.025755920117084941e+00 4.748163674363721753e+01
9.761021491562519969e+00 8.722925374879183735e+00 4.735711843104119367e+01
1.019652402495274579e+01 9.048054068718325738e+00 4.718797187187797704e+01
1.274906858674513366e+01 8.514166755985231205e+00 4.655440167150770492e+01
1.168535029531410174e+01 8.269152547657428798e+00 4.691552695639376225e+01
1.104791321536979432e+01 8.026841738017559180e+00 4.713567325682268461e+01
1.041765909061587259e+01 8.420180231817631977e+00 4.723273409878414952e+01
1.167794215177710448e+01 7.633259526724955890e+00 4.703877641509991747e+01
1.243504768229133539e+01 8.062383479061139724e+00 4.675039339032137065e+01
1.076408425688091697e+01 7.810183565000333950e+00 4.724928804160369822e+01
9.823658911958098372e+00 7.821582220484695647e+00 4.748446928015162172e+01
1.230847754861618526e+01 7.239240764710323184e+00 4.694204346934863281e+01
9.298574503297540872e+00 8.396588200350143083e+00 4.753077484314291468e+01
8.714973170975328642e+00 8.627075653479000295e+00 4.764941247780700451e+01
1.319107025579699943e+01 8.035023205387746614e+00 4.651358367464724353e+01
1.415289285466458935e+01 7.688474734439459723e+00 4.627670090514909873e+01
1.360891620814894054e+01 7.564559854289814034e+00 4.647801390721834025e+01
1.110983775238873683e+01 7.200187775227687936e+00 4.726609259839307953e+01
1.039643455498074509e+01 7.288451502011372263e+00 4.743088513309024279e+01
1.181235384297715285e+01 6.986270664004420539e+00 4.711825347661732621e+01
1.268679756542590020e+01 7.454054450524667530e+00 4.679790375140110825e+01
8.353753651586279361e+00 8.226424120814828100e+00 4.779903524039955443e+01
1.457992243729659876e+01 7.632431498184182317e+00 4.615058580414706313e+01
1.051565032428110946e+01 6.601195049914672097e+00 4.751800703628901346e+01
9.872868602796856408e+00 6.911871859720561062e+00 4.762707609069784809e+01
8.965337861575966016e+00 7.925151860948576932e+00 4.769276075171099194e+01
1.145534851649031438e+01 6.590193342578066549e+00 4.728314388578166927e+01
1.306493293261660682e+01 7.440673652888861511e+00 4.667948447993278194e+01
7.992308202528256800e+00 7.825809238541876489e+00 4.794868366254461733e+01
8.604194341575235327e+00 7.524164322308651620e+00 4.784243449024133099e+01
1.434729198454499866e+01 6.978728223338470649e+00 4.636421080137268547e+01
9.229299101803301042e+00 7.222779387409781648e+00 4.773636860966040274e+01
9.017797667971947817e+00 6.725505235656202174e+00 4.785058714355431420e+01
9.447774392539947996e+00 6.278061564548082174e+00 4.780887287994559642e+01
8.581629504507056083e+00 7.101141613451705581e+00 4.790613492843088039e+01
7.933591413063513897e+00 6.979536689033380981e+00 4.807596807191121968e+01
1.001870337899538654e+01 6.360176091415586264e+00 4.766520172312753090e+01
1.293856400911727178e+01 6.845458805326645191e+00 4.684569894783872712e+01
1.236985050555569643e+01 6.412737392192864760e+00 4.707301815287581093e+01
1.318265194797958451e+01 6.255289905095529512e+00 4.689228186015343169e+01
1.364316317273826940e+01 6.912093622697612183e+00 4.660467843091276308e+01
1.242440088962873546e+01 5.678504237139927469e+00 4.719523256300477243e+01
1.180090803887237882e+01 5.979910789577417063e+00 4.730044614678352133e+01
1.115825907559849028e+01 6.290563673137982370e+00 4.740912609075041928e+01
1.051861353073648075e+01 5.880353379112052359e+00 4.761160955270643313e+01
9.877508903764070425e+00 5.830641872898723044e+00 4.776729877613865938e+01
1.412159509288781756e+01 6.344575340190014678e+00 4.657146422723619850e+01
1.389588433018972147e+01 5.710442920369557029e+00 4.677871448682284239e+01
1.115970074482894603e+01 5.930106717366991909e+00 4.745599552581889213e+01
1.164269591378132063e+01 5.340754142165120122e+00 4.741997819717199292e+01
1.304733317373121615e+01 5.377384595144022228e+00 4.709040868703009863e+01
1.342653786245911007e+01 5.665525296291341384e+00 4.693904615750233944e+01
1.096078542288615765e+01 5.444462204878196765e+00 4.756507919878000479e+01
1.003962831052463223e+01 5.216178967202234062e+00 4.780892123079576805e+01
1.481410815710775530e+01 5.960209338957319858e+00 4.642249090057571692e+01
1.241313618570319832e+01 5.240146139887635890e+00 4.725477184943937203e+01
1.221310018573609568e+01 4.826346441439897994e+00 4.735477370212313275e+01
1.366850246886421516e+01 5.076331080615664071e+00 4.698596223828888441e+01
1.294125847082941760e+01 4.951318682341457666e+00 4.717022265236202117e+01
1.148441220701173826e+01 4.701384213854296057e+00 4.753957249644083305e+01
1.486958103832865596e+01 6.690470330621730355e+00 4.625244972771215402e+01
1.424129278510155849e+01 5.518243028687365381e+00 4.670399565445028145e+01
1.076185812006663767e+01 4.958817651737178700e+00 4.767417180982103275e+01
-1.119892464025367751e+01 -2.597256574217727820e+00 1.835918908380622128e+01
-1.188851360913683131e+01 -2.218026065564402405e+00 1.881020146438211427e+01
-1.150654029876405637e+01 -1.987853882491761537e+00 1.819719721665023826e+01
