1.982637639475901992e+01 1.088591066258120321e+01 4.115255035916270288e+01
1.914712993467074398e+01 1.097342728338850293e+01 4.198763747191126328e+01
1.784118661371820735e+01 1.144016672982311000e+01 4.268114825546596336e+01
1.037819842019991690e+01 1.197691781226182961e+01 4.635542974254865811e+01
1.211406679106621986e+01 1.293652336974303019e+01 4.577306192630208415e+01
1.272605506071985637e+01 1.324171941970531385e+01 4.513342671007246310e+01
1.533350167013093390e+01 1.256531749679020038e+01 4.401615657161005402e+01
1.599651336887530917e+01 1.223652357071058461e+01 4.374670533098926484e+01
1.494375182341680031e+01 1.276697696711682362e+01 4.441989062446192094e+01
1.725086293246611291e+01 1.166987707198163449e+01 4.314956817073108652e+01
1.426907184570267439e+01 1.302177983066345668e+01 4.467679577251052336e+01
8.976644683725195861e+00 1.129499265338796832e+01 4.669449796779997541e+01
8.328087502224219563e+00 1.102241947379986087e+01 4.674135770479684027e+01
7.680449542216654102e+00 1.075023453714385369e+01 4.678811755626830404e+01
1.665578546428647755e+01 1.189977459694966200e+01 4.361838424643646306e+01
1.167167529704129691e+01 1.200339108024901158e+01 4.644699497197289872e+01
1.030816241579918113e+01 1.169315313442309545e+01 4.657390549640286537e+01
1.264141419933745603e+01 1.318889957678514691e+01 4.552010457610965943e+01
1.229946453951197860e+01 1.273341937503886534e+01 4.598518526004043849e+01
1.232735980260778774e+01 1.245476534754890885e+01 4.616663417367498568e+01
1.237007489120754933e+01 1.211466642924427717e+01 4.638027566425552806e+01
1.306815829257564410e+01 1.222589280913894605e+01 4.631337035936491020e+01
1.333370454246717429e+01 1.313708842757789697e+01 4.518261411111039649e+01
1.317015576561663792e+01 1.311653407794626425e+01 4.545430487704452815e+01
1.554724728188783445e+01 1.255930858402880546e+01 4.443535154587034697e+01
1.598785927484027702e+01 1.222045117924545998e+01 4.402891648894188137e+01
1.490805861429514145e+01 1.279057456536785153e+01 4.455601304873322732e+01
1.427904599992061563e+01 1.299476270924838772e+01 4.482708827969637611e+01
2.015457601449892167e+01 1.030017685295238472e+01 4.131349527702649738e+01
1.970059641917617910e+01 1.065841736603816337e+01 4.163084163155123463e+01
1.841709529545375545e+01 1.110390670086271925e+01 4.249063574635977858e+01
1.899383865303883923e+01 1.076717644580408439e+01 4.229986472299619038e+01
1.729338626121038658e+01 1.147804592351276654e+01 4.343002415965372620e+01
1.157152521213196117e+01 1.178377615447580240e+01 4.664229447955196406e+01
1.102908431487408336e+01 1.153939927737937587e+01 4.690233707622708437e+01
1.038197946356886980e+01 1.122263806384075835e+01 4.709239929044944972e+01
1.301192992166660645e+01 1.278296030493439517e+01 4.595051445776579158e+01
1.318295986057022517e+01 1.305577126844937119e+01 4.554763662270342905e+01
1.492800509872368586e+01 1.273654527516658774e+01 4.485627924638691155e+01
1.792386972319791383e+01 1.105664273284959798e+01 4.324181084643082329e+01
1.408953816078052235e+01 1.309041489251163171e+01 4.504459676654757061e+01
1.394179170879557539e+01 1.303238190063587609e+01 4.523183707617420879e+01
9.679429761845330660e+00 1.125880854746945836e+01 4.689349058593384711e+01
1.957490095326372881e+01 1.043083492190097417e+01 4.210932211584332663e+01
1.819774764858627591e+01 1.103767597871867068e+01 4.286744001961745454e+01
1.664263725025535834e+01 1.187540636973278652e+01 4.404168245305331197e+01
1.216920635930345362e+01 1.167536541990602750e+01 4.677100313572045565e+01
1.276726247553223459e+01 1.156689071266109003e+01 4.689971866187624272e+01
1.318283800394232941e+01 1.301071206677246650e+01 4.571829990885019157e+01
1.327723144866398819e+01 1.310187978882612114e+01 4.544088667554463967e+01
1.557749459320846341e+01 1.247811627262869116e+01 4.488549635507850155e+01
1.391335841184316457e+01 1.301481655194936948e+01 4.536099308563917276e+01
9.228717160267901676e+00 1.091842424519453836e+01 4.717496855440659687e+01
8.255686068195281280e+00 1.050991522289106328e+01 4.724477942382686990e+01
1.998635545837898420e+01 9.997024157008841172e+00 4.195146505481508115e+01
1.906524330687347302e+01 1.053313522896480237e+01 4.258167530600832862e+01
1.855590238052453600e+01 1.063534908408306734e+01 4.305365489839841331e+01
1.613015471322289685e+01 1.221652298703465966e+01 4.430843321919044797e+01
1.729804037590235311e+01 1.153015700805381449e+01 4.405445757568467258e+01
1.164532735331705204e+01 1.131327294123144966e+01 4.716088106579529438e+01
1.339627886844428062e+01 1.252922273391710029e+01 4.611456233204754085e+01
1.335436458919360980e+01 1.160529338860067661e+01 4.676423751094063164e+01
1.372434385756216102e+01 1.283249872818327120e+01 4.591579472441490850e+01
1.454907000691495611e+01 1.292781166877951193e+01 4.528099783446157289e+01
1.510789402269592330e+01 1.269196997626985990e+01 4.516187587328926156e+01
1.772022862773489749e+01 1.123192453149703063e+01 4.372086479777330936e+01
1.333907424570049294e+01 1.301739339218670821e+01 4.555554315230697426e+01
1.403666284687664501e+01 1.284590542207327246e+01 4.559076762557378260e+01
1.429341719706317093e+01 1.272261673080026156e+01 4.582708197625694169e+01
1.431812032316252825e+01 1.252666964677074724e+01 4.599267206495681393e+01
1.368287685250749597e+01 1.222420117243172122e+01 4.623379389266379036e+01
7.644086491936600503e+00 1.049381754077788820e+01 4.703992962578575998e+01
8.867850739494745227e+00 1.052602620741489403e+01 4.744981369494785639e+01
1.671351086456661861e+01 1.187355740881176835e+01 4.418150493674212242e+01
1.220673340213699021e+01 1.144017935975594646e+01 4.703028514212468991e+01
1.186866268178888184e+01 1.116234671491551644e+01 4.746471543240540569e+01
1.001539564642291680e+01 1.075700227711949353e+01 4.753377618266757310e+01
1.108440752533701534e+01 1.118647104702594497e+01 4.729125679870115562e+01
1.609057712708171550e+01 1.222439516870699272e+01 4.445887804613781213e+01
1.566774280924713203e+01 1.245569677318187551e+01 4.504007814491833983e+01
1.513465675608830097e+01 1.263994646975554836e+01 4.528919928869894562e+01
1.813716806574044327e+01 1.093367165992042445e+01 4.338728504521032647e+01
1.429756897621839862e+01 1.222250980657763364e+01 4.615329721593035828e+01
1.379917886759932166e+01 1.195378101466748966e+01 4.640304522096792539e+01
1.491195343099939663e+01 1.222081952800406768e+01 4.606873021015518788e+01
1.452900823682379894e+01 1.168212641722893963e+01 4.648799785282479746e+01
1.394176244861997382e+01 1.164371530056174642e+01 4.662841622190215674e+01
1.343487677850182216e+01 1.147013847638991280e+01 4.699432529682953685e+01
1.054979240950866881e+01 1.097169298546824301e+01 4.741256633086772609e+01
7.495596110454637362e+00 1.005290215391500119e+01 4.741396677310559227e+01
1.992063623377930526e+01 9.741984959381445819e+00 4.227239090432507851e+01
1.912665230300346764e+01 1.010764942475027439e+01 4.284755685677239256e+01
1.663442727221247708e+01 1.188916136330551332e+01 4.448242267900047864e+01
1.530075087301732850e+01 1.159717242587413111e+01 4.630667029484676789e+01
1.549243329503349820e+01 1.186640661381199990e+01 4.609920114492832965e+01
1.265275195608933956e+01 1.113824064013055626e+01 4.763912125246603324e+01
1.622691260435509264e+01 1.221971388128397606e+01 4.491471571978467381e+01
1.473465988744351307e+01 1.267431781693028015e+01 4.562591031022134302e+01
1.486348468222989894e+01 1.264264877238062823e+01 4.563238964138603393e+01
1.486340980461570283e+01 1.261255682933064115e+01 4.574091681707619728e+01
1.572117235280020253e+01 1.235162578905739217e+01 4.529740763277705895e+01
1.543428024979670887e+01 1.250232940330885256e+01 4.566108027295918959e+01
1.788640088757718871e+01 1.107564927251032216e+01 4.391796004212461924e+01
1.410220267922011139e+01 1.137343160990638324e+01 4.709062081575874004e+01
9.480605115810140759e+00 1.054215106383970912e+01 4.765503879421731881e+01
1.117210278966499182e+01 1.089141946110197345e+01 4.773597358652386191e+01
8.465673153489644776e+00 9.933112448062562549e+00 4.787981003972167571e+01
1.503063282352994179e+01 1.150063037252068554e+01 4.653089280954552009e+01
1.717845293421999742e+01 1.155382237461464356e+01 4.450597264728693148e+01
1.337798816218854547e+01 1.125592007756353397e+01 4.736488795367070281e+01
1.616390122549417185e+01 1.213882617150927778e+01 4.548743615608621838e+01
1.565082997735193082e+01 1.201353240387007659e+01 4.592757825918399561e+01
1.630691400992262530e+01 1.206368747196911784e+01 4.530558968268691444e+01
1.847051087147376336e+01 1.062119562281881535e+01 4.378150179131629471e+01
1.772158879500549489e+01 1.121904066992410698e+01 4.452948913593868241e+01
1.481696483295621469e+01 1.134631427857458874e+01 4.683233620598540625e+01
1.007381416272327535e+01 1.056019598144897031e+01 4.783024736663367094e+01
1.066680111257546848e+01 1.057824243346458104e+01 4.800571826139761811e+01
8.972903946095009076e+00 1.023749088663955220e+01 4.776748895120958593e+01
7.958477196157251576e+00 9.628754263683225290e+00 4.799210292849626569e+01
1.672483439191031351e+01 1.188632556396330742e+01 4.478605573165155818e+01
1.607264787007883200e+01 1.151220289639924310e+01 4.612882011944319771e+01
1.553208581915692221e+01 1.131918274819297388e+01 4.657725802223303191e+01
1.195533727467719665e+01 1.086690758071122431e+01 4.791072014328051409e+01
1.591197157726975320e+01 1.215433915374627460e+01 4.572334224361573973e+01
1.816896649705268985e+01 1.086829404360417328e+01 4.423461328625492683e+01
9.716009736401375108e+00 1.017884660325905166e+01 4.815765917275528096e+01
8.622559129559393298e+00 9.691059279933771364e+00 4.821460980193432277e+01
8.385529755004295538e+00 9.197834297553011851e+00 4.851638151265481724e+01
1.905945444191442206e+01 1.016654596476348260e+01 4.364501544366009256e+01
1.861273156636579529e+01 1.051746045989349199e+01 4.393980603915365890e+01
1.689290118134828234e+01 1.177563178873119831e+01 4.531377560847463570e+01
1.671318033610404541e+01 1.185996405227484551e+01 4.491620684131797958e+01
1.722385774359075938e+01 1.155222142148329212e+01 4.465748410904280519e+01
1.686784382506764857e+01 1.174554122622510555e+01 4.491671677817536334e+01
1.752156665499739674e+01 1.128623725676466805e+01 4.511683502447116467e+01
1.620113727119283453e+01 1.116329623301290397e+01 4.635786347767731996e+01
1.750883281473279496e+01 1.127132941571384173e+01 4.491896651815693531e+01
1.634057973310146039e+01 1.205080348493979514e+01 4.544535594271493295e+01
1.638991591171005524e+01 1.180619017762083267e+01 4.578551262679235379e+01
1.820932870020230965e+01 1.079161570147025806e+01 4.438380648515490634e+01
1.125977208235832627e+01 1.059629472992046040e+01 4.818149372941238084e+01
7.266038615045018467e+00 9.569569890921396649e+00 4.773179726354143781e+01
7.578008380197497118e+00 9.237504310043306077e+00 4.808809234903073815e+01
9.286968630587347562e+00 9.753402698496641321e+00 4.843748892309626086e+01
1.701087615997179014e+01 1.142839934822113790e+01 4.561973659135134085e+01
1.726245608677982446e+01 1.141294696744286341e+01 4.538078273941459884e+01
1.669360847344767151e+01 1.126157032007544068e+01 4.596561022385262163e+01
1.686917945499038751e+01 1.100769132594830779e+01 4.613192402655064228e+01
1.731466965427817684e+01 1.101104112489514719e+01 4.579547225838450686e+01
1.685204454997239409e+01 1.140860348578647354e+01 4.579324931148778433e+01
1.815038957343548631e+01 1.079672510727984580e+01 4.492137913668574356e+01
1.763169013934186680e+01 1.105077642283267636e+01 4.544857106658528778e+01
1.060559588957202237e+01 1.020606781569874855e+01 4.842102858483262651e+01
9.381595777800368907e+00 9.290719013219108646e+00 4.885124203126873965e+01
9.951259252220623353e+00 9.815744965916657350e+00 4.866057362312793089e+01
1.744268193610422202e+01 1.070901741517411487e+01 4.595565316146616652e+01
8.147501774537063923e+00 8.662794334605917967e+00 4.878738066306335242e+01
1.782741821622072820e+01 1.061898716733401571e+01 4.564845945859556053e+01
1.780088582497575445e+01 1.059534180518171986e+01 4.578493447088742840e+01
1.814389999375410767e+01 1.056891772963643028e+01 4.529104873866998560e+01
1.798700890439831213e+01 1.063864677465896946e+01 4.547502977983388917e+01
8.812912411613917030e+00 8.766596972503545970e+00 4.904154939133464808e+01
7.482255361573079355e+00 8.559025613017317013e+00 4.853348160154131108e+01
1.778441429353522807e+01 1.053192393001770455e+01 4.585148705951851866e+01
1.865907058376362571e+01 1.008725933084632054e+01 4.513408671815754758e+01
1.834530599693282582e+01 1.022684733070760998e+01 4.550196199863310653e+01
1.801901223223402226e+01 1.041032381449118738e+01 4.578003609178198730e+01
1.847234941063175739e+01 1.000010875852932557e+01 4.565565124698176902e+01
7.862283705594199645e+00 8.232429531900340436e+00 4.886874731115850068e+01
8.384808397235186561e+00 8.120593382976121433e+00 4.916367561208988235e+01
1.424019436183599829e+01 1.080037045879228685e+01 4.706829094559911653e+01
1.381457774559926222e+01 1.086253174358855667e+01 4.721810782331260015e+01
1.437825221899768735e+01 1.022730586504188466e+01 4.704597030562363358e+01
1.470230184018196695e+01 1.070094689714593272e+01 4.690546824660789582e+01
1.275217051109735955e+01 1.053451577625295243e+01 4.762606700680607474e+01
1.352680259460225365e+01 1.035132538062967278e+01 4.734547741676038157e+01
1.485485602918374504e+01 1.020906669267669464e+01 4.687364316735849457e+01
1.519330469294098407e+01 1.076390232560179250e+01 4.672489161819687098e+01
1.568838693985616572e+01 1.063451971198870538e+01 4.656048266085564080e+01
1.536283563105264882e+01 1.016831307547620611e+01 4.669871272130482964e+01
1.399509034991130108e+01 9.545652006066884354e+00 4.721601754896398973e+01
1.372236097910691122e+01 9.880162141783658925e+00 4.729777905355020806e+01
1.451660695519608169e+01 9.654240514746938118e+00 4.702365355408451109e+01
1.233562699612878077e+01 1.027968774670445740e+01 4.779197617785934682e+01
1.285155623407136893e+01 9.931312088441801578e+00 4.761302538107841542e+01
1.323874776378404761e+01 9.839528276454039712e+00 4.747285413593806425e+01
1.584513782175415919e+01 9.950062806478717548e+00 4.654371263315471197e+01
1.658009710711194984e+01 1.042707011573678244e+01 4.626491377836310903e+01
1.628867269447473021e+01 9.846508579686119589e+00 4.639787781906204600e+01
1.700920509368934219e+01 9.838010111632101484e+00 4.615474828103923244e+01
1.525689212667459671e+01 9.459989703239493508e+00 4.677353855608224364e+01
1.599871042120822473e+01 9.265566158048121892e+00 4.652694091290216960e+01
1.650413543974203989e+01 9.551832545290436016e+00 4.634234300859989730e+01
1.751435111957816204e+01 1.012428991355200836e+01 4.596727189934973978e+01
1.570074492396287624e+01 8.666204955098891105e+00 4.666366905887225869e+01
1.458737034421121592e+01 8.958213637780648497e+00 4.703700541270091406e+01
1.512654636850838763e+01 8.713918560032368532e+00 4.685987790910785833e+01
1.431719006536951078e+01 9.102916181773407445e+00 4.712505826899644035e+01
1.379588642546148947e+01 8.994293122839462029e+00 4.731706736882118491e+01
1.238653665056210329e+01 9.751435204949999047e+00 4.779403497883145491e+01
1.347324773424203137e+01 9.436994594756688670e+00 4.740805096494064230e+01
1.182303800518208980e+01 1.017393321476284207e+01 4.798779163160750727e+01
1.771026178612462232e+01 9.810046800405746836e+00 4.591874223445108782e+01
1.466020618033321554e+01 8.262185776520963643e+00 4.705029850700098848e+01
1.540248967303734418e+01 8.067288553606626778e+00 4.680029576962986226e+01
1.411724640629191718e+01 8.551590746199694948e+00 4.722610800267877096e+01
1.295116136924931105e+01 9.328284471345776652e+00 4.759999062971957073e+01
1.134671821529063607e+01 9.963553688998160851e+00 4.816827354468919964e+01
1.186253881792832843e+01 9.618173430311403038e+00 4.798969812920384470e+01
1.095591719623702254e+01 9.628702837301084116e+00 4.831412299071859451e+01
1.223534529615789168e+01 9.012920385635222686e+00 4.787117143523514073e+01
1.309336249801900642e+01 8.720651378007961085e+00 4.758212418225038220e+01
1.047455654898114119e+01 9.443063416280333300e+00 4.848758631578687783e+01
1.099763310673175631e+01 9.070555845023918096e+00 4.831468889764700236e+01
1.143369380712957017e+01 9.330812883504075117e+00 4.815504691363490508e+01
1.358450477603878781e+01 8.507269395529084122e+00 4.741837928085376319e+01
1.260815133533725430e+01 8.400667685995156120e+00 4.777185972957738613e+01
1.202114811675498807e+01 8.248132558440019579e+00 4.798858097985336713e+01
1.152075727921436865e+01 8.698069297783909803e+00 4.814181525472297096e+01
1.251948234878432054e+01 7.797876290663836585e+00 4.783526014351804889e+01
1.323473406928068563e+01 8.113137373999519397e+00 4.756425243961979987e+01
1.174584754432502720e+01 8.075158058969361008e+00 4.809133854164176824e+01
1.092638830925733373e+01 8.193414582966097370e+00 4.835967720641101408e+01
1.302090016673862927e+01 7.347083954501310465e+00 4.768178565883913222e+01
1.055427793684595628e+01 8.812367902156243105e+00 4.847447605976295648e+01
1.007798157810829842e+01 9.106946026742694045e+00 4.863294087757740414e+01
1.391900426151260994e+01 8.000265455142212545e+00 4.732694216998494596e+01
1.473324758750628227e+01 7.566157018437279724e+00 4.706353066198367685e+01
1.422696796039722145e+01 7.507481506929917892e+00 4.724566780037572045e+01
1.196879541444156558e+01 7.452244026132609278e+00 4.804085939441699082e+01
1.135905920126827340e+01 7.618172355159985365e+00 4.823817370331281751e+01
1.255553971203554298e+01 7.164746276157647031e+00 4.785062505417896261e+01
1.337856932845836511e+01 7.504967175868944018e+00 4.754635109940670645e+01
9.698487527502367200e+00 8.757143243464444282e+00 4.875994743913332741e+01
1.510426838672808181e+01 7.468708992419455406e+00 4.693856805358224449e+01
1.137445722800159764e+01 6.947236864639643628e+00 4.825867336685397646e+01
1.085427198162369855e+01 7.317758341459921212e+00 4.841808844939728829e+01
1.020476675454197313e+01 8.397947803653609711e+00 4.860528873996585730e+01
1.219381585688197056e+01 6.829327841489171824e+00 4.799037733922236981e+01
1.372067465339391745e+01 7.448805818235418208e+00 4.742766028314893845e+01
9.318994889024510897e+00 8.407337666781065977e+00 4.888694034980155578e+01
9.825491969221175736e+00 8.047796798900021642e+00 4.873221885669943276e+01
1.480599441464146970e+01 6.870126252858860028e+00 4.707669880746572488e+01
1.033170677501244938e+01 7.688492104360742374e+00 4.857760961999824900e+01
1.006814091410246093e+01 7.214979964543523749e+00 4.864159889733181075e+01
1.038001359076120522e+01 6.729190566658054706e+00 4.853954746966707745e+01
9.737779086842538234e+00 7.635164937140821451e+00 4.875470205502836762e+01
9.143683696299632402e+00 7.581820150420697679e+00 4.893184885581284504e+01
1.089737500075914056e+01 6.755749894102202724e+00 4.839110765238192613e+01
1.352183220365275851e+01 6.896529529931425095e+00 4.752843074283060787e+01
1.297054017098869672e+01 6.551391273339446819e+00 4.773412063859296239e+01
1.366063794364038664e+01 6.306556065606910622e+00 4.751104338011185035e+01
1.416412999559976704e+01 6.883324195052347605e+00 4.730250866728963643e+01
1.292564394495484237e+01 5.846520326286871239e+00 4.778519955299336885e+01
1.241902448921670832e+01 6.206114070346268718e+00 4.793986788129540599e+01
1.189665740551189366e+01 6.576713452721944186e+00 4.809927554493812352e+01
1.126735177368464669e+01 6.230970770797427782e+00 4.827161893624954558e+01
1.069128261816359249e+01 6.243397300598217292e+00 4.843749707480024114e+01
1.451661458085712297e+01 6.289413479187121681e+00 4.721006091512399649e+01
1.422722027537439615e+01 5.708700216262263538e+00 4.734321215994201992e+01
1.184316988477749177e+01 6.218543404842363564e+00 4.810575268644426217e+01
1.218320685260182756e+01 5.580606813428418356e+00 4.798750787923776073e+01
1.343177526838180036e+01 5.487230716159679389e+00 4.763069917868426018e+01
1.379930509366813851e+01 5.716986081044103329e+00 4.749365510912861055e+01
1.159426687113050747e+01 5.750920896891978273e+00 4.816225007087304988e+01
1.074357874501060550e+01 5.611537786139446204e+00 4.840225783300542162e+01
1.502809660648573775e+01 5.836204953028460984e+00 4.706707189102043998e+01
1.284994951934520024e+01 5.408520141928357283e+00 4.779318957230550069e+01
1.261087395284157431e+01 5.012595413190513938e+00 4.784877206622811485e+01
1.393781892428482294e+01 5.127985408917248300e+00 4.747626884560305882e+01
1.327433456449748483e+01 5.070289416573631414e+00 4.766249109269651285e+01
1.194726235631732614e+01 4.954888834650971852e+00 4.803513580865502064e+01
1.518963020760462435e+01 6.530222396870400736e+00 4.696879344060915429e+01
1.448295693428916131e+01 5.482094568017014780e+00 4.727171585101449125e+01
1.134531096266188577e+01 5.283295959137872977e+00 4.821873283019142065e+01
-8.978499582207611240e+00 -2.379930347294943793e+00 2.107702718162686395e+01
-9.438513097989210010e+00 -1.973835778914548866e+00 2.154311871774569909e+01
-9.220971926849589551e+00 -1.833064642064998973e+00 2.095303176966032765e+01
-9.097277942482103086e+00 -2.561930862519991692e+00 2.151607859562658120e+01
-9.304812311516517553e+00 -2.591052207226277382e+00 2.196226556585326861e+01
-8.842769789184224294e+00 -2.388117397827488109e+00 2.083206598448959923e+01
-9.656121265167000089e+00 -2.114616553740297888e+00 2.213342319383195544e+01
-8.736167842109745507e+00 -2.926316790621713793e+00 2.120095201016019359e+01
-8.871933263647617807e+00 -1.749451221695438319e+00 2.056703868632940768e+01
-8.953352974545255805e+00 -3.067616540402544167e+00 2.179103718994663907e+01
-8.319363645382731320e+00 -2.262457176658463354e+00 2.025321422173295716e+01
-9.453304375233328116e+00 -2.618382291440363829e+00 2.232060783571914442e+01
-8.464747997432180426e+00 -2.942693499136533664e+00 2.071116026056004600e+01
-9.250639104899052612e+00 -3.121672810358298022e+00 2.250765081364135867e+01
-9.878882352790846255e+00 -2.277063959410675853e+00 2.285644941109095285e+01
-8.493711242860852551e+00 -3.472903161395517024e+00 2.132494195155759797e+01
-8.115690535229266089e+00 -2.859064330837048473e+00 2.032522988424246790e+01
-9.682369741994673262e+00 -3.003071129341844170e+00 2.334661113176241543e+01
-8.871068072034820062e+00 -3.503107624029814016e+00 2.215611720573850363e+01
-8.602286832985271303e+00 -3.543596568068295039e+00 2.162000345627627951e+01
-7.806019005681125833e+00 -2.723962634461212229e+00 2.007567442242348577e+01
-8.164713418244808452e+00 -2.194655400388436650e+00 2.012846826958516289e+01
-9.263825195683025981e+00 -3.565951278641660060e+00 2.311458129997956590e+01
-8.086140531693086331e+00 -3.498020133247591090e+00 2.059006831703376150e+01
-1.010147160303433189e+01 -2.439370184816545883e+00 2.357895277612548668e+01
-9.047755474691440369e+00 -3.625450752601476534e+00 2.269489750811298734e+01
-8.251198423637521984e+00 -4.019569088804334278e+00 2.144896193975322163e+01
-7.979607799191179573e+00 -4.035818868711127827e+00 2.095876255942872390e+01
-7.447413841703109050e+00 -3.253078416586804966e+00 2.002289505383240709e+01
-7.911980364931921805e+00 -3.455732578637094932e+00 2.039725996710626887e+01
-7.601103161708542721e+00 -2.155015069453601217e+00 1.996618756256202687e+01
-9.477530675954344730e+00 -3.599553985144299695e+00 2.367041810458150408e+01
-8.548012369645444863e+00 -4.074537316653606744e+00 2.216566986978345355e+01
-7.291059828021455580e+00 -2.735250927965770629e+00 1.993173384166210482e+01
-1.038576758884786955e+01 -1.788346939463510088e+00 2.342746959523476491e+01
-9.896284291731049620e+00 -3.036516049389657024e+00 2.390271460912783041e+01
-7.708385228473187745e+00 -4.052034027947374994e+00 2.046925073765493153e+01
-8.844751623662519435e+00 -4.129492707442265598e+00 2.288225712911972565e+01
-9.058681123276514313e+00 -4.162865989453750970e+00 2.343832260975972304e+01
-1.028372608675905475e+01 -2.542045370545413352e+00 2.412134832411663865e+01
-7.861089191207100590e+00 -4.681054454018014788e+00 2.137896764562454521e+01
-6.781657187869304160e+00 -2.927851500535548546e+00 1.980587728295427752e+01
-7.088947645090440730e+00 -3.781951086826842445e+00 1.997013764184600149e+01
-6.807472974574837465e+00 -2.236766510618283021e+00 1.975022926733154449e+01
-1.044915486861267517e+01 -1.950945242952743852e+00 2.394032817049339812e+01
-9.272602488362018391e+00 -4.196236937420908752e+00 2.399439224069526588e+01
-1.007859690524355933e+01 -3.139198781187311660e+00 2.444533802314372650e+01
-8.445828205286572299e+00 -4.738246308908463433e+00 2.276098985460050272e+01
-8.050249870059612789e+00 -4.664851314449053987e+00 2.180557390860411360e+01
-7.499193379476834842e+00 -4.702787758118594397e+00 2.072590717087570056e+01
-6.755817669927503211e+00 -3.619536922185815353e+00 1.986157669518148339e+01
-7.219520306132693577e+00 -4.181715426112909917e+00 2.019345845753395707e+01
-9.691231479138158633e+00 -3.633151144123209164e+00 2.422626350156959774e+01
-8.206583650934090812e+00 -4.788211738452881505e+00 2.229953960347365438e+01
-6.188454800268768707e+00 -3.742681035685698987e+00 1.978719295681537815e+01
-8.649996728577386662e+00 -4.719284346246682915e+00 2.330441142838327551e+01
-8.864028076598117423e+00 -4.752264294392991140e+00 2.386016100271835327e+01
-9.873587863781422058e+00 -3.735699008667255683e+00 2.476885893463023791e+01
-1.046622262700127237e+01 -2.644829891020039625e+00 2.466448582325303107e+01
-7.471130884491597790e+00 -5.342224093538034957e+00 2.130900180889308615e+01
-7.398779449299516919e+00 -4.607349595059206493e+00 2.048783518063863696e+01
-7.849373022130747835e+00 -5.309853173535795889e+00 2.216206246911654532e+01
-6.729964754736638355e+00 -4.311559151557424308e+00 1.991730588398100465e+01
-5.924137322247944759e+00 -3.285932483101399182e+00 1.970827354902037243e+01
-9.486232863021244910e+00 -4.229561480549569374e+00 2.454972732365338572e+01
-1.026090555293684581e+01 -3.241867515822758783e+00 2.498797044393405997e+01
-8.046913630501940418e+00 -5.346950305217249344e+00 2.263972591211974006e+01
-6.227183590398305491e+00 -2.706036510721821831e+00 1.970372262164593380e+01
-9.078053435279924699e+00 -4.785242549830694969e+00 2.441591728049407806e+01
-1.064860345960596000e+01 -2.747529658614233483e+00 2.520729803196524799e+01
-8.251174673704376517e+00 -5.327706438968053959e+00 2.318293829341842738e+01
-7.364726660003604763e+00 -5.979283938557224509e+00 2.187875951450628875e+01
-7.290107815107949918e+00 -5.353187594813157979e+00 2.098243762484339925e+01
-7.089337871184998363e+00 -5.162338676568649198e+00 2.050641010772198314e+01
-6.643360746474932910e+00 -4.965487493360183358e+00 2.012612870973355328e+01
-5.621087908403403333e+00 -3.865812852977180025e+00 1.971282541490876028e+01
-6.157974554230047026e+00 -4.549706076535290578e+00 1.985212919776611784e+01
-9.709466148703741695e+00 -4.218019657240101417e+00 2.514561735798867304e+01
-8.455427375272897450e+00 -5.308463265501506712e+00 2.372615863173487227e+01
-1.009720196551280935e+01 -3.724055988921337601e+00 2.536561461774578419e+01
-6.406930607905113817e+00 -4.943348764257859074e+00 2.001815345601133345e+01
-5.559816268451974075e+00 -2.837604939848339392e+00 1.962328980402615031e+01
-9.290133009729672153e+00 -4.729411624625500465e+00 2.504138432456547392e+01
-8.669567876151562658e+00 -5.341319986212036852e+00 2.428200698626526943e+01
-1.048464315640431899e+01 -3.230189894461723554e+00 2.558499105205047641e+01
-7.080996982068922030e+00 -6.003651185400168622e+00 2.123900371645114760e+01
-7.648468399137674290e+00 -5.954911486168018797e+00 2.251860485483787144e+01
-5.092533855514912666e+00 -3.483423447089569525e+00 1.961070231612006154e+01
-5.318034567509018373e+00 -4.445681950375086622e+00 1.971737825573423208e+01
-1.072321504736476250e+01 -2.772231677988945986e+00 2.595183580252289346e+01
-7.852461711984790149e+00 -5.935869738032439002e+00 2.306138706952556205e+01
-6.779921961870971181e+00 -5.717259589432839739e+00 2.052498416732976239e+01
-6.556819723985799264e+00 -5.618922071244664806e+00 2.033480216196736734e+01
-5.586214873407814530e+00 -4.787741422035149519e+00 1.978699272862519010e+01
-5.745685935203351136e+00 -5.164278778607622300e+00 1.992776609730504234e+01
-9.933043034192028387e+00 -4.206454541874478537e+00 2.574245453152753171e+01
-9.513308177949200584e+00 -4.718339227577800443e+00 2.563814426827733328e+01
-8.881698391496392730e+00 -5.285539096230971623e+00 2.490778343144717866e+01
-1.032081235446485756e+01 -3.712405462340256257e+00 2.596238893608018827e+01
-1.047727982995353635e+01 -3.495979172427174930e+00 2.651806427304488523e+01
-8.056463747757705463e+00 -5.916826685845854250e+00 2.360422457073924463e+01
-6.916894284072465204e+00 -6.551693547849710697e+00 2.163360544087230508e+01
-7.295550769467787688e+00 -6.518380818872587135e+00 2.248630483463932705e+01
-6.775462468233185653e+00 -6.138218956140774729e+00 2.089109851962571085e+01
-6.084028091981059205e+00 -5.574858344302404234e+00 2.011896076598527117e+01
-5.014976104896387454e+00 -5.025544776412689707e+00 1.972193231029404714e+01
-5.053460694819594146e+00 -2.533304842097670040e+00 1.953035500356974197e+01
-9.093821610135467637e+00 -5.229757672693401638e+00 2.553357856561895289e+01
-8.260811125774633723e+00 -5.897750769525441861e+00 2.414800792054939649e+01
-1.079779578896770431e+01 -2.796829838814475444e+00 2.669617382643115278e+01
-6.809109060493737431e+00 -6.521679475616984689e+00 2.129401858713969986e+01
-7.458759614818085915e+00 -6.488447594485237779e+00 2.301052547953819172e+01
-4.632280948159145595e+00 -4.414134208984075158e+00 1.962157551216612816e+01
-4.460179673780249487e+00 -2.862312805746834332e+00 1.947561042527305375e+01
-8.473390932715181734e+00 -5.841602811703970666e+00 2.477451894422951639e+01
-7.662610931617837018e+00 -6.469816678560317946e+00 2.355372268343608866e+01
-6.470240886791488677e+00 -6.272638540350513381e+00 2.054357402244042419e+01
-4.249585430765105087e+00 -3.802722188371318701e+00 1.952122239025565520e+01
-5.614488051145509750e+00 -5.682412757194973629e+00 2.004112828740074548e+01
-5.156219252208819270e+00 -5.629667705964219948e+00 1.992151944446129619e+01
-4.636041677197103361e+00 -2.246320407853848344e+00 1.949884779374557908e+01
-5.036563611963329912e+00 -1.728242141009762145e+00 1.953980768563905812e+01
-1.015688198641481499e+01 -4.194871395537608016e+00 2.634002081301517606e+01
-9.736478616118283469e+00 -4.707263965632273006e+00 2.623492236542658773e+01
-8.685561705800084908e+00 -5.785561864282883882e+00 2.539986965369579508e+01
-9.317086774915996017e+00 -5.218415238518607779e+00 2.613007817406089117e+01
-1.054330116039550447e+01 -3.179115943337909478e+00 2.739638087805556310e+01
-6.537376959393331965e+00 -7.039396952554090703e+00 2.134900248423888769e+01
-6.753057286718684438e+00 -7.098831237004029404e+00 2.202756494931157860e+01
-7.105632581783190460e+00 -7.052389854351106102e+00 2.297853445452897603e+01
-5.761195919383325759e+00 -6.206210790310274561e+00 2.021974593936939257e+01
-4.102445159394850549e+00 -2.506197017359309775e+00 1.945010305843153020e+01
-7.866455439964532559e+00 -6.451185256361948284e+00 2.409692980946013563e+01
-8.021996275475389737e+00 -6.365046011349384081e+00 2.471727740537064832e+01
-1.020098603410032645e+01 -3.983448065570462493e+00 2.692554025902462200e+01
-6.368058607620252332e+00 -6.914623355162782481e+00 2.097372282191018300e+01
-6.942456554041252836e+00 -7.082112756141676790e+00 2.245399184807657633e+01
-7.268798620978221159e+00 -7.022666276520956430e+00 2.350309090367449727e+01
-3.966397089203127724e+00 -4.812913028356859968e+00 1.968293260634355235e+01
-4.473357599320373801e+00 -5.285247360138761508e+00 1.976140167763918143e+01
-3.866890044903409152e+00 -3.191309798434597944e+00 1.942087346767511846e+01
-4.751062042197865765e+00 -5.648539555962106107e+00 1.989424669228149511e+01
-4.337995139605765438e+00 -1.821074555786644344e+00 1.947933328718145418e+01
-8.897726802542797131e+00 -5.729519657642316410e+00 2.602524042710758678e+01
-8.234497802351134155e+00 -6.308694756646551660e+00 2.534290534684123131e+01
-5.954407485073911488e+00 -6.554919309784006387e+00 2.043201309626073581e+01
-6.173386617410956845e+00 -6.913389958007001290e+00 2.078520169548162499e+01
-5.297407753792301222e+00 -6.233558716523136312e+00 2.012103574855235522e+01
-4.209324684783174675e+00 -5.908304775732661440e+00 1.993373292453661705e+01
-3.931516627609746628e+00 -5.545048917136829125e+00 1.980089453646671771e+01
-9.834893445458105177e+00 -4.538808447690318104e+00 2.691090346057248084e+01
-9.415321294040881028e+00 -5.050205939963225532e+00 2.680559464464731434e+01
-1.024504509430215116e+01 -3.772213030041324355e+00 2.751058043726864000e+01
-7.472797611600584311e+00 -7.003627589673290466e+00 2.404594326132840720e+01
-6.265861227404083245e+00 -7.556691119803896406e+00 2.140394269269118865e+01
-6.589164004227314742e+00 -7.646144111385510200e+00 2.242165998515941538e+01
-3.459434962501183541e+00 -4.340578356725747433e+00 1.960447141902778512e+01
-3.663163841173920243e+00 -3.765948574386665193e+00 1.951267188280084852e+01
-3.538768549543215514e+00 -5.291515968140164894e+00 1.975824181648386713e+01
-4.487131257040993582e+00 -6.271560210685738213e+00 2.006657278785363374e+01
-3.558217799990511576e+00 -2.083643448227944450e+00 1.944720094590655535e+01
-3.372205646840682913e+00 -2.807247376118028548e+00 1.941823602967375706e+01
-8.446992749716480731e+00 -6.252343065127516475e+00 2.596855416413702144e+01
-8.995750508530818479e+00 -5.561595466090621720e+00 2.670028339265666872e+01
-7.628114692443365819e+00 -6.917735204398983484e+00 2.466594864125261566e+01
-9.879314823247113964e+00 -4.327031744411138803e+00 2.749592228958271889e+01
-6.427361600816086984e+00 -7.601375440540978801e+00 2.191230602141875394e+01
-5.876379142452325510e+00 -7.554460011902135896e+00 2.102695436406028051e+01
-6.834349796706392866e+00 -7.601085773545434243e+00 2.320893638735880060e+01
-5.438540481606461086e+00 -6.837203509153295222e+00 2.032047655442979917e+01
-3.213868513941382954e+00 -3.549916558736367023e+00 1.946657150500159261e+01
-3.255702961878867541e+00 -4.915202888112445656e+00 1.969627250612619207e+01
-7.783424098421718895e+00 -6.831843110838467403e+00 2.528597901701464679e+01
-1.028911582745396203e+01 -3.560902190254942923e+00 2.809590920036172790e+01
-1.059421658285545931e+01 -3.001568310945946116e+00 2.804194839246353865e+01
-6.389378702142813893e+00 -8.096586911601466596e+00 2.296114300027722521e+01
-7.079110070975531244e+00 -7.556099984179173390e+00 2.399494980737035732e+01
-5.485475585034251367e+00 -7.289970356156395326e+00 2.063653389051854958e+01
-3.389821513586191770e+00 -5.804771962227859738e+00 1.984038534659116593e+01
-3.853086681254857204e+00 -6.410336631377505867e+00 2.006183857988511221e+01
-2.877483403364844872e+00 -2.423156643261149323e+00 1.941560054727905893e+01
-9.513487330502844230e+00 -4.882099940562049767e+00 2.748084750907326068e+01
-8.589863463493724538e+00 -5.961991814105610743e+00 2.659158015207582793e+01
-7.995870626552065374e+00 -6.775608352738607287e+00 2.591181756796077451e+01
-9.923735031262173933e+00 -4.115244329317568450e+00 2.808105325136136798e+01
-6.087100861908348648e+00 -8.007093885610103712e+00 2.176877119706013630e+01
-5.579347182100271141e+00 -8.195573840442113678e+00 2.126872683036533118e+01
-6.159101031275611149e+00 -8.277515852966200072e+00 2.246024765683813484e+01
-4.698999306081091731e+00 -7.177119223897062028e+00 2.036575482374884416e+01
-3.051967134945502647e+00 -5.489821900258365694e+00 1.978807506503746794e+01
-2.719162952563515034e+00 -3.165840861778927096e+00 1.946393781193487271e+01
-8.073705437717517697e+00 -6.545441564944623813e+00 2.660073162606911978e+01
-9.093760270917989885e+00 -5.393687154319218635e+00 2.737535820795227437e+01
-7.234160245889861507e+00 -7.470460815623538586e+00 2.461435699327609328e+01
-1.040251448940877133e+01 -3.233306637660770644e+00 2.866552485177938081e+01
-9.557627624739092553e+00 -4.670688298583558051e+00 2.806617023907438124e+01
-5.532406876587983469e+00 -7.742722775556755366e+00 2.095259078592063773e+01
-6.552883325111397816e+00 -8.066281137582061334e+00 2.348543069673358730e+01
-2.581752764535725664e+00 -4.591155816486630847e+00 1.962712836624156765e+01
-2.560838456336525404e+00 -3.908515969785741451e+00 1.951227637567774309e+01
-4.223145427391895801e+00 -6.894699203317175673e+00 2.023893587538023553e+01
-2.848226841928718667e+00 -6.064439075259919321e+00 1.987987980274205313e+01
-3.013989500936256949e+00 -1.661090711247143137e+00 1.944430121910644615e+01
-8.687876136092636870e+00 -5.794075836949948766e+00 2.726665813481830369e+01
-7.389412989573566293e+00 -7.384705605072938717e+00 2.523463479005500432e+01
-1.004349977415658302e+01 -3.874684160058791793e+00 2.874626788337254268e+01
-6.189904570267286132e+00 -8.546310017945158322e+00 2.349977481565935378e+01
-6.716378061544068245e+00 -8.035975142956635509e+00 2.400973307314017191e+01
-5.210665697593886314e+00 -7.322889904332730460e+00 2.056225448348977380e+01
-2.726341923708901938e+00 -5.080603098074587542e+00 1.971233043412554409e+01
-3.219031707131988274e+00 -6.549110758337596927e+00 2.005711778883038576e+01
-2.255963494793088664e+00 -2.633163731272725627e+00 1.945164120123901697e+01
-2.382499179397632005e+00 -2.038862098686410551e+00 1.941296602144848293e+01
-9.191873817484145448e+00 -5.225595168635202903e+00 2.805130422585470740e+01
-8.281992579630282236e+00 -6.194464067176340016e+00 2.715796821265258743e+01
-7.544694402051506543e+00 -7.298930463245202560e+00 2.585507643138492995e+01
-7.575077733936037561e+00 -7.139035580477821163e+00 2.646407995403392377e+01
-9.677901121200990886e+00 -4.429330730481734868e+00 2.873169957576655875e+01
-5.908255525769177119e+00 -8.457701047294618135e+00 2.213376888993297342e+01
-5.654345127343304078e+00 -8.551828886296467758e+00 2.188352069870179406e+01
-5.859721188239207734e+00 -8.952567291282125694e+00 2.326890047553831309e+01
-6.848078159475331717e+00 -7.843406154266277852e+00 2.447147767032322108e+01
-3.959514287714938519e+00 -7.516990307164951979e+00 2.041106889860531126e+01
-4.982732189434818437e+00 -7.808699953887644263e+00 2.080409739856771623e+01
-3.589338660902896549e+00 -7.033135367219517597e+00 2.023412266055530040e+01
-2.317083618294040193e+00 -5.584875167557172837e+00 1.978782447328125826e+01
-2.097680874129559836e+00 -3.375859855224396799e+00 1.949998092398561766e+01
-2.519097673818205152e+00 -1.276788600960984343e+00 1.944166856692404366e+01
-1.015701422912926688e+01 -3.546940178367375296e+00 2.931598590913882063e+01
-5.306554743539182439e+00 -8.697133703493175716e+00 2.170288135558033460e+01
-5.729387812010557468e+00 -8.908356307453752621e+00 2.249880886477562925e+01
-6.353450052774205048e+00 -8.516100436022030706e+00 2.402452373653595075e+01
-1.907796127127906471e+00 -4.267109609716863261e+00 1.955798960599108227e+01
-1.785882148280393267e+00 -5.105260817689626585e+00 1.969576232494997470e+01
-2.685512921273702780e+00 -6.606175043141149672e+00 2.013939727020341408e+01
-2.305793479005687985e+00 -6.288390951246265459e+00 2.001688039566765198e+01
-3.056154229309276715e+00 -7.090242316153940294e+00 2.031638005873272945e+01
-1.634435017023227132e+00 -2.843166598461324135e+00 1.948768918885602375e+01
-3.150491338189020052e+00 -8.990129349011368731e-01 1.947300227473434475e+01
-8.683168270419582058e+00 -5.703681078726973830e+00 2.813122172815784694e+01
-7.924811295852815185e+00 -6.590798616665873411e+00 2.720028646006931083e+01
-8.420270894042801046e+00 -6.005702185754051570e+00 2.767192547239685041e+01
-7.003231517059631983e+00 -7.757706827668107152e+00 2.509132656256952032e+01
-7.605465188830117462e+00 -6.979103626525312798e+00 2.707326032767326751e+01
-1.051588066181324344e+01 -2.905800017564212467e+00 2.923541998730505043e+01
-9.312302136258173491e+00 -4.983977318435346859e+00 2.871713365941069895e+01
-5.053075387873240842e+00 -8.488235777318367425e+00 2.127841730745872439e+01
-6.485250933863056844e+00 -8.323405233559723726e+00 2.448625901676084027e+01
-4.148657183261621029e+00 -7.938645018553079247e+00 2.070363233953019844e+01
-3.373034531584742979e+00 -7.754334405096191318e+00 2.057957277982489686e+01
-1.657139176618406484e+00 -5.791226338605528490e+00 1.993310940912472162e+01
-1.761001452931269418e+00 -2.248938826102628852e+00 1.944901409385895263e+01
-2.583554384861078468e+00 -8.067633293004012884e-01 1.949108943540073113e+01
-1.887582341298950528e+00 -1.654621105952383875e+00 1.941033462934953135e+01
-7.974106487297264678e+00 -6.426943572546460537e+00 2.772442792007111834e+01
-7.081244182377084861e+00 -7.767970041029654382e+00 2.587071144769685205e+01
-7.181526454920007296e+00 -7.494794244703622432e+00 2.648057795556280780e+01
-9.798041556944916408e+00 -4.188259723269041501e+00 2.939662880109580811e+01
-8.852654554517160435e+00 -5.423442388489014832e+00 2.865927551363276393e+01
-9.432565298299628864e+00 -4.742689824291619338e+00 2.938244596375108841e+01
-4.754519791408511331e+00 -8.295100583370055958e+00 2.104623712652923473e+01
-5.432934326276209980e+00 -9.281702497754508840e+00 2.306527884235806880e+01
-5.990087083991508798e+00 -8.996793428369567636e+00 2.403933259721720361e+01
-6.617047336386313816e+00 -8.130707406468950182e+00 2.494801842321806262e+01
-1.507873552833855602e+00 -3.437347984136621015e+00 1.952636270274428654e+01
-3.749852653903509747e+00 -8.045209398174929305e+00 2.073987489486582092e+01
-2.522967528696820505e+00 -7.147349176601221821e+00 2.039864910598502590e+01
-2.956430317014805631e+00 -4.116737467290891850e-01 1.952801854270083481e+01
-2.019137388344629969e+00 -1.062585865198065749e+00 1.947185465874201782e+01
-7.269382304173769960e+00 -7.236032932962142894e+00 2.730340303825858328e+01
-5.033466116901905707e+00 -9.199231046227549058e+00 2.213750482537319897e+01
-4.526518851279079492e+00 -8.781045253279119223e+00 2.128815202679898988e+01
-5.245115041428376479e+00 -9.304636682355841515e+00 2.253541135759465064e+01
-6.044862623661722445e+00 -8.899910315924618232e+00 2.465942124295159488e+01
-8.994575416287221570e-01 -3.118784519071991390e+00 1.956919041839291751e+01
-1.254735619288141590e+00 -4.625698846302008782e+00 1.960371334670633559e+01
-2.839722983044126181e+00 -7.535838601941696524e+00 2.053863113946594510e+01
-1.110932147949329929e+00 -5.208792213351132183e+00 1.980955626717938145e+01
-2.196387166280158176e+00 -6.773977034109281981e+00 2.024722419386990069e+01
-1.763621160812073541e+00 -6.512233116199901417e+00 2.015382187911436418e+01
-1.349678046673760790e+00 -2.033512593102789978e+00 1.947796344243873889e+01
-8.174595911687864813e+00 -6.181640728181934108e+00 2.821111989835290501e+01
-8.343967239476178577e+00 -5.901492259639229410e+00 2.873925751474087065e+01
-7.635831034864006384e+00 -6.819271226613135006e+00 2.768210254061200359e+01
-6.756434034268613331e+00 -8.047919471676438619e+00 2.545411136818570341e+01
-8.972950071827833440e+00 -5.182018033507156396e+00 2.932492245883844717e+01
-4.337665197081317814e+00 -8.360012123771564774e+00 2.099600402131990151e+01
-5.136417498660969194e+00 -9.655124626385662268e+00 2.363187024821683124e+01
-6.320196295267884956e+00 -8.523995617041945749e+00 2.494552873874704346e+01
-8.117914181172379839e-01 -2.412382230340047506e+00 1.954559313456469027e+01
-1.381307680028159401e+00 -4.031524284709310457e+00 1.956503732434440224e+01
-2.785072788741608463e+00 -7.992276923761553853e+00 2.074851660206928372e+01
-2.360508505068365626e+00 -7.688230315627921918e+00 2.065776440096242084e+01
-1.243110069784367999e+00 -1.349427475226184781e+00 1.950198572054818058e+01
-6.660405541078812774e+00 -8.022247692904876715e+00 2.649799689294071214e+01
-6.818655640286436004e+00 -7.690495329438221894e+00 2.710559251596855646e+01
-6.617877152994505074e+00 -8.236922762719958158e+00 2.588634753382101650e+01
-8.513336416960196829e+00 -5.621345608523371062e+00 2.926750732291455392e+01
-4.643404702892236280e+00 -9.240880805719328350e+00 2.192971504651546510e+01
-3.928743489161536484e+00 -8.940517915518611858e+00 2.134227792543936175e+01
-4.177363212277485083e+00 -9.205923780927349753e+00 2.172558844923873878e+01
-5.414797885025302904e+00 -9.512860260875395824e+00 2.411898002869311597e+01
-4.786883932352830939e+00 -9.810357784225011812e+00 2.311408201022255327e+01
-5.696746869364120336e+00 -9.224150192212384525e+00 2.453356623985095197e+01
-8.671501448132958867e-01 -3.762339546935072221e+00 1.960123218250478416e+01
-3.540385536239507580e+00 -8.572934989345398549e+00 2.106837848663467128e+01
-3.220669143132277590e+00 -8.227013910957673204e+00 2.087232603615763793e+01
-9.669672015786768826e-01 -5.792535162009339267e+00 2.001563224465676072e+01
-1.311728759520176091e+00 -6.212973740655186816e+00 2.011071017721927134e+01
-1.842550161298800449e+00 -7.170117073189902435e+00 2.045169253982148305e+01
-7.666195116546790977e+00 -6.659437966922175711e+00 2.829099371637940408e+01
-6.993814423130949365e+00 -7.388745669747884826e+00 2.775920296630561168e+01
-4.760409119433949954e+00 -9.701261437845605684e+00 2.257207178685080606e+01
-6.099707223219451357e+00 -8.802892013501322666e+00 2.528041126860693311e+01
-6.385878786580585498e+00 -8.418176762922705336e+00 2.542486630096031419e+01
-2.739021627706716422e-01 -2.791244005548909168e+00 1.961322664641329538e+01
-6.407819671923283833e-01 -1.697794430274967681e+00 1.957877921020109113e+01
-7.405751936235240862e-01 -4.356514358592717073e+00 1.963990970203509079e+01
-6.029518578202791579e-01 -4.989381827786813162e+00 1.977856769518343327e+01
-1.220964759305473990e+00 -6.736271942799040957e+00 2.029089357165490171e+01
-7.722281613585207261e+00 -6.445453315317585918e+00 2.902173464473739273e+01
-8.112097144921087022e+00 -6.018673225004769201e+00 2.923767354838802035e+01
-7.141990922749525517e+00 -7.133426093565605974e+00 2.831240517737185769e+01
-3.331209506883138882e+00 -9.099923717873096507e+00 2.139642849728337382e+01
-3.405272505958161222e+00 -9.577599239355295779e+00 2.199822268767957212e+01
-4.813349276900382279e+00 -9.919439990572460175e+00 2.365605859718944970e+01
-4.839835445402453473e+00 -1.002862474619300492e+01 2.419858673816302286e+01
-5.756005425313808210e+00 -9.129262605555835464e+00 2.507451720840148113e+01
-3.015766885211747517e-01 -3.466221201547064812e+00 1.964104768229198683e+01
-2.764682217330997283e+00 -8.665060446278141981e+00 2.115692089664223019e+01
-8.230307346165545157e-01 -6.376159059210661617e+00 2.022167008773527286e+01
-1.691032375467036220e+00 -7.806189775020637711e+00 2.075394508322571241e+01
-2.197802645443232894e+00 -8.229935590545041535e+00 2.091727853722839470e+01
-6.123891818256319119e+00 -8.393673697528912570e+00 2.712893679345340558e+01
-6.456004619083649310e+00 -7.886075475123825562e+00 2.773026123143805677e+01
-6.139233651487285393e+00 -8.549623828179452545e+00 2.651587579483269153e+01
-3.828354966484036837e+00 -9.630618320898943097e+00 2.216283883311176695e+01
-4.119791327064683095e+00 -9.878322850616678252e+00 2.258607008770145441e+01
-4.348220950546934027e+00 -1.002209109963457756e+01 2.313811864989758149e+01
-5.403653370524183153e+00 -9.451314887994886504e+00 2.502739534016563638e+01
-6.154593146032620865e+00 -8.705788689467400587e+00 2.590198602435515340e+01
7.857499993136039113e-03 -2.128960525837886308e+00 1.966069788306561250e+01
-2.264127290954146277e-01 -4.087329878616260181e+00 1.967610797068989825e+01
-3.867826796932813949e-01 -5.864773581025903404e+00 2.008763105398940141e+01
-1.184926357572757327e+00 -7.383003776441714905e+00 2.059083022613939917e+01
-7.778368330350281745e+00 -6.231459275917926810e+00 2.975271507512784908e+01
